ply
format ascii 1.0
element vertex 1927
property float x
property float y
property float z
end_header
2.98705 3.68305 2.87103
0.079323 3.95811 2.34554
-0.0766023 2.49056 2.78069
1.69964 3.3504 2.61161
3.14691 -0.756965 4.22409
2.39539 0.891778 3.64974
-0.219196 0.587413 3.94488
1.63819 1.78815 3.20534
0.221751 3.76565 2.34383
2.12228 3.32614 2.67195
2.03464 -0.638076 4.36683
1.33003 2.47378 2.86939
1.74736 1.74116 3.34941
1.90866 4.01167 2.44357
2.43028 0.787382 3.68832
-0.122184 3.87908 2.29862
1.53514 0.340936 4.1464
3.78917 -1.10973 4.3429
1.78175 2.66993 2.86017
-0.113065 3.22776 2.45153
-0.345681 0.491448 4.16084
3.33287 1.03835 3.77087
1.74638 -0.989596 4.81048
2.40074 1.89215 3.22535
-0.415962 3.96501 2.1439
-0.119444 1.49483 3.4804
0.664149 -0.188946 4.54301
-0.282364 2.18628 2.90313
-0.383884 3.62238 2.49014
2.22947 3.02918 2.69019
-0.795738 3.66121 2.46055
-0.0751756 2.15121 2.99923
-0.327402 4.10625 2.1782
2.3624 1.41314 3.50154
2.45574 2.95965 2.73222
-0.151691 3.07114 2.54906
1.46011 -0.527546 4.67336
-0.756639 2.3042 2.80228
-0.293174 3.68845 2.40972
0.544175 1.62425 3.307
-0.432409 4.1217 2.12992
3.51223 0.680887 3.87573
2.65741 1.57131 3.41092
-0.0589585 -0.34352 4.3208
0.594294 2.25312 2.87508
0.388953 3.7438 2.38321
-0.687728 2.98298 2.5611
0.638821 1.79569 3.19238
-0.421582 -0.643488 4.56603
-0.0742173 0.98267 3.98894
2.16343 3.47685 2.70522
-0.334852 2.4673 2.73272
-0.640149 -0.505496 4.68702
0.706841 3.9958 2.41932
0.57591 1.13372 3.70929
2.26138 4.181 2.4751
3.16928 1.94031 3.11743
2.77671 -1.03189 5.14589
-0.51048 2.62921 2.69191
4.72194 0.485784 4.1119
-0.763551 3.39864 2.51733
2.42676 0.577704 3.81128
0.451257 1.86694 3.17138
3.54614 -0.767256 4.40127
0.00478778 1.05052 3.75681
2.26395 3.46835 2.6353
0.003837 2.54652 2.71357
-0.529118 3.88004 2.24201
1.03487 3.0369 2.60352
0.299226 2.27012 2.87913
0.76856 1.57787 3.39339
3.32109 -0.157274 4.07052
0.157844 3.58501 2.39815
1.48487 4.23641 2.24545
3.89179 1.53606 3.55132
0.815272 2.20532 2.9205
1.13835 4.32467 2.23292
3.54169 -0.0420663 4.19204
0.365452 2.8785 2.54521
1.93142 3.82043 2.49309
-0.0844132 2.41284 2.79028
-0.502704 3.13683 2.50913
0.71985 3.82125 2.429
2.18543 0.843029 3.86607
2.78495 1.71222 3.27637
1.01645 2.39908 2.91124
1.7498 3.31921 2.75035
2.52261 -0.336886 4.38656
0.688109 0.715409 3.93145
1.81915 1.687 3.41717
0.420797 3.83704 2.3848
-1.31073 0.328777 3.84828
-0.685161 -1.16311 4.77829
1.83795 3.84482 2.50896
0.416146 4.31675 2.22847
4.0335 -0.991058 4.88559
2.34034 2.37804 3.02481
3.27178 0.480401 4.05316
0.76527 3.02582 2.59388
-0.734407 1.53632 3.2998
0.101607 1.68893 3.23459
-0.697256 0.788241 3.65069
-0.452939 2.37841 2.75001
0.633967 3.79435 2.41199
1.20431 3.17584 2.54619
0.125639 0.120643 4.39434
3.55968 1.6743 3.40418
3.95416 0.227183 3.99979
-0.21958 0.705692 3.87229
-0.737787 -1.30635 4.28276
0.797836 3.09888 2.56757
-0.434048 3.75615 2.33408
-0.0109708 2.34948 2.85033
-0.322558 3.91503 2.22263
1.4051 3.5909 2.52736
-0.522299 2.73914 2.60769
1.60166 2.14549 3.12645
3.97025 -0.584981 4.07626
0.824591 1.19911 3.53783
2.91254 1.33088 3.5925
1.82248 2.13027 3.26241
0.711264 2.69926 2.66113
3.05277 -0.471931 4.28053
1.78271 3.6061 2.608
0.585976 4.11177 2.28241
2.1357 -0.864429 4.95111
1.6248 0.599971 3.96641
0.235062 2.84473 2.51528
2.9947 1.56884 3.62929
-0.539369 3.91521 2.11132
0.382016 2.25614 2.98752
0.139233 3.51815 2.41498
0.648336 2.79926 2.57835
0.284604 2.15995 3.00194
-0.589069 3.60717 2.41268
3.57753 1.43812 3.56036
-0.0483547 4.12727 2.18659
2.87574 -0.0422328 4.22565
-0.115515 4.07662 2.26233
2.45841 2.90415 2.77217
-0.755902 0.113246 4.05698
-0.359252 3.55247 2.50344
1.01715 1.31133 3.54521
0.495786 2.03364 2.9637
-0.126796 2.27287 3.00908
1.06329 4.30877 2.32756
-0.377601 1.45709 3.37266
0.0927291 3.44954 2.36787
0.0630413 2.8594 2.52813
0.726894 -0.358651 4.64174
2.336 -0.164546 4.2489
-0.250448 2.17191 3.01774
-0.299525 4.23269 2.24258
3.22947 1.39353 3.45023
0.632166 3.67175 2.46034
-0.365254 2.81407 2.59116
0.166203 3.86772 2.34144
2.04764 3.50897 2.66612
-0.0866869 2.57828 2.74734
-0.020889 1.85061 3.14302
5.99322 0.398366 4.83814
3.96785 1.03044 3.70783
-0.902004 -0.993272 4.00777
3.49019 0.90788 3.71123
-0.0694908 1.7441 3.09971
3.26842 0.489848 4.13088
1.94376 2.63421 2.93389
3.06155 -0.901516 4.44055
1.42342 3.32334 2.58567
3.84543 -1.37173 4.41971
3.23829 2.89185 2.85769
3.7233 0.223609 3.95995
-0.0264128 3.39391 2.45375
1.30531 3.9953 2.36483
-0.730345 1.15471 3.40077
1.59119 4.11602 2.38281
1.49354 2.05677 3.15007
0.48234 3.2884 2.44065
3.26528 2.77713 2.85145
2.39406 2.00177 3.21672
-0.506179 3.86592 2.19462
-0.564384 1.1009 3.59681
1.87646 -0.511708 4.63463
0.375892 4.1129 2.43376
-0.473025 2.54809 2.72156
-1.28578 -0.312855 4.10861
1.33134 3.42996 2.60594
3.0208 1.02213 3.68156
-0.628357 1.83783 3.1194
0.393917 1.99298 3.05249
0.434567 1.23254 3.66177
1.15098 4.05729 2.34855
-0.259752 3.4005 2.45838
-0.299721 -0.871372 4.99114
1.25524 2.74066 2.70841
1.4482 0.629808 4.16583
1.32234 1.98914 3.19802
3.33848 1.09359 3.59634
-0.610551 3.86669 2.19504
0.405934 -0.687485 4.77929
-0.568022 3.35148 2.48699
2.55595 2.77737 2.85168
0.709677 3.79916 2.4788
-1.14623 0.682636 3.78033
0.23846 4.219 2.17777
1.57579 1.65107 3.36077
1.77998 2.43073 2.95786
-0.0522023 2.98927 2.4762
2.03184 3.90131 2.48429
3.4318 1.64687 3.55521
0.891361 2.2843 2.90614
-0.928593 0.116451 4.15841
0.887741 2.99606 2.5737
-0.632576 3.1625 2.45949
1.12788 -0.180414 4.60413
1.69586 2.63957 2.93996
3.05707 1.82373 3.25279
2.26729 4.02744 2.5077
3.1292 0.898014 3.6728
0.83646 3.1692 2.54075
-0.505838 2.38742 2.76042
2.1829 -0.0427322 4.2156
3.09195 1.75593 3.37506
-0.84653 0.783792 3.62874
-0.50775 3.76102 2.27658
3.70408 0.639282 3.96008
4.30314 -0.72693 4.4052
-0.698058 3.75066 2.31337
2.73485 -0.545107 4.1434
1.07141 2.49521 2.85491
0.612408 3.07823 2.43523
1.30515 0.879594 3.8708
1.42151 1.82265 3.38295
2.93443 1.89813 3.15805
2.03616 1.09767 3.7951
1.86159 -1.10434 4.81167
0.660184 3.27881 2.4685
3.38991 0.365958 3.85839
1.20933 2.62647 2.75754
1.21245 1.87909 3.29869
2.88399 0.532183 4.16467
4.53631 1.03265 4.06609
0.679011 -0.860054 4.49317
0.0364399 3.94081 2.37205
2.17954 3.44138 2.66286
-0.139905 2.55733 2.78867
1.44462 4.04199 2.37916
-0.576584 2.96503 2.6045
-0.509017 3.58326 2.43945
0.881194 2.22539 2.91044
-0.306455 4.15941 2.23182
0.112698 -0.29998 4.59369
2.12104 1.43969 3.27826
-0.296907 1.41868 3.41572
1.70635 2.21855 3.03324
0.521139 4.16324 2.18682
1.83153 -0.134366 4.22359
1.06838 3.6803 2.44298
0.0268528 2.80229 2.5417
-0.708718 2.35368 2.80546
1.03609 3.15125 2.58056
3.64208 -0.371218 3.8715
4.91146 0.840478 4.37533
0.340888 4.32435 2.21327
-1.01111 1.66844 3.26558
0.399086 3.69053 2.38913
-0.396389 3.00796 2.55166
-0.628749 2.31101 2.87729
0.841369 3.77109 2.38276
-0.990693 1.56787 3.28282
2.76388 0.273073 4.14091
4.6318 -1.3754 4.71947
0.680961 3.47437 2.30605
1.01722 4.28064 2.25158
-0.554295 -1.09924 4.79664
0.771255 2.2286 2.91463
3.34416 0.378564 4.0029
1.86211 1.51435 3.44879
1.98794 3.04892 2.68506
-0.231001 4.12829 2.11293
3.6582 1.6799 3.3047
-0.108919 3.72814 2.41321
3.34505 0.723842 3.77069
0.264276 3.02386 2.4758
3.86281 0.00688361 4.26257
2.29896 2.52112 3.0239
3.00969 1.58249 3.33163
0.58646 3.85016 2.43257
1.92828 3.10061 2.63677
2.6266 0.141934 4.07012
-0.8625 2.25743 2.81021
-0.529207 1.24961 3.58223
-0.574343 3.43732 2.45946
1.43467 4.07645 2.34688
-0.485733 2.68424 2.61465
1.08927 0.641724 3.99578
2.6863 2.06155 3.12177
4.22847 -0.758193 4.58793
-0.373469 1.14849 3.5863
2.55105 2.02849 3.2106
2.30518 2.81502 2.8554
3.07719 -0.550119 4.09997
1.75427 3.5424 2.6113
3.16736 -0.77706 4.0156
-0.0949699 2.84462 2.57996
1.93633 0.514788 4.03616
0.115745 4.0276 2.26843
3.579 1.43972 3.48309
-0.718426 3.93561 2.16393
0.175869 2.21625 3.0299
2.00696 3.67998 2.56877
2.24265 2.98066 2.81956
-0.121951 2.08089 2.98022
1.94913 3.76551 2.5688
-0.929587 1.28663 3.34317
1.63849 4.19993 2.25749
-0.954726 -0.130963 4.17768
1.95604 2.9178 2.76022
1.21129 3.58068 2.4992
-1.67287 1.70746 4.44708
-0.584326 3.91441 2.20432
-0.664515 2.01531 2.8848
2.31032 0.00688669 4.21178
1.53174 2.86164 2.79513
2.35373 3.66171 2.62577
2.36364 1.22095 3.52349
1.30135 2.07135 3.13822
-0.161697 2.13674 2.93018
1.65108 4.13898 2.28306
3.01662 1.39703 3.37999
3.21572 -0.392403 4.11806
2.16187 3.074 2.80088
1.25921 4.21518 2.26546
1.83479 3.70511 2.52756
-0.278881 -0.301776 4.47103
1.49109 0.975369 3.84883
1.26004 3.89917 2.40964
1.00405 1.86432 3.27285
-0.185367 2.48297 2.70744
1.7907 3.41843 2.64505
3.45187 0.843468 3.74539
1.27265 3.93749 2.37404
-0.692843 1.73915 3.22541
-0.398585 2.40586 2.75149
0.368139 0.392865 4.17916
1.36393 3.25765 2.58231
3.69402 -1.00065 4.31996
-0.461859 3.34232 2.46286
1.2428 2.71966 2.75896
1.42994 0.147555 4.25786
1.42961 1.99331 3.15632
-1.26396 1.15001 3.58637
2.83668 -1.305 4.48437
-0.373045 3.23663 2.43621
1.95679 0.265278 4.0344
1.0245 2.60934 2.73954
1.13336 1.94209 3.23383
1.12846 3.99882 2.35358
0.272227 1.08626 3.75794
1.22898 4.03188 2.32114
-0.203453 2.57953 2.7141
0.587053 3.24356 2.44624
2.94762 -0.614409 4.58414
4.24251 1.10345 3.84027
0.517682 3.95528 2.38438
0.65216 1.89483 3.15519
-0.640983 2.5937 2.82764
2.52737 -0.442721 4.61693
1.63264 3.40046 2.63111
-0.148194 0.978326 3.85917
1.00285 4.01522 2.3631
0.864033 1.79815 3.15671
0.538065 1.92596 3.04996
2.53126 1.18548 3.72832
2.02129 3.58928 2.65055
2.83448 -0.822749 4.24825
0.33595 0.541819 4.25563
0.719803 2.64208 2.68017
0.115238 4.02267 2.31525
3.69981 -0.674458 4.08642
1.69266 0.619497 3.91331
0.0341441 3.6197 2.40225
1.9101 4.2086 2.21701
-0.284946 1.57915 3.32615
2.4064 2.45239 3.06372
1.12329 3.0581 2.6005
1.65334 1.53911 3.50611
-0.263671 3.70201 2.39633
-0.515963 4.10946 2.10294
0.684326 0.00540576 4.43987
0.470174 2.2016 2.87917
1.29821 3.01733 2.65719
0.948281 3.18773 2.52676
-0.470775 -0.299337 4.43703
2.37659 2.52009 2.89073
0.262151 1.72223 3.21074
-0.732555 3.82015 2.41308
2.70535 0.831729 3.69041
1.28289 3.17427 2.60454
1.69066 2.44242 2.92986
-1.03984 -0.128278 4.07238
0.248708 1.62974 3.20919
3.34982 0.751933 3.91263
0.782169 3.89222 2.4051
0.928843 1.93317 3.20634
3.44263 -0.383862 4.11214
-1.08137 0.998465 3.38917
1.76323 3.47144 2.61395
0.801972 2.5971 2.71986
-0.221083 3.82647 2.29963
2.3577 1.9033 3.32564
1.15699 0.99371 3.88583
0.636262 4.13262 2.42866
2.05802 3.45757 2.67047
0.775159 2.52314 2.75206
3.99281 1.31215 3.75602
-0.556068 0.635675 3.83385
2.02197 2.07128 3.12614
2.78321 -0.738951 4.55918
0.217364 2.65671 2.58258
1.62671 4.05903 2.33376
1.46887 3.55427 2.53985
1.61539 4.13836 2.3316
4.2889 -0.604257 4.59901
1.21336 1.15566 3.58507
-1.90079 3.46386 5.44401
0.46745 2.59899 2.62998
0.666318 3.3577 2.46604
2.44651 2.45257 2.92475
0.224328 3.02417 2.47128
3.11525 0.740792 3.80891
0.131806 0.0161806 4.40433
0.498781 1.67619 3.27028
0.490482 3.67311 2.37424
0.2235 2.94174 2.49605
0.385371 2.28027 2.84061
0.302999 3.76607 2.37579
2.75344 1.58239 3.29882
1.64524 0.154722 4.17497
0.463297 -0.300017 4.76421
0.649134 3.93814 2.42985
2.94499 2.54959 2.91646
0.254518 3.09986 2.44751
1.27361 -0.129657 4.37381
-0.254156 0.850745 3.7022
0.96327 1.80788 3.34116
3.49724 1.73062 3.38764
2.82012 -0.853584 4.4701
2.68979 0.714599 3.67516
3.52437 0.530606 4.14241
-0.476626 3.05743 2.49774
2.37864 2.44983 2.92158
-0.888234 -0.648444 4.00374
2.89736 0.632381 3.86266
0.267976 3.75001 2.36557
0.668362 0.286925 4.23122
0.385558 0.972627 3.80332
-0.771987 -1.28214 4.48377
1.17512 1.89667 3.31574
0.713333 2.52107 2.74976
-0.0641254 3.31487 2.55934
0.142774 3.83105 2.36348
1.61303 0.401657 4.16284
0.542247 3.88771 2.34028
-0.633472 -1.12641 5.01895
-1.03633 0.842168 3.65578
2.25864 1.77819 3.29832
2.90518 2.54839 2.91511
0.128855 3.17246 2.50468
0.519367 2.84108 2.57725
0.759636 2.17086 2.95873
2.91045 -0.416632 4.46615
1.13772 1.46975 3.5409
1.79905 4.18682 2.30351
1.10839 3.56165 2.48173
-0.616241 2.83771 2.67126
1.41191 2.17073 3.09895
0.607465 4.21763 2.26058
2.00585 -0.313363 4.81844
3.52098 1.31976 3.43017
-0.0368555 2.26422 2.8201
0.866127 3.65129 2.48242
-0.0173514 3.01299 2.5564
-0.361416 3.68051 2.43436
0.565485 4.2157 2.21157
3.26049 1.64218 3.43925
-0.748062 2.2127 2.88279
0.137033 2.89324 2.53673
1.56739 1.53488 3.47804
0.189254 3.64856 2.35816
3.66245 -0.564532 4.29179
-0.834183 2.07769 2.82912
-0.0577399 0.159749 4.30961
0.0991407 1.43485 3.45653
0.448501 2.82396 2.56171
3.74239 -1.33173 4.61136
1.3235 4.21687 2.26353
0.533965 0.289624 4.27031
-0.211639 3.5802 2.43341
3.76946 -0.124083 3.93639
1.20086 4.24278 2.229
2.3878 1.66376 3.48577
1.41495 3.76104 2.49282
-0.0662435 2.2559 2.80968
-0.362083 3.08588 2.61785
1.64427 3.80976 2.4669
-0.64203 0.0171816 4.22389
3.59014 1.58897 3.61535
1.7135 4.27706 2.18991
1.95645 3.08382 2.71012
1.70992 2.30353 3.01229
2.39888 3.57806 2.63771
0.198204 2.6091 2.63999
3.0728 0.528828 4.13712
2.13398 2.0383 3.21453
1.81673 -0.927864 4.84948
0.693507 1.17814 3.68271
0.264179 3.97738 2.33725
1.19598 3.44539 2.59416
0.140401 2.54415 2.66396
0.225769 1.91891 3.18239
-1.59215 -0.750124 4.62502
4.08684 1.0339 3.54133
0.367861 0.659409 4.04562
1.00304 2.81204 2.65419
0.217118 3.9802 2.28763
1.03604 3.58364 2.49703
2.49224 1.36167 3.54082
1.31971 4.14614 2.33583
1.11959 2.11921 3.03589
-0.0272871 2.68281 2.60764
1.3883 3.54899 2.54039
-0.137739 0.40177 4.16057
2.26175 1.23757 3.54699
3.21362 -0.941152 4.11022
0.101127 2.03466 3.07121
0.795576 -0.30366 4.64432
2.98229 1.9885 3.14676
0.276911 1.20144 3.75481
1.37323 4.12856 2.2712
1.79564 3.52194 2.59623
-0.613777 2.60083 2.63083
2.59913 -0.130629 4.12983
0.157876 4.02228 2.31186
1.58735 1.41692 3.68708
0.793083 4.14539 2.33512
-0.0120836 2.07111 2.9664
3.19029 -0.524983 4.00202
-0.187647 2.84372 2.68334
2.19224 3.71958 2.59646
-1.01071 -0.414475 4.44028
3.18339 2.11214 3.19814
1.42706 1.27619 3.66123
0.81194 4.21122 2.31627
0.111621 3.48741 2.49563
1.2885 2.77336 2.70263
-0.3022 3.14963 2.48652
2.07371 3.93523 2.48708
1.49944 2.55252 2.92037
-0.490751 0.154768 4.13698
1.93155 1.83313 3.40161
2.3615 0.837892 3.67974
2.29558 0.738751 3.80228
2.65531 1.71493 3.35832
2.92893 -1.20545 4.17451
1.95064 2.48321 2.96171
4.08922 0.263711 3.98132
-0.82339 2.5635 2.68298
1.12445 3.10305 2.54111
0.993144 3.33787 2.51313
0.107686 3.82872 2.36212
2.63191 1.05677 3.64989
0.467266 4.03936 2.43152
-0.398695 1.86141 3.08574
0.170838 2.47721 2.70156
-1.88298 0.0220497 5.42585
-0.993706 1.82124 3.1804
-0.584135 3.18587 2.45953
-0.467817 0.956497 3.73497
1.83777 4.02325 2.36833
2.99073 3.12368 2.75673
2.13479 2.27661 2.99535
-0.0392617 4.05394 2.18067
-0.0260148 1.46489 3.33683
3.63041 0.126886 3.88796
-0.0791284 3.51435 2.40038
2.0612 3.01664 2.75463
-1.13551 -1.2276 4.22742
1.97101 2.20608 3.03554
3.75146 0.241095 3.91557
-0.72859 1.38525 3.3521
3.04856 3.92096 2.61156
-0.929211 2.36427 2.83389
0.892111 4.31281 2.27415
1.98141 3.2496 2.67167
1.15594 3.8021 2.47317
2.86598 0.720817 3.79933
0.0645653 4.20101 2.15531
0.789096 1.69551 3.38657
1.5401 2.39163 3.00613
-0.736884 2.95984 2.51592
2.01745 -0.00316047 4.12614
-0.784315 3.68563 2.33154
1.17704 1.64671 3.50532
1.60571 1.99254 3.16685
-0.73322 -0.71207 4.26111
-1.86283 1.55487 4.93697
3.63563 0.638181 4.07623
0.391234 3.31842 2.45422
-0.183614 3.81619 2.24537
2.15363 2.75099 2.8041
3.43843 -0.635769 4.66721
-0.375145 3.80012 2.18983
-0.726898 3.32269 2.50523
2.08566 1.35428 3.56635
3.7341 0.349265 3.86719
1.96264 2.14835 3.09799
3.43142 -1.06264 4.45735
0.590641 2.75855 2.60943
-0.535492 3.86077 2.18008
1.25171 3.55158 2.48715
3.66233 0.477784 3.80148
1.79132 1.26366 3.67454
1.10605 -0.957487 4.94117
-0.0677821 1.99685 3.03559
-0.1563 3.98837 2.20178
-0.377736 2.69283 2.63516
-0.798733 3.50659 2.51314
1.94136 3.58074 2.57203
-0.572654 3.90588 2.25073
0.991677 2.71117 2.66047
3.27103 -0.322509 4.50076
-0.755323 1.99687 3.03396
1.72088 1.28017 3.72253
2.57005 1.13989 3.63809
0.104043 1.9909 3.16422
1.15018 2.70284 2.75518
3.31437 -0.14953 4.42176
0.198998 3.35511 2.48129
-0.271223 2.89108 2.63906
1.08223 4.19714 2.3739
3.7569 1.42896 3.47703
0.965335 2.19165 3.0164
-0.637398 3.90595 2.15899
2.2873 2.88777 2.73794
0.4411 3.49292 2.44568
2.90772 -0.436161 4.33675
0.678929 3.62702 2.48193
3.48764 1.30914 3.46576
-0.499317 2.08621 3.00751
3.50082 0.249735 4.07402
-0.209272 1.69563 3.18807
-1.23942 -1.16713 4.01946
-1.20693 0.821391 3.64197
-0.727814 3.11115 2.47443
1.15405 4.19062 2.25796
0.0877465 2.41809 2.77367
2.59061 -0.90282 3.77424
2.91879 0.359377 4.00122
1.78027 3.91996 2.4263
-0.51699 1.03378 3.63156
2.6199 1.91152 3.20632
1.21541 3.92939 2.37254
1.08433 2.61216 2.7632
3.53505 -0.0125176 4.30565
0.221664 3.23887 2.44704
3.76606 0.134767 4.13819
1.60623 1.87499 3.30477
3.60635 0.908289 3.64388
-0.858219 3.29355 2.55183
-0.210754 3.81729 2.24608
-0.872226 2.57653 2.81591
1.06328 3.90561 2.41706
2.32995 3.40867 2.64732
1.63892 2.68275 2.94137
3.23457 0.609478 3.89703
1.0739 1.87244 3.30086
-1.33729 -0.702392 4.21332
3.32161 0.94955 3.80965
3.39298 0.807214 3.62047
-0.45681 1.69254 3.18174
2.84688 -0.568304 4.17175
-0.200828 2.50805 2.87651
0.605043 3.14906 2.51011
0.885711 3.9916 2.40988
-0.317729 2.65554 2.7061
0.123355 3.34939 2.47704
1.67352 1.15595 3.69343
-0.374353 3.89457 2.29136
2.79154 1.99783 3.18557
0.85941 3.27742 2.48089
-0.786214 2.60432 2.75296
3.50631 0.529986 4.22389
0.971302 1.92618 3.233
-1.1924 -0.960429 4.96172
3.45791 1.0171 3.59999
2.40093 -0.143431 4.21362
1.0017 4.16685 2.4052
-0.164713 1.51982 3.4619
2.0992 3.10678 2.74176
1.36606 2.30442 3.03255
1.34736 4.17467 2.20432
2.48514 -0.0126438 4.05983
1.78533 3.76817 2.50953
0.462179 0.745956 3.94423
0.21189 4.21593 2.16547
3.44183 1.7044 3.4163
0.271812 3.69402 2.40238
1.31071 2.42022 2.91161
-0.279916 3.10717 2.55369
-0.716886 -0.486486 4.83792
2.33882 -0.325303 4.51389
0.194823 1.58767 3.37954
2.39804 3.99199 2.53061
1.52327 3.13513 2.67148
1.32824 2.35373 2.95856
1.21758 3.0573 2.60512
0.917718 3.66932 2.44328
0.739483 2.28431 2.87998
1.07699 4.32634 2.28422
-0.064407 1.54558 3.28879
3.81273 0.292001 4.77381
4.33527 -1.37115 4.63004
4.08237 1.67614 3.85467
0.932014 0.368991 4.13605
0.316086 2.22078 2.92221
2.81377 -1.01169 4.23093
2.05455 3.09456 2.73097
1.23029 2.53787 2.91959
-0.653257 3.75586 2.442
2.5388 0.13567 4.16602
-0.818391 3.11257 2.48031
0.963874 0.89905 4.04239
-0.471265 4.17117 2.14224
2.18629 1.71871 3.26037
2.16501 3.9396 2.49735
2.25862 3.22655 2.65793
0.194513 2.36034 2.83922
3.29845 1.66587 3.33938
-0.611957 3.76303 2.33142
-0.392276 0.772108 4.07518
2.53225 -0.64643 4.73827
0.308449 4.14841 2.34597
0.159336 2.67884 2.62829
-0.967191 -0.396301 3.96188
0.831472 3.49407 2.5136
1.59681 1.23324 3.58647
2.22131 2.09686 3.19902
0.634755 2.12365 2.92278
1.51807 4.12072 2.28188
0.584187 1.45643 3.54975
0.919365 -0.963857 4.91262
-0.329036 2.85126 2.60262
2.014 0.499769 3.99043
0.92415 3.65761 2.50701
3.67689 0.58725 3.80677
2.91263 2.1954 3.17564
2.33714 1.32018 3.51969
3.09377 -0.715768 4.22166
0.304264 3.47072 2.43412
0.0120111 4.06925 2.19182
0.8262 2.75767 2.61456
0.798854 2.35321 2.82299
0.172647 3.13119 2.5686
3.37018 -1.08051 4.66173
2.99463 0.745169 3.87621
-0.732212 0.37254 3.93753
1.69798 1.72028 3.40248
-0.0329012 3.70985 2.40517
0.0531952 0.524081 4.11432
0.315775 2.97054 2.52568
2.31437 -0.94588 4.8838
-0.922526 2.23062 2.79283
-1.18798 1.60972 3.39386
2.25543 3.92498 2.48438
1.54714 4.29802 2.20319
1.85418 1.80718 3.3834
1.18322 0.870309 3.87116
1.26089 0.14986 4.3324
1.85788 3.34482 2.66153
2.21986 2.564 2.94115
-0.0292447 3.83012 2.36638
2.69758 -1.34244 4.60832
-0.112526 0.282832 4.30203
0.3845 1.37043 3.58908
1.89566 4.08747 2.30617
-1.58978 2.95037 4.22612
1.92819 2.93023 2.77199
0.832729 3.55553 2.48545
0.270283 2.02041 3.06088
2.12949 1.2494 3.60686
0.13083 4.09091 2.25562
0.565414 -0.512097 5.31879
2.28187 3.65378 2.62008
-0.172137 2.72761 2.66344
-0.432989 0.620014 3.90949
0.763451 2.93897 2.58802
3.79119 -0.701801 4.25745
-0.986628 2.23827 2.92476
1.44128 3.70386 2.52655
-0.0774615 4.20221 2.25769
1.1916 1.55105 3.53426
1.87295 1.47877 3.58145
1.83733 -0.658495 4.9052
-1.003 2.20287 3.01938
1.92198 2.98137 2.71654
1.87104 4.24689 2.23716
-0.158148 3.66052 2.42932
1.01058 2.86437 2.60986
1.557 1.47404 3.57096
-0.479642 3.92904 2.16612
3.08445 -0.00236088 4.43677
2.40862 2.22576 3.06223
0.821799 0.14662 4.24737
1.44277 2.93116 2.77289
0.168033 3.51662 2.45803
2.19223 2.11704 3.04217
0.517358 3.53289 2.40949
3.85492 1.33979 3.52681
1.60178 4.19276 2.25652
-0.675413 -0.29359 4.36544
-0.0846279 3.58567 2.38323
-0.178453 4.25886 2.24238
1.92301 2.30467 3.02297
0.713 2.91316 2.56526
1.033 1.50927 3.43925
-1.06598 -0.117776 3.79224
1.94608 -0.921455 4.75452
1.54887 1.06759 3.72241
-0.528468 0.502235 3.9308
-0.47578 1.85658 3.08937
0.394387 3.99963 2.41089
0.673697 2.58087 2.72318
0.358917 3.25561 2.45526
-0.640691 1.76705 3.09929
0.305607 3.98402 2.34439
-0.885252 0.903681 3.59097
0.345838 3.20157 2.47668
1.49442 2.63979 2.88678
-0.721178 0.270631 4.08723
2.00202 3.60365 2.58407
1.92558 -1.15068 3.94713
1.4706 2.82984 2.77051
0.0895813 3.98632 2.29437
-0.950688 2.00492 3.03427
1.56331 1.27606 3.68579
1.1895 -1.12539 4.85444
-0.0285642 1.9553 3.09568
4.13773 0.362141 3.9305
-0.504874 1.12703 3.54492
-0.284944 2.66311 2.70073
-0.147428 3.29534 2.43252
1.45502 4.14932 2.34083
0.356702 2.58666 2.63008
2.09613 3.4834 2.5769
2.07348 1.20508 3.81994
0.577516 -0.470356 4.76759
1.66055 2.00798 3.19141
-0.6878 3.29131 2.48168
0.188262 3.99919 2.35334
0.292692 2.5715 2.71306
-1.04951 1.92173 3.19658
-0.0832583 3.93226 2.26606
2.55016 -0.318634 4.57066
0.894449 1.08131 3.77266
1.55495 4.11316 2.32358
-1.09957 0.594034 3.73624
4.52622 -0.808971 4.82872
0.650196 2.68333 2.62692
1.58327 3.54997 2.54545
3.03295 1.23195 3.57758
-0.723307 -0.594763 4.44481
1.22181 2.0964 3.18779
0.501482 4.31987 2.21375
3.68444 1.60469 3.20181
-0.454146 0.150362 4.3021
1.60608 0.746274 3.89414
-0.681332 3.65585 2.36974
-0.804755 2.96859 2.43505
-0.311351 2.40718 2.88653
3.39445 1.56881 3.31776
2.20455 3.9569 2.50455
0.252732 2.92739 2.48887
2.04677 2.3781 2.98871
-0.283971 3.78271 2.3369
3.93296 -0.144117 4.24782
4.1335 0.892954 3.58496
1.06108 2.54989 2.78851
-0.806313 1.79858 3.15428
-0.120688 3.20041 2.47547
1.05925 0.869702 3.86845
2.08668 -0.00317612 4.15511
1.47839 1.79519 3.36145
1.38397 2.51644 2.88701
1.57545 3.32673 2.64709
-0.529216 3.75878 2.26544
1.26286 3.24853 2.5848
0.60012 2.43932 2.79851
1.34929 -0.978037 5.04967
0.83224 1.79513 3.36197
4.03129 0.475444 3.77619
0.107065 0.874899 3.89054
2.39666 3.20634 2.63614
-0.891979 2.35477 2.82257
-0.0197818 3.74753 2.37109
2.08245 -0.750799 4.48347
1.99577 1.75232 3.49849
-1.24368 0.627557 3.94409
0.377462 0.763007 3.98401
1.9275 2.68121 2.83609
2.83271 4.15998 2.57507
3.35861 0.259093 4.06
4.34619 1.04458 3.66601
-0.423074 -1.28732 4.42437
0.104572 2.50579 2.73979
0.146323 1.89905 3.17425
1.56271 3.96916 2.39671
2.63955 3.45217 2.6762
2.08895 0.370823 4.03265
3.88176 0.907475 3.64005
-1.14388 -0.860599 3.7318
2.56264 1.81806 3.20296
2.17903 2.20197 3.02969
2.38044 4.31858 2.38551
-0.902886 -0.284002 4.09222
1.33677 1.42471 3.45184
0.0834375 2.78278 2.53501
0.533754 2.07216 2.97854
0.217004 4.14857 2.23194
3.19637 -0.140673 4.14606
2.15528 1.36511 3.59511
2.36509 3.73557 2.61633
0.424175 3.60717 2.46013
0.725543 2.7615 2.61227
-0.742831 3.65501 2.42901
0.973258 4.27038 2.25174
-0.780733 -0.526168 3.93132
1.44409 1.61732 3.42513
1.74322 2.4201 3.04186
-0.545413 3.01934 2.56664
0.0407931 -0.443542 4.503
0.296005 1.51511 3.45208
2.10981 3.91319 2.54184
-0.547127 2.22948 2.92336
0.953985 4.30444 2.20884
0.293305 2.87219 2.52892
0.178939 2.29745 2.82827
2.79592 3.26738 2.75082
3.40024 -1.0591 3.85485
1.62882 4.28999 2.24007
4.12503 0.283639 3.8751
-0.435146 1.59181 3.27027
-0.252161 3.67165 2.41746
2.00667 0.414009 3.98641
1.15216 3.0081 2.62703
3.46759 -0.935963 4.31067
0.566572 2.24242 2.8877
0.532673 3.72091 2.39409
-0.224507 1.53903 3.41259
0.196115 0.0370905 4.39064
1.55433 3.89978 2.45341
2.06266 2.47058 2.92168
1.75053 3.27796 2.66373
3.2694 -1.5961 4.48691
0.617476 0.779153 3.87641
-1.8409 0.21219 4.87614
-0.502562 1.66781 3.23611
0.399911 1.31625 3.70122
0.187839 4.03702 2.30459
0.208071 -0.619591 4.96706
-0.974977 1.99908 2.97224
1.19646 2.79404 2.70398
1.53163 3.58673 2.55008
0.4543 1.95459 3.0492
-0.383604 3.95889 2.21761
2.7532 1.17587 3.5888
0.02577 3.36419 2.45759
0.891552 2.69587 2.70864
1.50988 0.562782 4.18321
-0.640645 2.89483 2.61377
-1.05294 -0.741395 4.04767
0.885077 3.57588 2.47922
0.37263 4.05906 2.22095
-0.226302 2.15418 2.91596
5.10941 1.73095 4.115
-0.30578 1.34479 3.41369
0.953263 -0.783437 5.03045
0.955418 2.15843 3.06083
-0.127912 0.688042 4.04005
1.49845 2.94454 2.75457
0.567356 4.18001 2.23187
-0.82194 3.60604 2.43497
-0.0381722 2.82856 2.64534
-0.567885 1.33768 3.39423
1.90999 -0.104954 4.24806
0.661601 2.10925 2.99106
0.738779 3.3847 2.40609
0.530388 4.10444 2.30264
0.693259 2.72051 2.63269
-0.609089 3.51211 2.43404
3.07234 2.13063 3.1802
0.902975 4.25811 2.33305
2.0296 0.0269986 4.30063
-0.25916 1.25032 3.51346
-0.837212 -0.361718 4.08359
1.73926 3.71686 2.51517
1.96931 4.27408 2.28583
2.78375 3.09814 2.80467
3.30613 1.46464 3.48289
3.40061 -0.236291 4.09429
-0.576542 2.13093 2.88354
1.5586 -1.02785 4.72311
0.409169 1.84709 3.20232
0.217508 0.429297 4.24256
2.75504 0.968714 3.71132
1.38372 3.35841 2.57484
1.84542 3.95121 2.42781
2.06051 2.64867 2.88126
2.13609 1.92978 3.5336
2.6293 0.872726 3.71487
0.630717 3.96051 2.37055
0.39166 3.18437 2.50024
0.22868 2.42802 2.7627
0.926519 1.15711 3.53779
2.26699 0.171999 4.09305
2.78305 -1.58048 4.38877
-0.431767 1.92658 3.00422
3.27187 2.83694 2.85711
0.551018 3.98344 2.32469
3.32033 3.67046 2.68702
3.07025 0.297927 4.06284
2.23992 1.12636 3.76862
1.83499 -1.22737 4.46834
-0.695356 1.85481 3.03734
2.28288 2.71722 2.83136
1.86249 3.48951 2.61821
1.10353 3.41536 2.56235
-0.185193 3.98554 2.27483
1.63457 2.75672 2.87272
-0.109833 1.87555 3.08545
2.13034 -0.575373 4.449
-0.703871 1.05795 3.53728
-0.389164 3.79274 2.26962
1.27001 3.30868 2.53666
1.91591 2.66906 2.90353
-0.371022 1.84365 3.19507
2.56446 0.948853 3.6358
-1.10991 -0.370893 4.19932
-0.0998325 2.69667 2.60906
2.0405 4.10938 2.409
0.732291 3.50575 2.49212
2.71415 1.24389 3.51499
2.12273 0.53306 4.02645
2.27713 2.08992 3.12028
-1.2882 -0.780046 4.25107
0.909964 4.21001 2.40699
2.50358 2.83726 2.85732
2.3069 3.56846 2.61232
-0.489867 0.673519 3.95047
2.33283 1.15591 3.55502
1.99345 -0.775189 4.90749
3.12064 2.05234 3.21166
1.22243 4.11918 2.31437
-0.653149 1.5988 3.28366
1.85392 0.0268359 4.23926
1.88931 3.82057 2.52053
-0.608779 4.13387 2.15739
1.55538 3.17462 2.67265
0.0410538 2.31821 2.85377
1.03655 0.18195 4.36893
-1.00577 1.51696 3.36057
0.633026 2.94441 2.57123
-0.302531 3.74215 2.40741
1.14709 2.27822 2.94289
3.87413 -0.250138 4.16666
0.440304 0.911208 3.88879
1.22874 3.85227 2.42338
3.63524 1.78131 3.27379
-0.132887 2.45781 2.79617
-0.519209 3.16564 2.48968
3.39415 0.751993 3.77594
0.116581 -0.110133 4.43978
-0.583948 1.65551 3.21219
1.67312 3.92957 2.41443
-0.632166 2.34588 2.77312
0.103211 3.11457 2.53027
0.715977 3.09356 2.51849
-0.829066 2.36625 2.7968
3.28193 0.40089 4.037
-0.627316 1.66944 3.2391
0.567276 -1.08918 5.00637
2.66664 0.752195 3.77448
0.721758 3.07233 2.58632
1.48801 3.82695 2.46657
-0.169058 2.36911 2.91608
3.40573 1.69194 3.49083
2.64381 -0.821702 4.4131
1.11975 0.539882 4.08795
0.049412 3.78492 2.38042
1.44763 2.66586 2.90021
0.633792 3.21427 2.46855
1.79268 0.988145 3.79044
0.506619 3.87061 2.37767
2.77404 1.90023 3.30534
-0.872649 2.53067 2.87804
-0.565327 3.09631 2.43508
4.46493 0.836937 3.60493
1.18553 0.305773 4.20883
3.23432 1.80845 3.32413
-0.933504 -1.17866 4.30678
0.351622 3.98152 2.3864
2.59982 2.14705 3.05369
-1.46783 -0.377215 4.26663
1.81959 1.38981 3.55026
1.78931 2.95683 2.77223
1.87573 4.22626 2.31915
1.37801 3.62959 2.52085
0.31704 -0.291768 4.81931
1.45815 1.55161 3.45999
0.265785 0.704894 4.20122
1.64493 3.77419 2.55392
1.05727 -0.77871 4.92473
1.79396 4.22312 2.2585
0.739555 2.26491 2.9257
0.575734 2.94653 2.57307
3.8122 2.32563 3.15796
0.691183 -0.618597 4.77351
-0.444977 1.46292 3.48174
1.30921 3.7769 2.4915
-0.349191 4.16025 2.17384
1.7636 3.05579 2.76637
2.41201 0.558014 4.07157
1.51445 -0.836379 4.54107
1.16829 3.82836 2.40473
4.85808 0.703773 4.12333
0.0585173 2.36627 2.78257
2.67449 -0.696491 4.48364
1.34354 3.24014 2.62279
-1.13466 0.758144 3.71014
1.19887 1.76279 3.42312
-0.904542 1.82483 3.14769
1.95158 1.00037 3.76816
0.833084 3.32006 2.54059
3.24743 -1.28399 4.79709
0.284076 3.78811 2.32002
-0.195113 0.316201 4.20652
2.69687 1.77932 3.24292
1.68375 2.70266 2.93259
1.4532 0.923055 3.89828
1.33399 3.93899 2.35471
1.11317 -1.04501 4.85603
-0.393717 3.267 2.55494
0.0468766 0.427067 4.02963
2.76808 2.57416 2.92082
2.9976 1.45485 3.44059
0.0452887 3.38517 2.3428
0.517196 2.14744 2.88927
1.28979 4.15745 2.2722
-1.32865 -0.350516 4.08782
-0.013648 2.85891 2.57637
3.02831 1.36167 3.45377
-0.181703 3.56974 2.41083
-0.722535 2.06668 2.91857
-0.405698 4.00513 2.13536
-1.32047 -0.216539 4.13178
0.789274 2.80527 2.61836
-0.51587 2.36821 2.90558
1.84713 3.20359 2.69168
2.65476 -0.526466 4.31829
1.22567 4.26417 2.22084
2.65548 1.63228 3.35258
1.66722 3.74354 2.46192
0.00322574 2.97928 2.59049
2.15386 2.30073 2.96218
-0.467061 3.69965 2.37624
3.29791 1.59028 3.52315
1.57984 0.185853 4.20668
-0.968617 -1.51207 4.37954
2.05926 2.3083 2.97204
1.68852 1.51713 3.36467
-0.617539 2.99593 2.60435
-0.283987 3.57239 2.41263
1.8358 4.24913 2.26953
-0.481344 0.312163 4.14264
2.78408 -1.22001 4.55936
1.79232 3.03597 2.74254
-1.09747 1.43304 3.38712
1.22723 3.73795 2.45804
1.1429 2.21732 2.99292
2.62164 1.64456 3.37775
0.933647 4.37708 2.27944
0.50257 2.96977 2.49487
0.239762 -0.089335 4.44529
-0.583565 2.31389 2.83913
1.09429 3.77495 2.42915
3.29377 0.0370938 4.1521
3.73833 1.19784 3.65278
1.3124 4.00265 2.33308
-0.211142 1.94509 3.02228
1.54149 2.81343 2.82006
0.990326 3.42856 2.50513
2.74244 1.09513 3.66203
0.618495 4.11134 2.34721
0.602515 1.92017 3.13529
2.59446 0.658735 3.85929
-0.653845 2.64329 2.7397
2.58025 -0.688822 4.43373
0.172197 3.31845 2.48041
-0.711691 -0.881982 4.11449
-0.818085 2.87013 2.67738
2.2758 0.411643 3.95993
-0.757474 2.07779 2.93424
1.77108 1.41548 3.59422
1.64504 4.14255 2.32155
0.571324 -0.887269 4.81516
-0.148323 3.45781 2.45331
3.27688 0.541711 4.00723
-0.647902 2.77103 2.67411
1.964 2.09216 3.113
0.00229612 4.00124 2.18614
2.17952 1.25289 3.51953
4.21237 -0.22727 4.08546
-0.705768 2.77552 2.67847
1.83295 3.63735 2.58616
-0.223777 3.56058 2.46383
0.705561 1.27994 3.59951
0.439431 4.16816 2.37946
-0.489294 2.02923 3.01855
1.28014 -0.104205 4.62691
0.272532 2.61291 2.61869
0.589076 3.25055 2.37479
0.728258 4.14599 2.32292
3.11918 1.1309 3.45176
0.711278 2.03644 3.1771
2.30022 2.16467 3.06857
0.679387 1.37459 3.492
0.0173369 -0.559535 4.57648
2.07406 2.95813 2.76724
0.948169 4.17573 2.28492
-0.310031 3.53867 2.44871
2.52318 -0.37674 4.25131
-0.466 0.872752 3.6814
1.10123 3.90189 2.4508
0.187475 1.77889 3.24443
1.09811 2.50755 2.8458
0.427586 3.13956 2.46049
2.24926 4.03617 2.47648
0.207117 1.65953 3.22254
1.20668 0.803963 3.99919
-0.838049 0.29061 3.84605
-0.530448 3.10741 2.51432
-0.862753 -1.16271 4.32186
1.55301 2.50642 2.95605
2.22954 3.51454 2.63236
2.20171 0.0378295 4.26288
-0.260109 2.6022 2.70414
-0.537126 1.88112 3.06916
2.50273 1.07543 3.59632
0.94686 4.03693 2.41306
3.93454 -1.52026 4.36217
-0.386264 0.191024 4.3023
1.16966 2.63896 2.86357
2.78896 1.8568 3.21654
-0.220912 3.2676 2.49981
-0.3574 0.971138 3.65777
0.784363 4.08929 2.38331
-0.441179 2.57477 2.79264
2.37692 3.46525 2.65694
1.93459 -0.784425 5.03816
0.579849 1.01649 3.86741
2.11837 0.700779 4.11169
2.38088 1.90595 3.30284
-1.11205 -0.514297 4.22431
-0.427244 3.23239 2.53261
1.53122 3.98113 2.44248
0.769644 2.48961 2.82542
-0.0733627 3.82491 2.28588
-0.530998 1.74075 3.17293
3.59154 0.878094 3.73471
2.20597 0.423632 4.08057
1.3486 3.42707 2.56667
4.52404 -1.0475 4.83132
3.34764 2.83557 2.95461
0.973265 4.10985 2.39867
-0.0261546 -0.869385 4.72277
0.320501 1.92773 3.15962
2.73907 0.542419 4.01806
2.26013 1.05962 3.54401
0.080892 1.54492 3.42692
1.37659 4.24398 2.2665
-0.69157 -0.0924326 4.18323
1.64849 2.40671 3.09907
-0.456903 3.63676 2.45593
1.39183 3.07082 2.68185
-0.934738 2.17429 2.93223
-0.210926 3.67011 2.41279
-2.39614 2.69581 6.38712
0.501099 4.22135 2.20085
0.584678 2.84175 2.56685
1.91842 3.30597 2.68651
1.4363 -0.418518 4.69863
0.933754 2.3963 2.82632
1.01249 3.7697 2.42576
-0.0310189 1.70436 3.30903
1.10662 0.782157 3.89058
3.88186 -0.234105 4.23534
0.955819 1.65801 3.40875
1.6056 2.41513 2.97344
1.04406 3.88357 2.43931
-0.234746 3.06053 2.57073
-0.824224 1.19554 3.37902
-0.748762 3.89325 2.22808
2.37202 2.11191 3.17557
-0.219275 2.76582 2.68203
0.0223612 3.4244 2.44218
2.54025 4.35565 2.45102
3.96471 1.22439 3.7869
0.152543 2.0003 3.13187
-1.2488 -0.112284 4.28186
1.4064 2.74652 2.77283
1.23009 3.46957 2.54406
2.93401 3.10503 2.81698
1.82737 -0.426456 4.6655
1.35891 2.25365 3.06153
0.540921 4.20832 2.30856
1.7189 1.48009 3.54457
0.568941 3.5294 2.45495
1.64655 -0.272404 4.33918
-0.234478 2.8322 2.66035
-1.13905 2.26138 3.21594
-0.120876 4.16068 2.22408
0.714835 1.33702 3.45929
0.954495 3.65779 2.48288
-0.368325 0.302247 4.28673
-0.808012 2.57689 2.80159
-1.40672 -1.16985 4.20224
1.00029 3.32301 2.55688
0.155434 1.01715 3.93984
-0.468445 3.73052 2.29107
0.0375394 1.83176 3.18841
3.39555 0.365979 3.76761
0.300845 2.41318 2.75327
3.95429 -1.07749 4.80508
0.881016 3.22856 2.54471
-0.31105 0.854294 3.67938
2.16073 4.10096 2.46591
-0.400117 1.73758 3.19533
2.53809 1.92464 3.17784
1.68901 1.0925 3.71657
2.2921 0.0172231 4.27181
1.38918 3.37389 2.53589
0.223745 2.54159 2.65476
1.23612 4.08849 2.39967
1.74489 0.163005 4.13513
2.1859 0.997247 3.89428
-0.175327 1.77554 3.09012
1.32567 3.9039 2.40201
2.5232 2.68972 2.93326
0.949185 3.32749 2.56501
2.50861 1.78272 3.2926
1.90465 4.06203 2.44242
3.97211 0.867573 3.77002
-0.117151 3.1429 2.47649
-1.03521 -0.563629 4.36898
0.169712 2.45914 2.8056
-0.575296 -0.826348 4.37863
0.755931 3.41705 2.50532
3.79486 0.506844 3.88565
-0.411321 2.69312 2.71771
-0.657998 1.93531 3.02817
1.17427 4.00627 2.35138
3.2833 1.14754 3.55201
-0.513571 -0.732679 4.58508
0.841203 1.11096 3.78192
2.87534 0.653065 3.9403
1.5388 1.89674 3.13299
2.73236 2.79988 2.93196
0.569682 3.30073 2.48036
2.6087 4.37114 2.50659
1.84876 2.42524 3.01217
0.566815 2.99069 2.53272
1.64039 3.86512 2.55785
0.724115 4.33652 2.27227
3.93906 -0.118196 4.02838
1.56182 0.0163475 4.38946
1.94298 2.31179 3.00423
1.71678 1.63125 3.38565
2.29 3.09209 2.7117
-0.313106 1.50767 3.39652
-0.530387 3.73119 2.40752
0.929752 1.72442 3.36433
0.95312 0.788699 4.019
2.02676 3.28509 2.6851
-0.741288 -0.401601 4.41089
-0.164612 2.44216 2.904
0.501383 3.80448 2.39653
1.30652 -0.27126 4.31156
3.29205 -0.977502 4.3571
0.466848 4.18312 2.19183
1.66794 1.62305 3.36862
0.973062 3.66247 2.4235
0.487828 2.28838 2.85082
0.959156 3.04267 2.58208
2.16132 3.88603 2.51261
4.02279 1.59369 3.60743
2.84331 0.394825 4.07474
1.64827 3.08918 2.70916
2.23045 2.29074 2.98586
0.25282 0.172076 4.37416
0.788059 3.19632 2.52394
-0.622214 2.43289 2.7748
-0.695785 3.8813 2.44417
2.08998 1.78625 3.29929
3.83307 0.859823 3.73342
2.7331 -1.1866 4.21387
-0.147008 0.782761 3.98393
-0.427213 0.296148 4.19834
0.874951 1.7205 3.35674
-0.575171 2.30878 2.74482
1.78463 3.25642 2.66166
-0.685403 2.82701 2.65501
2.09735 3.98011 2.45282
-0.0983562 3.44898 2.39863
-1.20955 -0.566464 4.39434
-0.377748 1.33804 3.45855
1.00071 4.15477 2.33734
2.24114 2.13979 3.05398
-0.862235 -0.423588 4.64474
-0.629645 3.46715 2.47239
-0.304612 2.74011 2.65698
1.03038 2.10485 3.16637
0.345856 1.27957 3.6468
0.324577 4.19839 2.306
0.563852 2.13101 2.89499
3.41709 1.45009 3.48776
3.42345 0.503739 3.85701
1.86673 3.05119 2.76815
-0.632381 -0.816264 4.3219
0.315543 4.16195 2.22789
-0.125423 3.53061 2.39572
3.10885 -0.724246 4.46024
1.5213 0.687424 4.15467
1.69294 2.18486 3.11899
3.7305 1.33583 3.47245
1.27525 0.0157328 4.30184
1.55987 3.63731 2.53461
-0.00835615 3.95855 2.22631
1.70899 2.95596 2.78384
0.158209 2.04585 3.0771
0.101863 4.07935 2.24018
-0.0903228 1.26078 3.59197
1.66244 3.61254 2.58157
0.522922 2.68702 2.6122
3.76776 1.64277 3.71638
0.574603 -0.296 4.69931
1.45958 3.06782 2.69041
1.98009 3.73939 2.54274
0.145569 4.02935 2.15656
1.29987 2.30059 2.99939
1.44016 1.46891 3.53839
2.45073 -0.120978 4.12795
2.22034 2.21693 3.0206
-0.11186 4.23154 2.21688
1.21471 2.93849 2.66589
-0.0421783 3.65052 2.41505
2.24238 2.71821 2.84649
1.80683 3.48302 2.62268
0.40896 1.12519 3.82987
1.49108 -1.04959 4.67106
1.26238 2.00729 3.31607
1.69586 0.389583 4.03449
-0.815103 3.31656 2.55544
1.37512 3.93636 2.3666
1.29167 2.60677 2.8433
3.25155 -0.880763 4.61125
3.34083 1.97481 3.44867
3.63473 0.490174 3.82588
1.18573 0.967566 3.78318
0.915212 4.06669 2.38667
0.734534 4.37646 2.51228
-1.12759 0.162307 4.07763
1.579 2.80056 2.83417
0.524872 3.30978 2.42649
4.26065 0.271707 3.96381
1.34435 1.18871 3.68697
3.15193 -1.21373 4.27585
1.89444 2.07047 3.25358
0.852251 2.88246 2.60933
1.42456 4.15815 2.28154
-0.718439 0.0277352 4.24919
2.06793 2.201 2.98947
4.91181 1.74213 4.16475
-0.838687 1.32631 3.40463
1.4588 2.18092 3.10295
0.641099 2.76379 2.5911
1.04741 4.28686 2.29214
0.652321 3.58679 2.49082
-1.66494 0.190238 4.59693
0.336725 2.30211 2.84255
0.489598 3.59408 2.43154
-0.0981918 2.93277 2.46838
2.38138 1.60665 3.31647
1.56344 3.81344 2.51964
1.4403 4.3337 2.26839
-0.356966 3.04583 2.65892
-0.162963 2.27876 2.94274
4.08063 -0.111196 4.09963
1.31114 3.81298 2.45748
2.24818 1.50786 3.3784
0.930104 0.542207 4.10654
-0.17369 1.86575 3.06911
-0.736261 -0.745002 4.0049
2.34822 1.06796 3.60021
0.266228 3.25052 2.43829
0.0671266 2.5685 2.67604
-1.2766 -0.766888 4.8744
-0.0333389 0.684285 4.07715
0.765643 4.2232 2.47505
1.21435 1.27205 3.60096
0.385094 4.12158 2.35609
1.37774 2.08568 3.11496
4.05369 -1.23254 4.44978
2.13922 2.8521 2.76644
0.188173 0.307225 4.22993
-0.264754 3.4374 2.44714
2.48004 2.0565 3.21845
1.95914 0.410632 4.14314
0.522507 1.20439 3.70949
-0.8296 -0.876199 3.99997
1.12836 3.42257 2.50522
-0.16082 4.06474 2.28267
1.83696 2.76385 2.78358
-0.576347 3.82425 2.2406
-0.285812 3.32495 2.43302
-0.809507 2.65627 2.6735
2.44839 -0.418705 4.59542
1.94314 2.01356 3.15218
-0.457884 1.16402 3.58108
3.00184 1.13557 3.85834
2.82487 1.87882 3.10161
-0.470395 2.61874 2.72769
4.56706 -0.285355 4.55296
-0.236111 3.27506 2.45628
0.0148807 3.92952 2.24611
0.0735975 2.70983 2.54009
0.111215 -0.652607 5.04053
1.92203 3.6795 2.55993
1.96254 1.35895 3.51339
-0.217302 3.91258 2.1975
1.2456 2.17264 3.09131
1.13122 3.48987 2.48949
2.0664 2.86748 2.78138
1.76225 2.16649 3.24697
1.06464 1.25273 3.54639
1.13064 4.22833 2.31985
3.75815 0.15737 3.922
-0.739569 1.66274 3.22569
-0.114187 3.12608 2.5444
2.34958 2.47886 2.94789
-0.349084 -1.2565 4.54252
1.6297 3.88906 2.45037
1.8554 0.289648 4.1148
1.4067 0.792061 3.98556
1.0746 0.997855 3.8308
2.17719 1.84776 3.21529
-0.21737 3.77449 2.3182
0.950674 2.53382 2.75659
1.70397 -0.118396 4.36909
-0.877085 0.0266028 4.06998
2.57574 1.76589 3.24674
0.592146 3.18066 2.44268
3.68812 0.855879 3.68102
0.22919 3.92471 2.35564
2.04636 3.38647 2.66945
1.29606 2.50746 2.86111
1.16921 3.25481 2.56548
0.391745 0.897902 3.87137
1.00431 3.84383 2.42159
-0.016684 1.72444 3.17212
0.538639 0.55675 4.21651
0.378786 2.42567 2.76759
-1.18351 -0.79934 4.30355
-0.611939 0.751273 3.77292
3.21731 1.72437 3.36072
4.73704 0.702126 4.23387
0.488799 2.38445 2.83608
3.75526 -0.692738 4.32612
1.84104 3.28202 2.67738
-1.62854 -0.994272 4.54444
1.73394 2.75861 2.88176
0.429661 0.407701 4.12805
3.27787 3.61565 2.71787
1.95764 1.10235 3.74998
-0.371571 3.75324 2.30515
2.71544 1.9421 3.2058
-0.250538 3.81583 2.28998
-0.475909 3.19529 2.45334
-0.754099 2.57924 2.80447
1.85516 1.93076 3.36057
3.85412 0.958023 3.70444
-0.632471 3.89862 2.28411
2.66469 -0.26753 4.27902
0.312435 3.6061 2.4434
0.817659 4.23801 2.26588
1.66849 -0.124994 4.60529
0.132891 2.78245 2.51834
2.12153 1.46888 3.5161
1.46428 2.27378 3.0888
1.81417 4.25097 2.22809
0.341941 1.61118 3.3285
-0.0134131 3.63766 2.40277
-0.274455 -0.607533 4.69819
1.58363 3.16125 2.66673
2.61242 2.4012 2.97289
2.13081 1.55198 3.47775
-0.705216 2.90827 2.53845
0.838218 3.69769 2.38294
1.81327 2.32019 3.00596
2.19318 -0.40689 4.45684
0.966806 1.52922 3.44735
1.28324 3.67027 2.49147
0.73796 4.24281 2.26839
2.85265 0.16364 4.1037
-0.392408 2.19121 2.83793
1.10075 2.9946 2.62068
1.98734 1.44209 3.45227
1.62925 3.71502 2.45852
1.39095 2.25358 3.06141
0.844736 0.302196 4.30542
0.765845 4.31944 2.26336
-0.215374 -1.29352 4.63515
-0.381247 2.85581 2.58429
-0.726256 3.20344 2.61189
-1.10779 0.0290286 4.07923
0.378431 2.37235 2.82164
1.59233 1.69735 3.3109
0.0332716 3.69026 2.37784
3.52435 0.759369 3.85477
0.373902 2.97816 2.51183
-1.00545 2.32507 2.87944
-0.477745 1.56918 3.2393
0.687093 3.85548 2.42878
3.30415 0.638499 3.84254
3.39711 -0.760843 4.75683
-0.136276 3.96941 2.27168
2.58134 2.79481 2.82143
-0.599957 -0.585867 4.541
1.29789 3.45483 2.5333
4.36838 1.20556 3.73159
0.659442 1.98672 3.11107
-0.543364 2.10249 2.98976
0.83787 1.36004 3.51874
-0.326423 3.96697 2.22806
0.7506 3.44018 2.39293
2.22657 -1.07404 4.8306
0.45151 2.78521 2.61686
-0.861032 0.390133 3.92766
0.955121 2.13064 3.19374
1.00038 4.20778 2.30851
-0.157523 1.24057 3.51026
0.876 -0.945583 5.00165
0.263967 3.39149 2.4189
-0.621853 0.5213 3.93155
0.583542 2.70502 2.62371
-0.446638 2.79884 2.58838
0.856962 -0.0687736 4.45515
0.843965 2.16356 3.03739
-0.604784 3.96452 2.20589
2.68856 1.3978 3.50425
-0.883244 1.2183 3.35204
2.61853 2.12954 3.13456
0.399457 2.70371 2.59239
1.32582 0.0982557 4.33541
2.20026 3.67679 2.60549
-0.539694 3.55784 2.4498
2.46104 2.35842 3.01776
1.98512 4.26896 2.31846
1.97238 3.09855 2.67832
-1.39365 -0.175438 4.07005
1.78261 1.55379 3.40965
-0.483777 4.0164 2.13319
-0.314159 3.60129 2.42435
1.49645 3.02627 2.70472
2.58663 2.28546 3.05409
0.921975 3.68853 2.41767
0.49524 1.46194 3.42425
-0.523952 4.08703 2.11705
1.04211 0.477816 4.14096
0.973476 -0.990726 4.76054
-0.716385 2.64199 2.829
3.73999 -0.776448 4.27515
-0.781029 3.36914 2.55815
-0.360493 0.589535 4.01997
1.38708 3.98639 2.36627
1.33642 1.02716 3.77061
1.97314 1.95194 3.32831
1.28049 1.20892 3.64255
-0.446568 3.88745 2.2557
0.212159 2.01037 3.10156
-0.665904 -1.39311 4.33032
4.66228 0.206196 4.18119
0.49396 2.62419 2.60534
2.57457 3.63451 2.64232
4.02861 0.324897 4.03675
-0.929913 1.05718 3.4769
3.0655 -1.04955 4.06886
1.77812 2.0427 3.30894
0.00964394 3.30125 2.45423
0.871631 2.64654 2.72415
0.724504 4.12016 2.34285
-1.15671 1.0378 3.41256
1.38555 1.98024 3.20815
-0.0432728 3.89422 2.31083
-1.27233 -0.507599 4.43484
-0.714335 2.54491 2.61823
-0.335392 3.28777 2.44406
-0.932588 0.952106 3.48589
-0.671698 3.77136 2.18811
3.27995 1.9488 3.33467
2.08035 -0.35814 4.38222
-0.382952 2.58243 2.77236
2.13473 3.50655 2.66911
0.136123 -0.772518 5.20324
0.882449 2.73475 2.6284
0.594274 3.45704 2.44909
2.46715 2.13092 3.13676
-0.990421 1.215 3.34182
0.0923736 4.0217 2.28656
-0.335135 3.36495 2.44515
-0.272142 2.70067 2.68062
3.6149 2.12139 3.28278
1.45362 4.1019 2.28952
0.762356 1.21638 3.66595
3.01389 0.0849947 4.07877
0.160935 3.69335 2.35453
2.99958 0.206695 4.18038
-0.247943 2.37886 2.9023
-1.47478 -1.32546 4.12703
-0.557523 3.09002 2.57471
0.121776 0.702388 4.01447
2.1898 1.639 3.35102
2.98907 1.79876 3.2355
1.48466 3.89246 2.4342
1.98291 0.924174 3.82166
-0.342375 3.23158 2.51807
3.77754 -0.193746 4.24523
-0.687688 2.51272 2.81976
-0.877433 1.69718 3.2622
3.24238 0.815367 3.86341
-0.410811 3.75327 2.2884
1.67763 3.31749 2.67516
-0.309253 2.46888 2.86268
0.509986 -0.0704383 4.56809
1.7786 3.8782 2.47694
1.7582 0.800085 3.79832
2.013 1.78542 3.44973
3.1828 0.472791 4.15451
1.74798 2.49587 2.91087
4.19905 -0.922332 4.39672
-0.977404 0.660029 3.75983
1.45974 3.25652 2.62596
2.10824 1.66062 3.39595
-0.165756 3.77137 2.35773
-0.914629 0.56754 3.8566
-0.419207 2.34655 2.86294
2.48251 -0.869666 4.78427
2.59478 3.30589 2.76113
1.20488 3.28282 2.4986
3.02087 -1.22627 4.75054
2.25827 2.64928 2.85237
3.19801 0.328042 4.0923
0.907681 1.85486 3.17669
3.84394 0.913049 3.37851
0.826133 3.25214 2.53944
1.73338 3.98903 2.43675
1.16971 2.56894 2.89205
2.41382 1.82441 3.28297
-0.755322 0.887726 3.66901
1.63953 4.00312 2.37968
1.18228 -0.385329 4.70026
-0.751186 3.52153 2.42464
1.23235 4.19316 2.2769
2.52684 2.98013 2.7632
3.30395 -0.201641 4.20075
2.27482 1.41763 3.55408
0.405226 2.17009 3.04634
-0.624096 3.91841 2.08085
0.50775 1.54137 3.38405
1.59557 3.80509 2.56654
-0.0855713 -0.67975 4.58125
1.91721 3.15941 2.73091
0.680913 2.24584 2.87458
2.35791 2.28966 3.06004
1.3516 4.28073 2.2213
0.240774 1.50228 3.51822
-0.477402 2.91643 2.60549
0.188662 3.64458 2.38862
3.3647 -0.481193 4.11895
-0.771956 1.40795 3.29291
1.51394 4.18605 2.27613
1.2652 2.274 3.04012
1.27732 3.61323 2.49299
1.67593 3.06213 2.74261
2.17639 2.2391 3.15303
1.00179 3.68672 2.48648
-0.102751 1.4094 3.5361
-0.650276 3.56349 1.89292
0.913885 0.21176 4.33951
4.05368 -1.48813 4.58031
0.890219 2.81967 2.62019
1.30071 3.12725 2.6118
-0.547826 -0.0647681 4.31638
-0.475203 2.3684 2.88914
1.27165 4.28694 2.22445
1.98731 1.65398 3.38223
0.162593 3.63089 2.37967
3.0298 0.668577 3.86119
2.2208 3.1143 2.69745
0.00385876 2.27897 2.91634
3.4474 0.0774567 4.18571
2.95208 1.52126 3.35281
-0.705905 2.67309 2.65266
0.956465 3.74032 2.38853
0.943774 3.41642 2.48763
-0.78917 1.12457 3.38288
1.76899 -0.896555 4.93027
-1.28014 0.565313 3.84489
2.29104 2.05381 3.17923
1.92725 4.09173 2.37872
1.81395 2.76306 2.85105
1.37196 -0.673845 4.46203
1.5626 3.45324 2.57256
3.56208 1.10682 3.66914
1.81359 4.09692 2.33334
-0.848098 1.90247 3.07952
0.729487 2.06684 3.04385
4.28925 1.33281 3.69005
2.18746 0.320988 4.00782
0.486331 3.52162 2.49486
-1.06681 -1.07965 4.1946
0.314181 2.69847 2.59323
-0.668907 3.87139 2.15975
-1.15161 -0.894477 4.26723
-1.11943 0.46068 4.04259
0.474738 2.97147 2.55759
0.172169 2.22843 2.84324
2.82258 -1.429 4.46963
1.10378 4.31042 2.29022
-0.359163 1.55025 3.36606
-0.203022 0.229136 4.26013
-0.1954 2.93686 2.60724
2.08897 3.77888 2.54496
3.84585 -1.17711 4.6141
0.709457 2.19831 2.92968
-0.566088 0.350319 4.24493
2.26088 1.44015 3.37036
-0.341302 3.71085 2.42406
0.282883 4.14993 2.14747
0.952427 -0.0582383 4.46433
0.359562 3.7343 2.37717
2.15425 2.43227 2.9681
2.72922 3.26923 2.71976
3.16321 0.658671 3.75649
2.92223 0.0979132 3.86846
0.0903241 1.60473 3.26656
-1.80975 3.13275 4.81577
2.03632 -0.672986 4.60763
-1.01595 1.13354 3.38291
2.59963 4.33017 2.51045
1.46128 3.48986 2.53255
1.19366 2.758 2.7384
0.824132 1.94028 3.13168
1.05799 1.09799 3.62008
3.25172 -0.515428 4.48562
1.70273 4.10223 2.33316
2.09722 3.59163 2.67105
-0.368973 2.65105 2.72107
1.66275 1.4378 3.5651
-1.07171 0.435348 3.67295
2.51216 2.20564 3.08493
0.103035 -1.01939 4.9592
2.18861 2.97458 2.74599
1.7463 4.16976 2.32136
-0.316268 0.594958 3.99346
0.215847 1.32723 3.63429
1.43853 -0.836388 4.65769
2.21212 2.16791 3.16924
1.51609 3.64673 2.51204
-0.735147 2.79185 2.66969
0.742638 4.26824 2.31138
-0.0722445 3.36188 2.37737
-0.295413 3.44668 2.43715
2.39028 2.89796 2.77882
0.0802976 2.08149 3.0435
3.26022 -0.177121 4.08955
1.8194 1.28441 3.5393
1.51578 4.09581 2.32941
0.241551 3.37938 2.45186
0.759231 2.70114 2.68186
3.79288 2.1462 3.30904
1.30736 4.1675 2.31991
-0.0653833 -0.0564553 4.36964
3.59263 1.1966 3.60053
0.517266 2.89801 2.5843
1.96394 1.50579 3.52472
0.489336 3.61881 2.4923
0.00766258 2.18669 2.91354
0.270852 4.05748 2.19997
1.27483 2.87431 2.65929
3.76544 -0.320931 3.93051
0.960999 1.40189 3.47715
1.79213 2.21484 3.09861
1.21167 3.67267 2.47312
2.53032 -1.11006 4.34161
0.542727 1.79611 3.2203
-1.13022 0.321521 3.88653
1.35695 0.940841 3.85772
0.768299 3.28076 2.55696
-0.754104 3.76149 2.34418
1.25536 2.60293 2.91471
3.67466 -0.841618 4.04529
1.42009 1.74574 3.35876
-1.18194 0.449053 3.78104
2.34559 0.812771 3.81014
-0.272973 3.09372 2.48914
1.64012 3.9536 2.40808
1.02846 2.47537 2.87126
