ply
format ascii 1.0
element vertex 1908
property float x
property float y
property float z
end_header
1.26665 4.03984 2.54731
0.944512 2.79734 2.67459
0.650505 -0.0153995 3.4643
1.63672 1.61771 3.5119
-0.814121 3.80064 2.22745
1.38246 2.81634 2.84271
-1.16634 -0.746567 3.15921
4.0479 1.14606 3.46295
1.44132 4.0708 2.47238
3.79031 2.23148 3.1227
-0.419035 4.19477 2.29855
0.617767 2.84739 2.60586
1.09852 1.69351 3.37196
0.844296 0.717504 3.51288
1.36243 2.27255 3.02201
1.69823 3.63319 2.69957
0.135402 0.343939 3.36448
-1.38426 0.407295 3.31623
0.563224 0.950529 3.91755
0.00385554 3.59086 2.48962
1.29093 2.35095 2.89858
0.346283 1.01061 3.52707
2.5743 5.28878 2.66158
2.36634 3.80171 2.7305
4.45187 0.696656 3.61935
1.31528 2.28095 2.92915
0.841834 3.81376 2.5981
1.61309 2.57753 2.97508
3.51268 0.540054 3.70077
-1.27982 0.74404 3.28877
3.58385 0.838204 3.67986
3.72133 0.613386 3.4578
-0.744008 -0.139154 3.31553
-0.26034 2.54042 2.79689
0.631713 3.88026 2.56629
-0.405882 2.63007 2.6213
-0.557875 0.387036 3.32802
1.77892 1.31888 3.57623
-0.69743 3.76143 2.34901
4.48534 -1.93247 3.59606
-0.335951 0.382755 1.2689
-0.854559 2.62124 2.64528
-0.702308 -1.36349 3.15487
3.76629 0.533182 4.06195
0.730391 4.05896 2.59102
3.76647 0.812892 3.45141
2.66593 -0.610446 4.66747
0.207912 1.18905 3.625
-0.0330541 4.03487 2.48649
0.077787 2.62671 2.57667
-0.888676 -0.314263 3.95632
1.70418 1.37895 3.49432
1.35441 4.01027 2.49324
0.647331 1.6793 3.37955
0.922509 -0.948309 4.92296
-0.454044 2.82073 2.56371
0.334545 -0.802053 3.23698
-0.338227 3.96609 2.31088
2.51129 1.30944 3.45431
3.14257 -0.740352 4.18865
-1.34021 0.44369 3.19603
0.757465 2.69579 2.64568
1.13799 2.97343 2.70399
0.79808 4.21349 2.48067
0.00415445 1.81887 3.18698
4.36187 -1.37387 4.6157
-1.01713 -1.37916 3.15845
4.30113 1.4713 3.78007
-1.0887 1.22484 3.19572
-0.719054 4.09142 2.19034
2.90322 -1.03933 4.18531
2.07084 2.94131 2.85625
-0.374293 1.46434 3.31886
-1.01292 3.01426 2.41297
1.38402 -1.68502 4.6893
2.31085 1.64415 3.20791
2.29186 3.05655 2.79859
-1.10446 0.583525 3.06107
3.53673 1.44794 3.267
0.772985 4.40305 2.47111
-0.650402 -0.619829 4.25298
-1.84966 1.55797 4.94554
-0.509119 3.70154 2.3171
2.22009 2.59207 2.89272
-1.15749 2.91401 2.53201
3.4765 -0.649424 4.6434
-0.702955 3.66944 2.23701
0.712707 -1.70492 3.35758
2.2033 1.38291 3.44353
-0.86429 3.72644 2.22304
3.47709 -1.0749 4.4306
0.507653 2.69446 2.61409
0.305553 0.0600999 3.38839
1.89581 1.40179 3.58893
1.11204 -0.947959 4.95123
-0.493583 3.87102 2.30114
-0.47247 2.66193 2.55967
0.021705 -0.690399 3.22073
-1.4535 3.1084 2.41711
3.10416 2.89342 2.84436
-0.393526 3.9457 2.29795
0.0509362 1.75867 3.25201
-1.16373 3.24147 2.45344
2.07209 2.86319 2.86237
-1.11768 -1.21993 4.22988
0.586254 4.19225 2.45059
-0.641861 1.71057 3.24069
1.96792 3.09859 2.81103
-1.1115 1.15732 2.9519
-0.221682 4.12097 2.26621
0.825979 1.8493 3.28142
-0.88204 2.88281 2.44126
-0.688281 1.24008 3.21944
1.22347 1.81959 3.45596
2.54683 5.06161 2.47345
3.83758 0.202631 3.87234
-0.151391 1.91084 3.05808
-0.918916 3.02462 2.42707
2.01598 4.06948 2.611
3.19296 0.423081 3.83078
4.3055 0.850974 3.47097
1.67497 4.362 2.48001
2.77503 1.76464 3.17718
4.8119 0.649251 3.36895
3.65245 -0.0854942 4.23922
0.0382437 3.15612 2.49563
3.85288 0.052844 4.09241
1.64719 1.88498 3.24011
3.84878 2.65078 3.09083
-1.0488 3.1818 2.48358
3.14599 2.61406 2.98912
1.89323 3.43513 2.75476
3.39698 -0.363937 4.43108
-0.723587 2.18939 2.8936
-1.19797 0.21001 3.50228
-0.464479 1.38703 3.24238
0.114935 2.13251 3.05668
4.28316 -0.0515519 3.83089
-0.831276 0.943997 2.99742
3.51542 -0.139148 4.28347
-0.00239675 3.26916 2.53166
-1.13071 3.8546 2.23358
0.962856 2.20376 2.96812
-1.51494 1.84596 2.84153
3.91384 0.214755 3.82731
0.231564 3.40096 2.53861
3.04279 -0.456331 4.26086
0.457753 3.53166 2.59895
-0.946375 0.808222 2.9148
-0.488755 2.21821 2.86274
0.271901 2.73933 2.5725
0.538837 0.273478 3.51854
-0.884349 1.70056 3.29126
-0.793553 3.81097 2.25064
3.76846 -0.517961 4.09516
0.345253 -0.181807 4.68298
-0.25071 2.73692 2.58965
2.38952 -1.92825 3.82023
0.230032 1.77096 3.59724
-0.841991 3.80937 2.14066
0.857728 1.72685 3.36708
-0.233018 2.87211 2.55382
-0.805747 -0.640713 4.10965
1.03613 4.12884 2.44071
-1.14014 -1.63053 3.13448
3.89671 -0.62617 4.21482
0.601486 4.24226 2.43151
1.39342 1.76036 3.30785
-1.50911 1.68406 2.90411
-0.159527 2.99863 2.53147
4.23542 1.50479 3.60154
2.85033 4.77381 2.7431
1.41249 3.02058 2.78514
-0.26046 1.44269 3.30955
3.5416 -0.918726 4.66577
1.25197 3.22251 2.72118
1.77295 -1.24864 4.37352
-1.23381 0.981836 3.048
2.96631 1.66614 3.21773
3.98731 -0.92516 4.36451
0.220907 -1.15519 4.88955
4.71438 1.4115 3.35908
1.17654 1.90504 3.33133
4.16945 -0.95115 4.26156
1.03011 3.13508 2.67965
-0.647695 3.22173 2.44821
0.382053 -2.10345 2.1012
-0.257828 0.867715 3.23472
1.9783 0.731349 4.02601
3.40761 1.78717 3.21814
1.89252 4.5842 2.52203
0.278387 0.786885 4.1491
0.225411 3.13106 2.48954
0.79372 1.93538 3.04036
4.48905 0.0513342 3.85069
0.570976 2.02125 2.91124
-0.883014 0.281672 3.88181
2.17895 3.44956 2.79556
-1.30457 1.13477 2.84146
1.35127 4.69152 2.49238
3.76268 0.220502 3.80542
3.45972 2.00731 3.08548
2.13158 5.01563 2.66318
0.0431634 2.16008 2.87921
1.61689 3.51136 2.68136
0.281253 1.10967 3.53658
-0.839167 0.548278 2.95898
-0.234914 0.181127 4.32763
1.52964 3.52941 2.73908
4.18436 -0.692319 3.93703
-0.341798 1.17196 3.27659
-0.257621 -0.0127598 4.29839
0.968407 2.24714 2.83765
0.844624 3.57665 2.60548
-0.880661 4.09631 2.17078
-0.711167 2.27937 2.74012
0.51837 0.146655 4.43167
-0.425624 4.25668 2.28569
-0.798679 1.02374 3.05472
0.0495157 3.60066 2.50772
0.687021 0.51619 4.20109
4.11861 1.87909 3.18027
-1.42524 1.16558 2.79858
1.56295 4.49619 2.47673
1.81256 0.732012 3.84566
1.92732 3.22838 2.78047
-0.714667 2.05703 3.03491
1.03711 2.05654 3.14083
-1.22772 -0.21018 4.15363
-0.124274 3.28773 2.54102
0.334135 -1.04216 -0.986786
1.88814 0.265769 4.23674
0.715207 1.96005 3.04704
-0.927866 4.03889 2.18616
0.598553 3.21115 2.58781
2.79759 0.441141 4.03445
1.30303 2.13834 3.06027
3.0048 -0.0924366 3.91011
4.15227 -0.456878 4.05475
-0.477773 3.4041 2.49571
-0.894081 0.742722 2.99714
1.67477 2.04523 3.13385
2.61924 0.10514 3.97055
-1.26749 4.12712 2.15746
0.618616 3.35054 2.58127
-0.554016 0.730893 3.05633
-0.329973 1.24352 3.29386
1.10802 -1.56204 4.49768
2.09301 -0.205104 4.33418
1.50241 2.24274 3.02574
0.531956 3.4224 2.51994
-0.368705 0.687544 3.19422
-0.0396459 -1.28371 4.07659
0.0263659 2.27044 2.91312
-0.123135 3.47581 2.45087
-1.00017 3.06799 2.05003
0.181258 -1.39066 -0.602296
2.22894 3.71916 2.73909
0.357579 1.03605 4.1651
1.93888 2.24268 2.9995
0.156843 0.133041 3.48612
-0.865346 3.67005 2.45183
0.432258 1.07834 3.89146
4.01346 2.53541 3.25473
2.50317 4.339 2.69186
1.48269 3.79095 2.62281
-0.0595137 -0.301683 3.14642
0.0778433 2.3583 2.73641
-1.09759 0.744537 3.25241
3.90562 0.804604 3.48527
0.781805 3.93293 2.61822
2.09883 2.55118 2.93025
-0.767338 0.898906 3.29701
0.28744 1.23781 3.86742
1.57975 3.97404 2.62731
0.211276 2.4692 2.67963
-0.9906 -0.239201 3.25907
1.57073 2.71666 2.85447
0.967448 0.79946 4.04406
-0.56262 -0.971166 3.2332
3.50266 1.02007 3.41072
-0.520901 3.75797 2.31641
0.0312385 -0.151828 3.28365
4.54791 -2.10649 3.60436
1.04676 2.62147 2.78544
4.33366 0.948392 3.59182
2.5298 4.16985 2.70715
-0.928322 3.32262 2.45644
3.12666 1.87726 3.18239
-1.62162 -1.19739 4.22466
2.73105 0.630993 3.63602
1.53993 4.69673 2.49595
0.548219 3.30372 2.60794
2.36395 1.97054 3.28066
-0.472577 0.392196 3.20152
-0.136277 4.36831 2.19912
-0.592712 -0.0278595 3.01253
-0.724182 3.34301 2.42571
1.54719 0.645528 4.1926
0.779167 2.11429 2.94674
1.58055 2.22688 3.01972
0.752526 -1.18128 -0.595774
1.01504 3.52972 2.64472
0.114436 0.370047 4.23356
0.630936 0.241552 3.55412
0.569292 -2.04034 4.4224
1.51564 2.18588 3.06684
-0.861206 0.433317 3.90192
0.689373 3.55269 2.58372
-0.914218 0.596735 2.98714
4.12089 0.0897874 3.76126
1.81074 0.12003 4.3232
1.11009 0.872251 3.93734
1.95113 3.68914 2.70302
-0.261812 -2.26184 2.78987
3.84806 -1.55661 4.06401
1.53568 2.37094 2.98629
2.39569 0.239723 4.16688
0.710133 3.66472 2.547
-0.719625 0.712896 3.02011
-0.554386 2.38259 2.80101
3.03902 -0.679567 3.86539
0.824432 2.45854 2.77429
3.85913 2.76332 2.9504
1.68881 -1.29417 4.4376
1.73353 1.08706 3.55674
-0.703838 3.6397 2.37706
-0.101383 2.43484 2.71621
-0.929211 0.271227 3.22454
1.96913 -1.03802 4.43791
3.4657 0.697845 3.56364
0.729341 3.94282 2.62694
2.04259 2.65279 2.94516
-0.599676 0.47828 3.32808
3.37326 1.03981 3.59384
1.39802 3.89611 2.57256
4.60098 -1.69021 3.58303
0.0109769 0.969773 3.66657
0.404508 2.4261 2.60646
0.302105 1.26866 3.81886
1.00499 4.01743 2.58253
-0.582462 0.06009 1.17741
4.81 1.21352 3.86526
1.83989 2.70165 2.88008
0.689743 4.10962 2.58608
0.283097 0.282825 3.52691
2.32459 1.46912 3.49432
2.5519 4.07896 2.52554
1.1059 2.81212 2.73705
0.807991 1.25362 3.59976
-0.62858 1.55693 3.18007
-0.726122 3.86864 2.22838
-0.87569 2.7644 2.56247
-1.32186 0.653989 3.23863
2.19329 2.36147 2.9343
4.46819 0.914778 3.50296
4.42171 -2.0261 3.62126
0.0713715 1.24491 3.81275
-0.895656 3.61451 2.41194
-1.06542 2.35709 2.65333
3.20017 -1.23076 4.02039
0.696042 2.29879 2.75642
0.479504 3.77073 2.55657
3.69824 0.565174 3.60882
-0.864298 0.537405 3.21084
-1.05547 3.68611 2.32804
-0.604322 0.110714 1.09309
0.00316268 2.45981 2.65977
-0.400125 1.24636 3.60895
0.944478 1.02017 3.56627
1.83748 1.29584 3.57543
0.221545 3.89887 2.5101
-0.205407 2.5472 2.56297
-0.27622 0.902362 3.55086
1.37561 3.95443 2.56064
3.37955 0.931915 3.57174
-0.554615 -0.618547 3.26261
1.49949 2.62153 2.93774
1.76242 3.97378 2.55081
0.874722 2.72537 2.69579
3.99038 1.09243 3.36986
0.277938 -0.29546 3.27621
0.677844 1.56686 3.52853
0.129799 -0.64496 3.2296
-0.42624 2.67723 2.58339
0.0308063 4.01462 2.42377
0.166978 -2.39824 3.22871
1.89767 2.9335 2.84567
0.46878 1.73221 3.31135
3.42276 -0.386398 4.33231
1.54599 4.04605 2.45827
-0.311536 2.83896 2.6121
-1.05482 -1.94747 3.10916
1.37443 1.6441 3.5085
-0.809228 -0.0521876 4.12175
-0.353135 4.03284 2.31483
4.69966 1.44103 3.39077
1.83273 -0.566282 4.73412
1.68132 4.15157 2.42997
-0.857055 2.8971 2.46387
2.09594 -0.421164 4.50887
0.731981 1.75487 3.2502
1.9832 -0.78913 4.97869
2.44911 1.65718 3.26286
0.423943 -1.37302 4.64556
-0.820609 2.9892 2.41051
-1.67241 3.01565 2.4867
2.16923 1.63572 3.31878
-0.55262 -0.577702 4.24187
-0.815676 3.04792 2.52422
-0.983554 0.372287 3.0483
0.39591 -1.14422 4.79838
-0.190759 1.97307 2.91827
1.09423 4.43293 2.4556
0.155582 3.18122 2.53945
4.81499 -0.676409 3.40701
2.37043 -0.907417 4.61372
1.56493 1.87991 3.22714
3.97517 -0.626735 4.12203
0.335896 -1.04217 -0.98536
0.356123 3.10103 2.53583
-0.141735 3.76334 2.44889
-0.158971 2.57595 2.69165
3.47445 2.24818 3.15821
4.16833 0.870195 3.61455
-0.822285 -0.910058 3.99847
3.80648 0.730182 3.56644
-0.894504 -0.7268 3.22889
1.97045 2.51018 2.98764
3.107 -0.908704 4.41145
1.11718 3.89457 2.56722
3.9242 -1.38511 4.37746
3.44638 2.58064 2.93651
-0.520419 -0.167209 3.2431
-0.645098 1.47191 3.31752
1.42544 3.98565 2.59084
-1.95116 2.37597 2.76053
3.45134 2.52228 2.90816
-1.32765 4.02053 2.30445
-0.836253 3.73386 2.23573
-0.466831 1.41762 3.50368
0.463658 -0.510675 3.26535
-0.465239 3.96439 2.36394
2.55216 2.70228 2.87062
1.09605 1.50432 3.3858
0.780926 4.19565 2.52677
-0.305017 1.82403 3.28786
0.314031 -2.39704 3.22936
-0.0616932 2.79032 2.50676
-0.612267 4.12226 2.32105
3.48761 1.20354 3.36195
-0.378905 -1.54234 3.15191
-0.482528 2.78273 2.54337
-0.116825 4.11464 2.32491
1.64328 1.69028 3.27587
-0.199781 2.90402 2.45626
-0.796102 1.24385 3.287
3.65351 1.46576 3.49543
2.85925 4.70059 2.74004
-0.828616 0.281069 4.15001
0.78899 2.9291 2.64974
4.29349 1.39319 3.3888
-0.828091 3.05728 2.41426
-0.865124 -0.318322 3.34727
1.26883 -0.00197178 4.56947
3.27599 1.61785 3.21386
1.06907 4.50737 2.45874
0.7041 3.09508 2.62534
2.34115 0.0223223 4.12917
3.30492 1.57307 3.33668
4.05823 2.10046 3.04362
1.93024 4.3952 2.50771
2.01278 -0.429421 4.57676
0.0802459 -2.14759 1.94251
-0.479998 0.881779 3.16002
3.49571 -0.792019 4.1975
-1.25007 -0.283811 4.11158
1.20968 3.32462 2.75146
0.766157 -1.96207 2.02928
-0.579703 2.05919 2.98552
0.398939 2.06378 2.9458
2.1454 4.14181 2.62243
-0.486551 3.29175 2.47066
-0.274332 -0.8558 4.99935
1.34868 2.00273 3.14149
0.421439 -0.674714 4.7872
-0.787761 3.24866 2.46115
4.21751 -0.385024 3.93614
-0.498585 -1.53673 3.15096
0.942176 2.95931 2.68777
0.820778 1.7346 3.25454
3.63276 -0.187048 3.87932
1.29801 4.1265 2.45584
4.08546 1.33335 3.49804
-0.55252 1.09021 3.40712
0.879552 4.21478 2.43827
3.82731 -0.066898 4.00549
0.253984 2.81873 2.55669
-0.681322 3.04837 2.4672
-0.684942 1.57424 3.17796
-0.222417 4.52902 2.19145
2.97926 1.54979 3.22221
1.68322 3.17672 2.88417
3.97579 1.88896 3.29397
2.70386 -0.292573 4.3019
1.89349 1.70056 3.33785
1.34597 4.51093 2.4749
0.668366 1.93566 3.13329
1.65549 -1.93413 2.45849
-0.397812 -0.628777 4.57342
2.14127 3.30561 2.86411
1.98145 4.21162 2.52134
-0.535532 -0.385799 4.68657
4.51425 0.808113 3.41292
3.69036 -0.847089 4.23572
3.31959 1.78512 3.10729
2.88038 -0.998979 5.09979
0.03039 -2.26785 2.00034
-0.998193 3.28333 2.48
0.472233 2.01995 3.10951
3.55788 -0.787133 4.39101
2.2782 3.28909 2.79974
4.03671 -0.804258 4.07795
1.27444 3.48986 2.69563
1.63469 2.11009 3.10868
0.722398 4.72451 2.38081
-0.986075 1.2435 2.97777
1.85574 2.09807 3.24473
-1.02324 4.3586 2.15714
1.69937 3.46905 2.77821
-0.503102 0.556116 3.05807
1.7682 0.828042 3.84649
4.02987 0.272475 3.73336
3.19014 -2.32944 3.59838
0.361285 2.30309 2.91688
-0.0992501 3.41418 2.47547
0.342061 4.38099 2.40454
-0.475409 0.0321126 3.0118
0.272307 2.24484 2.95069
-0.864617 3.48633 2.42399
-1.26077 0.421049 3.83797
-0.378675 4.33206 2.27182
1.18269 0.931733 3.59232
1.74587 3.70223 2.70221
2.42884 2.23627 3.05402
-0.793781 -1.44623 2.86546
3.56026 0.457535 3.88946
-0.634014 0.903012 3.63934
-0.496127 2.39445 2.63281
0.37678 3.69572 2.54226
-1.15588 3.5985 2.41493
0.214556 0.251436 4.38448
-0.735771 3.63001 2.3728
4.03764 0.12901 3.96014
-0.136931 0.873787 3.85665
0.134076 0.859476 3.39951
-1.09655 2.06606 2.62985
-0.0464622 2.3727 2.7568
1.77485 -1.59227 4.66164
1.71554 0.391239 4.31625
2.21905 1.78933 3.42978
-0.34312 1.47846 3.32323
-0.602783 3.11423 2.53564
1.22649 1.83256 3.3913
0.892901 4.64954 2.37528
0.886414 3.03608 2.68416
-0.862761 -0.168471 3.32248
3.44022 -0.0539105 4.19847
0.531552 3.23767 2.60832
1.47738 4.33248 2.46874
3.56113 1.74465 3.33277
4.59 0.792605 3.39048
0.355104 -1.04628 -0.96534
3.69482 0.0516758 3.74813
2.84309 1.70339 3.26073
4.26979 -0.595775 4.14116
3.04644 3.43027 3.05659
-0.238111 0.729043 3.22443
-1.07755 3.37921 2.50919
1.59999 4.60265 2.49046
3.43355 -0.393152 3.97964
1.11167 -0.0463317 4.51885
-0.678303 2.1635 2.89855
2.17898 3.36819 2.80239
1.00065 2.0642 3.16516
4.06525 -0.255898 4.00628
-0.428184 -0.0727266 3.0288
2.43414 -0.617122 4.38154
0.934226 3.41853 2.62926
1.19271 -0.372361 4.66435
3.92763 1.94044 3.11271
4.1007 0.40914 3.7629
0.239822 -1.93829 1.80992
-0.291611 2.2476 2.77826
-0.643358 3.49856 2.50994
3.90166 0.0247927 3.84957
-1.07623 3.53413 2.46203
-0.0826874 2.23933 2.88782
0.662199 1.17169 3.57653
0.125538 -0.840635 3.24705
0.398664 4.6632 2.35638
-0.00808455 0.123975 3.43175
-0.581924 3.56668 2.44715
-0.782144 2.40504 2.70756
2.59251 5.23331 2.68954
3.81257 0.568269 3.70364
-1.35358 2.41477 2.82181
4.0765 1.43623 3.3628
0.579919 2.26982 2.82148
0.128076 3.64604 2.49301
-0.132039 2.50599 2.71031
4.49609 0.541853 3.51664
2.62157 0.926553 3.5473
-0.129557 0.759066 3.92869
-0.064633 3.66967 2.44844
3.52924 2.24247 3.15161
1.31509 2.41239 2.88103
1.80774 3.86886 2.65098
2.66112 0.826593 3.55544
-0.714549 -0.427302 3.26077
-0.456556 3.76292 2.3744
1.64957 0.460745 4.08158
-0.944555 -0.0765633 1.57934
1.79037 2.56124 2.91976
-0.264641 0.618877 4.14987
3.59187 0.922964 3.65732
-0.149514 -0.215068 3.17483
1.30636 2.2158 3.08915
-1.05333 4.19909 2.20545
-1.1636 0.227983 2.82148
-0.892858 3.38358 2.39599
-0.362726 2.14275 2.80701
3.93114 -0.277644 3.91859
2.08982 3.48858 2.76525
3.38205 -2.43914 3.62325
-0.701568 0.844948 3.0706
0.33938 4.61496 2.33961
0.809474 2.26457 2.85249
1.9916 3.6455 2.75077
-1.13926 0.727723 2.82972
-0.140854 4.18729 2.16472
-0.614663 2.27945 2.74975
1.29092 3.68839 2.66143
2.72129 0.561834 4.08294
1.68813 2.39431 2.9146
-1.41836 2.75471 2.71534
1.80823 3.75404 2.67709
4.41016 0.699697 3.73689
4.05309 0.72052 3.47968
0.571699 0.860302 4.15296
0.913472 2.28713 2.78339
-1.0303 4.31921 2.17855
0.996183 0.881403 3.96012
1.83718 3.84209 2.68805
3.29717 0.899981 3.74525
1.03951 0.699291 3.55631
2.19967 2.44702 2.95076
1.25103 0.419499 4.19743
0.0654965 3.78233 2.46813
0.957009 0.924584 3.56208
4.1357 0.231987 3.98208
-0.938322 0.57112 3.24053
3.0822 0.987567 3.43436
0.312095 4.12814 2.47919
2.45452 2.58358 2.91299
-0.407367 0.929374 3.4725
0.542379 3.99443 2.54476
2.0258 1.221 3.67101
-0.681655 -0.740132 3.2423
-0.65731 2.62316 2.68872
2.37981 -0.758439 4.48183
0.328533 0.553367 3.6314
4.09674 -1.16048 4.44936
1.10424 2.73942 2.74701
0.567048 1.68274 3.54921
2.18976 4.18568 2.73658
2.82404 -0.976437 4.82813
0.216223 1.64558 3.59074
0.367913 1.16409 3.69759
-0.527937 2.69592 2.60739
0.936893 4.16184 2.57073
-0.716166 -2.24369 3.13916
-0.572552 2.86792 2.53569
3.87421 1.24657 3.36833
-0.489589 3.97845 2.32047
-0.826643 2.66682 2.44693
-0.962536 -1.31885 4.42154
-0.328707 -2.11827 3.10887
2.75429 1.29644 3.33359
-0.242641 3.97357 2.29438
3.74471 1.47196 3.54508
0.296635 2.88247 2.5596
-0.326257 4.0439 2.22812
-0.908917 0.33699 3.19677
-1.17578 0.0462107 3.83854
2.65878 1.46424 3.29477
-0.473556 3.01359 2.61673
-0.584818 4.05054 2.20416
4.90899 0.00192615 4.55624
-0.44538 1.05438 3.42067
2.67376 4.67033 2.77296
-0.078476 1.89026 3.07866
-0.626411 3.05759 2.49133
3.82494 -0.424351 4.08409
0.211381 -0.0481847 4.32509
-0.175632 1.88774 3.16394
0.682532 4.52214 2.46876
-0.414037 1.2832 3.27808
1.85116 3.09711 2.82655
-1.01076 0.727846 3.25317
-0.512608 3.11994 2.42941
3.58484 1.99384 3.15901
2.12905 1.91496 3.30829
0.658998 -0.726135 4.9756
2.83269 2.06509 3.09035
0.420057 3.03867 2.49812
-1.54894 0.468347 3.0521
-0.16771 1.08944 3.31273
0.129895 1.95213 3.05952
3.22634 -1.02149 4.20957
1.09681 -2.07699 2.12509
0.951145 -0.448172 4.94623
0.00637479 3.27467 2.49537
1.27271 2.02993 3.08694
-1.52544 -0.162239 4.08863
0.134365 3.24352 2.54155
3.25626 -1.63224 4.29848
0.446914 -0.783656 4.64511
1.87947 1.97649 3.22917
-0.551067 2.13929 2.80242
0.553867 1.28574 3.58786
-0.741259 3.29975 2.40338
4.23084 1.26025 3.42591
2.87347 3.19962 2.90471
-1.08004 1.00728 2.9137
2.93802 2.06042 3.05147
-0.248581 3.33812 2.4097
-0.0431058 0.742416 3.95157
3.8767 -0.287511 3.89033
-0.773895 2.20146 2.76507
0.29583 3.47292 2.50975
3.98252 0.180333 3.69913
1.66391 3.71186 2.71902
0.853597 2.31037 2.82209
-1.19352 0.324739 3.8947
-1.46747 4.01478 2.29015
2.29372 0.892527 3.84242
-1.45167 0.861162 2.05337
3.28198 -0.298637 4.07348
-0.626623 2.39401 2.81378
1.06881 3.69914 2.59772
2.84812 0.618206 3.93447
1.56228 2.46905 2.9141
0.191344 -0.34929 3.35272
-1.34267 -0.10904 3.25562
2.52753 0.960664 3.61646
2.90254 3.84454 2.67337
-0.947567 0.370832 2.96092
-0.570089 1.1037 3.50301
1.03832 1.06983 3.58613
0.420319 2.42073 2.76667
-1.15539 0.253087 3.94247
-0.641882 3.63312 2.33026
-0.494784 0.92709 3.77135
-1.8042 3.13168 4.81892
2.12855 4.79226 2.60397
1.35413 3.39088 2.70055
-0.206964 0.472618 3.36735
4.13235 0.117013 3.81776
0.832279 2.02462 3.06661
-0.739984 0.843989 3.0295
2.05098 3.42844 2.8425
-0.999772 0.582788 3.65984
2.6335 2.0365 3.08072
-1.47169 1.71345 2.85155
-1.01668 4.22896 2.20372
-0.242634 0.712579 3.98057
1.39479 3.54109 2.68981
-0.889377 0.197902 1.75841
2.28625 2.053 3.15889
-1.4102 0.45563 3.32439
-0.294709 3.26331 2.41435
0.15289 2.25625 2.75541
-1.51192 2.01955 3.10971
2.03441 3.62008 2.73937
-0.155009 0.282007 4.25785
-0.503154 4.35647 2.25867
-0.638287 3.58483 2.46082
0.696487 2.20942 2.86689
-0.514648 0.403324 4.2445
1.023 1.15081 3.56667
-1.30341 3.10071 2.52542
1.08538 0.121891 4.43235
0.0935321 3.64149 2.48944
0.0637944 0.945486 3.39425
2.22464 2.28325 2.98845
3.35609 0.57792 3.64245
3.13908 0.0946446 3.75068
3.49472 -2.42324 3.6169
2.54611 -1.08363 4.29938
-1.05215 3.63818 2.36565
1.47739 1.22804 3.73391
1.21014 2.54158 2.92934
3.73666 -0.873805 4.00673
-1.05346 2.21549 2.52993
2.53788 0.907932 3.68348
1.50622 3.83225 2.60917
0.994629 2.42129 2.85279
-0.884876 0.925058 3.2234
0.881412 1.48575 3.63883
-0.586917 3.72617 2.36048
-0.971973 0.00319529 1.56248
1.38427 2.58628 2.80373
-0.935381 0.0323258 3.27044
1.09397 1.35962 3.64227
1.65415 3.93022 2.56887
3.62138 -1.4323 4.25789
-0.158444 0.860071 3.58492
0.171196 2.44924 2.60521
0.353301 0.248998 3.50876
0.370333 0.933032 3.70477
2.47506 2.72325 2.89023
1.94068 1.36516 3.45116
1.34696 3.98494 2.53759
0.183945 0.766053 3.61701
0.691029 2.6308 2.67946
1.08916 4.06036 2.52124
3.90132 0.98017 3.50012
-1.34477 0.682691 3.26153
0.41162 2.83195 2.60717
2.05907 1.53359 3.43638
-0.0674414 3.95258 2.34106
1.2241 2.79771 2.74181
-0.456904 -1.33641 3.17072
1.03664 1.60472 3.38037
0.347414 4.13589 2.42149
-1.4321 0.650953 3.33097
-0.562248 -0.581271 2.94285
-1.00248 3.4028 2.42844
0.0431022 0.728613 3.36096
0.389635 2.24254 2.97412
1.45003 3.67599 2.74361
-0.74135 4.18397 2.10399
0.663007 2.26788 2.84003
2.45463 2.14618 3.07472
-0.073842 3.54581 2.46962
-0.598145 0.813019 3.06569
-1.2121 3.76588 2.34789
1.67002 3.74554 2.6711
1.89774 0.977568 3.62325
3.39448 0.483347 4.0032
1.77095 2.38456 2.94492
-0.269866 -1.41557 3.86212
-0.906964 0.796434 3.74347
-0.468593 3.64886 2.41293
-0.833821 0.716477 3.84346
-0.459646 2.4007 2.74858
-1.07264 2.26053 2.51826
4.27545 0.646423 3.50244
1.0315 0.848731 3.58025
2.33882 2.47799 2.91467
3.48079 0.347538 3.90423
-1.06886 2.70684 2.65755
4.01275 0.714932 3.1995
1.61314 3.85236 2.63952
-0.920328 0.159718 2.90902
1.13431 2.50355 2.8984
3.50213 3.30635 2.7913
-0.692139 1.00822 3.65589
1.50565 3.87845 2.58159
-0.791142 2.66046 2.54783
-0.725058 -0.872159 3.22721
-0.701154 1.43003 3.32178
1.88543 -0.823755 4.88732
1.83454 3.95109 2.5936
1.81781 2.63837 2.92547
1.52224 -0.566451 4.42068
0.26257 0.338069 3.46031
3.85413 0.912251 3.53488
1.70861 3.96376 2.5581
4.41292 1.14471 3.66277
-0.984381 -0.992697 4.18879
0.232476 2.6392 2.5735
-0.998913 3.73334 2.20487
-1.32433 3.92138 2.30759
-1.14492 -0.892706 4.27282
-0.679381 1.77527 3.17349
1.33823 4.07547 2.48705
1.63204 2.93809 2.84346
-0.7134 -1.8573 3.14239
-0.0348037 1.80216 3.45312
-0.657982 3.56565 1.87756
4.13689 -1.4834 4.54219
0.815466 2.75497 2.67538
-1.0074 -1.84573 3.11622
1.22279 3.03673 2.72729
-0.225899 1.04395 3.53183
1.04374 4.18115 2.42746
2.08837 1.64591 3.32624
2.26318 2.93876 2.82116
-0.760779 1.30502 3.21159
2.18898 -1.28267 4.48059
3.1628 1.34631 3.26701
0.981001 -0.980467 4.77202
-0.780446 2.66454 2.72826
3.82027 -0.839149 4.22432
1.21052 3.88672 2.56545
1.44525 1.2935 3.64969
-0.994934 -0.0888202 3.25433
1.36328 1.40691 3.49271
-0.767024 3.75222 2.30137
-0.645975 -1.38417 4.33367
0.428726 2.55906 2.58624
-0.256603 0.643989 3.47151
0.423035 4.01749 2.51455
-0.839824 1.3956 3.44099
3.12757 -1.07475 4.028
0.820691 2.56971 2.72469
-1.26082 4.08731 2.27552
-0.560772 2.76139 2.52165
-0.935631 3.8267 2.26034
2.88884 1.33296 3.44515
-0.79847 1.51481 3.28184
-0.594595 -0.0176774 3.30618
-1.16731 -1.67561 3.16053
0.318059 2.63864 2.56846
1.88429 4.12194 2.54666
-1.02769 -1.51943 3.14663
1.98265 2.95849 2.8067
1.87046 1.57983 3.3135
-0.765583 3.9213 2.16118
1.44114 2.9134 2.79513
2.56984 -1.28834 3.81657
0.555294 1.67474 3.28396
-0.780653 4.001 2.16119
3.31458 0.147242 3.87018
-0.554544 1.61515 3.21695
0.191186 -1.25037 4.58012
3.26771 0.301499 3.98232
-0.7207 3.01665 2.5321
2.31644 1.60107 3.29896
3.20728 1.6035 3.19486
1.08257 4.34755 2.4481
-0.530998 3.12546 2.49542
3.87711 -0.279654 4.18187
-1.19421 0.988142 3.04218
-0.816878 2.04056 3.17081
1.98783 4.14566 2.53049
1.61442 3.1833 2.81608
4.57035 1.384 3.32594
0.625966 0.0942493 4.55056
1.40331 1.97435 3.1335
1.40297 4.40349 2.47465
-1.17038 -0.378236 4.43223
-0.762864 0.690971 2.93715
-0.538875 3.17674 2.42601
4.95529 -0.106187 3.45202
3.48849 1.72434 3.30332
4.79218 0.302222 3.935
2.26315 -0.259667 4.29989
2.11044 3.33862 2.83573
0.145132 -0.767028 5.21452
3.69867 2.2792 3.00144
0.400363 3.37317 2.55586
2.60059 2.01045 3.16708
1.3548 4.6396 2.48571
-0.234939 -2.15888 1.56494
4.03187 0.062166 3.74885
-0.557915 3.25028 2.44096
3.79762 1.90224 3.29108
-0.436288 2.71602 2.57992
3.8073 -1.76534 3.83907
-0.621649 -0.669278 4.5519
2.07343 1.30322 3.40808
-0.831804 3.7782 2.26739
-0.570172 2.65371 2.58178
0.608318 0.843553 3.68944
0.275971 1.65422 3.65471
-0.37195 -0.417868 4.42144
0.116514 4.00025 2.44254
-0.949409 -2.03942 3.136
0.826232 -1.03756 4.93135
-0.0599346 2.65613 2.49163
0.180296 4.10019 2.45843
3.5514 1.16188 3.32355
4.44439 -0.862917 4.50883
-0.944484 -1.01536 4.10844
0.48465 4.17601 2.45671
0.0884285 1.80356 3.25595
-0.907047 -1.96861 3.10591
0.394695 2.91666 2.61985
0.308454 4.17952 2.40187
2.60702 1.43665 3.41389
1.37329 2.92252 2.81817
4.1724 1.78015 3.38048
0.129102 -1.22974 4.55979
3.02736 1.48779 3.16327
-0.22302 3.03542 2.5133
-1.30611 -1.38844 4.23023
-0.872445 1.54011 3.15449
0.468684 1.76563 3.13704
1.78775 4.5054 2.50082
-0.986661 0.109614 3.02883
-0.0898259 2.9535 2.53075
5.09548 0.443419 3.35129
-0.1173 3.16447 2.51355
0.874941 4.37702 2.45201
1.3788 1.95917 3.23467
-1.1868 0.39621 3.86214
-0.684902 3.09914 2.466
4.91921 0.443609 3.37353
3.11421 1.62344 3.24306
0.297944 -2.02317 1.86064
1.00272 0.641584 4.14153
1.23993 4.46383 2.45962
2.77048 0.122688 3.79327
3.45759 3.22724 2.85585
1.64593 3.35225 2.75984
0.540364 0.351472 4.35451
2.24881 1.90397 3.20405
-0.413698 2.14819 2.83772
3.26078 -1.64541 4.34986
0.152267 0.0653562 4.3374
-0.826237 -0.428022 2.95753
0.886437 3.47323 2.67331
0.181649 -2.38113 2.99176
1.10442 2.11564 3.15809
-0.06489 3.27433 2.49788
2.17959 5.07631 2.40738
1.37215 -0.249667 4.49763
2.11126 3.5772 2.78133
-0.416668 2.16298 2.66864
-0.573018 0.924338 3.08339
-1.33837 0.139386 3.31024
4.67108 -0.263031 4.37463
0.590194 3.52971 2.58097
-0.942685 2.34409 2.89801
-1.13306 1.53624 2.94569
0.836872 -1.31294 4.31238
-0.00979063 3.09714 2.51074
-1.06363 1.30449 3.17063
2.6195 0.35987 3.88553
2.22909 1.73497 3.19653
2.09281 4.0561 2.66168
2.90072 0.445237 3.88723
1.09 3.10853 2.69178
4.20676 1.94066 3.10192
0.727891 1.87611 3.22256
1.9404 4.32087 2.5266
3.63806 1.68274 3.18942
-0.715148 0.100243 4.2985
-0.201958 3.1353 2.47044
1.84306 4.34351 2.48879
4.76311 1.3622 3.3507
0.908876 0.216505 4.51127
-1.16196 2.2226 2.96697
1.77451 2.07624 3.2273
-0.243956 1.5152 3.31754
0.716226 3.37573 2.63837
2.90961 1.77725 3.14135
-0.395362 1.34101 3.26124
0.684329 4.62324 2.37506
3.32636 -0.254722 4.27087
1.41619 3.35296 2.73274
-1.02059 1.4219 2.93969
1.05648 -0.413383 4.81192
0.704476 2.19296 2.97233
4.03079 0.185383 3.79118
-0.00172486 2.10494 2.85208
1.15045 -0.232308 4.6054
4.23746 -0.369411 3.82454
0.611374 -2.03447 2.03899
-0.0537593 3.35541 2.50452
0.894371 3.51382 2.6403
-0.727851 2.37496 2.78831
0.654349 -1.0927 4.30459
0.448154 0.369909 3.42492
-0.918691 3.48783 2.43836
2.7966 -1.56247 4.276
0.620428 2.17976 2.82802
-1.03231 3.5834 2.44154
0.399528 1.07597 3.55701
2.08696 2.31056 3.01144
0.538001 3.66709 2.53951
0.50908 1.27587 3.58722
1.69867 0.961003 3.81303
-1.36071 2.77189 2.64565
1.91995 1.06086 3.5953
1.54224 3.77521 2.63768
0.599582 2.37751 2.68464
-1.16123 -1.81091 3.40911
-0.259048 3.73152 2.43706
3.62314 0.615015 3.61149
-0.800568 1.22559 3.29953
1.49059 2.41954 2.93921
3.90147 0.307474 3.81803
0.140701 3.96247 2.56357
0.00272488 -0.644975 -0.562761
1.53445 2.63375 2.88479
-1.06394 0.449652 3.22127
0.798775 1.43662 3.55826
3.79359 0.768429 3.42161
-0.857935 -1.11843 2.89424
1.70649 0.794127 4.11962
2.64886 2.48665 2.95723
0.0125937 0.85872 3.64519
-0.813194 3.729 2.29184
2.47504 3.35286 2.82394
3.35756 2.04768 3.18482
1.39992 0.577434 4.04742
-0.718947 2.09539 2.92769
4.24936 1.45484 3.4111
-0.414744 0.477696 3.27406
1.42178 1.89486 3.17427
-1.53617 2.7594 2.75563
3.99322 -0.42144 3.94408
1.76714 3.30459 2.79116
4.78677 0.491342 4.15668
2.77417 0.435723 3.84063
0.144386 3.39535 2.55973
4.29155 -0.633768 4.10969
0.242262 -2.23793 1.90252
0.636956 2.09193 2.93337
0.0748049 3.26544 2.50849
3.98064 -0.0569232 3.87961
2.51897 1.95791 3.21925
-1.13646 0.234061 4.31727
-0.629999 -0.952723 2.91158
0.790722 3.50722 2.6333
-0.745171 0.233532 4.09918
2.10827 -2.37676 3.60167
2.11279 2.03761 3.0206
4.85414 -1.05535 3.86659
1.71877 -2.30501 3.60611
-0.158817 3.41204 2.43211
2.64887 2.16753 3.04226
2.5067 -0.158408 4.40197
-0.324834 0.0758395 4.31437
0.0837671 2.23562 2.84323
-0.707902 3.55709 2.44315
-0.0180244 4.55077 2.25847
1.87024 -1.63808 4.26647
0.0170068 3.65397 2.51216
1.43099 2.39021 2.91234
-1.3836 3.21461 2.37788
1.14894 1.07377 3.73147
4.59489 0.516327 3.52066
2.59748 2.24918 3.02035
1.16835 3.7451 2.60393
-1.12616 -1.36204 4.22576
1.72856 2.52572 2.91815
-0.381247 -0.154786 0.670291
-0.863972 0.888381 3.24627
3.78979 0.784347 3.422
0.786657 3.86074 2.6003
0.365183 0.375592 3.40736
0.215262 0.231481 3.49644
-0.511502 0.469771 3.36969
1.76095 2.45952 2.96025
-0.753671 3.65407 2.29667
3.92892 0.717103 3.55377
-0.832198 -0.960147 3.24573
0.592417 3.9803 2.55692
1.28177 2.57408 2.79188
3.95796 0.89877 3.51911
3.36744 1.10901 3.43548
1.0679 3.9683 2.5203
-0.0832536 -0.378932 3.24005
-0.701847 0.783536 3.76886
1.03764 2.71551 2.74417
1.70239 4.01909 2.55295
4.23886 1.00469 3.44625
0.343394 0.074835 3.37624
-0.156845 2.60472 2.58291
3.68927 -1.51975 4.06707
0.507019 2.34397 2.81488
0.0869686 -0.786141 -0.710742
0.517152 3.60708 2.56721
-0.498338 2.36286 2.80735
-1.27671 2.37112 2.83163
0.839102 -0.0316894 3.53487
1.18924 3.67909 2.60798
-0.302826 2.45062 2.66546
-1.18699 0.202086 3.27628
-0.366079 3.65671 2.43278
0.810207 1.12432 3.96069
0.664755 0.659118 3.5087
1.03527 2.39014 2.84435
-0.897214 1.2777 3.29654
1.69616 1.10701 3.83872
0.689933 3.81509 2.5632
0.0632994 1.04158 3.40604
1.8006 1.16828 3.58167
0.553062 2.45841 2.66122
1.53464 3.86213 2.57949
-0.560311 0.185024 3.32366
3.11926 0.677532 3.95785
-0.553768 1.44983 3.3568
0.829212 4.0595 2.62075
2.14569 2.6667 2.90072
-0.122843 0.683918 3.4509
1.49257 0.913779 4.0833
0.285284 4.06922 2.54366
0.0175904 1.47394 3.4167
-0.750176 2.57215 2.56793
0.372792 -0.00965768 3.43187
0.38266 0.189944 3.52461
-0.770541 2.8308 2.58903
4.69866 -0.511088 4.09004
1.148 1.57514 3.39977
-0.373687 3.82635 2.29149
-0.290384 -2.3437 3.17097
2.31509 2.75135 2.92063
1.79581 4.05441 2.50368
1.77021 -0.302309 4.50502
-1.07242 1.45093 3.44258
-0.367447 -1.23549 3.1476
0.3307 2.88909 2.59466
-0.500589 1.87274 3.22151
1.78874 4.0811 2.4678
0.527996 2.80416 2.60786
2.21858 -2.44856 3.61552
0.7022 1.62775 3.24531
2.72111 -0.674156 4.46547
-0.31931 1.9052 3.17257
-1.14156 -0.760677 4.00704
1.63184 4.15707 2.45608
0.712152 3.00859 2.65322
3.9743 -0.890242 4.72013
0.628498 -0.820539 4.744
-0.863875 1.47771 3.1577
1.50814 4.55679 2.48332
0.340377 1.92796 3.10241
-1.6862 1.46166 2.87289
-1.10598 -1.43365 4.33299
-0.0960125 3.10704 2.51517
2.85538 1.57686 3.26282
3.38341 -1.12072 4.19458
1.13119 4.51622 2.46168
1.8208 3.1458 2.7964
4.3792 -2.08174 3.71956
-0.35186 1.21171 3.62588
0.88806 3.79922 2.62346
1.06647 2.45145 2.84348
-1.30818 0.874714 3.27542
2.19469 3.86214 2.68439
1.3178 1.0942 3.87244
-0.478929 -0.0331897 3.37243
-0.761718 -1.05798 4.31561
1.54031 2.41972 2.96253
1.37768 -1.391 0.0956932
-0.335005 2.58838 2.61594
-0.792747 0.756344 3.25187
2.70429 1.05614 3.49608
0.684296 3.92834 2.58496
3.95726 -1.53654 4.34665
1.125 2.57284 2.88272
-0.112676 -0.00358763 3.28406
-0.956413 -1.32061 2.88017
-0.254481 1.31027 3.56721
0.4987 3.98575 2.56005
-0.805872 2.75876 2.5923
0.217853 -0.63115 3.29132
0.780805 1.54632 3.45491
0.0994633 4.05952 2.53307
0.197026 2.55925 2.58648
0.208671 -0.130802 3.2794
0.4248 4.0392 2.49049
3.41042 0.952161 3.34463
0.747684 1.57998 3.3274
2.09539 2.80353 2.87053
0.68044 4.06519 2.47651
-1.01553 -2.17462 3.12265
0.140812 1.846 3.31537
1.17045 4.13555 2.4786
-0.596059 0.0569576 4.17395
-1.09812 3.12493 2.44172
1.32341 2.96938 2.78277
-2.38571 2.69493 6.39351
0.173958 4.12436 2.36071
0.486491 2.77943 2.59407
-0.270181 0.933436 3.49935
1.89296 3.15373 2.82502
1.55706 -0.287938 4.6601
0.892674 -0.849414 4.75542
0.0225504 1.91779 3.16951
2.44087 5.40382 2.69579
4.19335 1.61059 3.30346
3.98097 -0.320072 4.17163
0.99584 1.80855 3.31259
2.03679 4.67586 2.60319
-0.389131 2.97586 2.53833
0.480119 -2.13305 1.94356
2.39996 3.27407 2.81666
2.04767 -0.708467 4.99775
1.99753 4.12134 2.56608
2.49707 1.81259 3.27269
2.92354 -1.95089 3.74234
-1.03883 -0.417775 4.21638
-0.613985 3.13829 2.51524
4.4705 1.67023 3.31385
-0.467311 1.95777 3.01394
0.718281 4.50909 2.4684
1.23064 3.32505 2.71439
4.57084 -1.05874 4.80964
3.9925 -0.734662 3.90177
0.0395444 -0.818103 4.72031
0.33481 2.07265 3.07093
3.21335 1.30274 3.34985
1.08484 4.05201 2.47283
-1.28354 -0.303557 4.08882
-0.0941825 -2.37623 3.23557
-0.137017 2.78631 2.53642
-1.42606 0.963835 3.21278
3.27584 1.21051 3.37018
-0.687262 3.90509 2.18493
-1.21211 -0.037957 4.12774
0.711178 2.73923 2.64644
-0.315148 0.982499 3.50449
1.81615 3.06026 2.81996
2.79275 -0.531285 4.23958
0.997371 4.16169 2.42396
2.82902 1.50125 3.2787
-0.141383 2.90668 2.55923
4.31606 1.52576 3.33787
0.769196 -0.854063 4.7187
3.52266 1.40107 3.45878
3.98785 2.27174 2.9902
1.6438 -0.767596 4.50048
2.67022 4.46359 2.53727
2.82567 -0.686432 4.40888
1.25213 3.143 2.75099
1.22227 1.85295 3.32098
-0.863116 2.09788 3.02565
1.86026 4.47215 2.50322
0.679816 3.23989 2.6433
3.31975 -1.23355 4.74638
-1.53412 0.409505 3.01437
2.87606 1.62395 3.20101
4.63072 0.661628 3.76546
1.17327 -0.997957 4.84551
-0.580045 3.17086 2.53644
2.91812 -1.94933 3.74362
-0.191693 2.0621 2.86653
-1.32926 1.30843 3.39037
0.838591 3.3463 2.63787
-0.653775 1.25315 3.13812
1.04227 -1.66998 4.65776
0.61636 2.0116 3.03784
2.82894 0.726529 3.71851
-0.321294 1.53264 3.29692
-0.0259873 3.23016 2.52547
-1.04305 1.86557 3.05908
4.12147 -0.446678 4.0012
2.50706 0.576805 3.79949
-0.734391 2.1886 2.7678
1.65153 -1.89697 1.62081
-0.389522 3.35227 2.48963
3.54835 0.508962 3.8297
-1.32142 3.59677 2.27469
2.04628 2.01942 3.12789
-0.487634 3.44711 2.49788
-1.29139 2.90733 2.48544
1.71805 0.31926 4.14287
2.13659 2.16938 2.98624
-1.74913 2.94349 2.72111
-0.542403 3.45547 2.44218
-0.398355 0.458907 4.13447
0.382137 4.38117 2.25718
-0.870585 1.3432 3.07548
1.05533 3.6409 2.62828
1.14416 2.19038 2.94603
0.338793 0.0448816 4.43541
-0.606751 2.38496 2.72933
0.905615 3.68284 2.60015
-0.25756 -0.255794 3.0281
-1.30984 3.04898 2.53487
3.54976 0.0295216 3.97582
-0.828965 4.05957 2.20425
-0.581966 1.93554 3.20249
1.99847 0.124279 4.16218
-1.68002 1.43871 2.97752
1.49023 3.05919 2.79005
-0.384749 -0.825883 4.49106
1.17403 0.391331 4.33815
-0.9227 1.87375 3.26499
0.525183 2.87752 2.61583
-1.5896 2.05416 2.85271
3.99157 -0.352978 4.09799
3.80464 1.58306 3.24214
2.49806 4.84849 2.72572
-0.706851 3.07311 2.45156
3.96473 2.16108 3.02587
0.22447 0.0326108 4.42799
-0.521985 1.94092 3.10108
1.10577 4.34277 2.44874
-0.0657584 3.03064 2.53834
-1.49483 0.233474 3.00285
0.957828 3.33027 2.69135
4.37774 0.572292 3.40433
-0.0886437 2.03323 2.95722
1.90304 4.25499 2.49967
2.27063 -0.53171 4.38371
1.17398 3.2171 2.67282
-0.339051 2.07603 3.07213
4.0044 -0.801486 3.92701
-1.0706 1.72844 2.97148
-1.03331 -0.275145 4.19247
0.533127 3.41892 2.60143
2.39197 1.97719 3.12536
-1.21128 -0.6801 4.24701
3.89907 -1.17457 4.06276
0.97184 4.74115 2.37957
-0.0990807 -2.16975 1.75327
2.3143 3.3881 2.78618
2.10449 -0.719095 4.86617
3.32184 1.82934 3.20509
0.0335942 1.11728 3.3567
2.74706 1.97967 3.05315
0.503379 1.14793 3.58167
1.23751 3.52653 2.68988
-1.29769 4.03734 2.15696
1.51962 3.65043 2.74234
0.344004 0.856029 4.18557
-0.101255 1.21453 3.39248
3.92921 -0.0303783 3.84511
0.724343 2.27627 2.87911
3.98427 2.09143 3.17486
1.13852 3.67603 2.66942
-0.680615 0.00541186 3.02527
0.126981 4.26282 2.2311
-1.48477 1.8056 3.22432
-0.851005 2.45246 2.68209
3.59609 0.383882 3.86851
1.34768 3.70978 2.6529
2.90832 0.762263 3.63147
-0.21835 2.43636 2.84088
-1.36219 0.209353 3.25915
-0.0890995 -0.215072 0.78974
1.22593 0.69093 4.03403
-0.248706 3.67289 2.45993
1.41407 2.58036 2.9361
3.71623 2.15829 3.20102
1.91437 1.13985 3.60981
0.222439 3.77033 2.50798
0.021881 -0.0792904 3.36073
-0.92264 2.61875 2.78562
-0.673042 0.62392 3.36818
4.4572 0.835596 3.60155
1.30533 0.480501 4.15914
0.0431744 3.87137 2.50706
-0.237176 -0.731756 2.93643
4.94423 -0.733913 4.06423
-0.93487 2.18899 2.84486
-0.859522 -1.6483 2.8541
1.41563 3.47549 2.719
0.472812 2.03081 2.95242
-0.296668 0.536489 3.31014
-0.187378 3.26828 2.48817
4.24163 -0.635575 4.0133
1.62546 0.756932 4.08947
0.694105 3.48904 2.61918
-0.424165 0.626735 3.15597
-0.230296 2.22624 2.79188
4.20411 2.19972 3.2832
0.952298 2.18502 3.01771
-0.0413325 0.855617 4.02666
-1.16469 2.74386 2.68158
-0.87093 -1.13863 2.24357
-1.08993 3.47915 2.43166
0.144731 2.32048 2.7449
0.660593 -1.02392 4.19431
4.23043 0.167627 3.83319
-0.539933 3.55409 2.46314
2.18231 0.605683 3.84846
3.64251 2.5413 3.01268
0.550707 2.25575 2.82245
0.288965 3.62617 2.51877
0.43262 0.582905 3.4615
-1.4609 0.857214 3.26617
0.301923 0.197685 4.38216
1.41216 3.77986 2.64274
0.65281 -0.0636999 3.48808
2.11894 2.3243 2.94889
0.711173 0.957382 3.83188
-1.00156 -0.244046 2.85911
-1.81035 0.218531 4.89709
1.72704 -0.926913 4.66112
2.98417 0.959982 3.60325
1.74833 3.80807 2.62569
2.1047 2.49775 2.94062
-0.807088 -0.210709 3.27493
2.85814 0.864869 3.58965
0.343546 3.8646 2.51536
0.183076 2.44099 2.72776
-0.677086 1.09045 3.35504
1.00306 1.3981 3.3887
0.258762 3.88807 2.47736
2.89226 -1.59021 4.33348
3.48878 2.52692 2.93167
-0.204596 0.432395 3.43767
2.37063 1.20017 3.63726
-1.30015 2.01267 2.95473
1.94465 -1.19587 4.43359
-0.0793296 -0.191641 0.843752
2.35859 2.54754 2.90741
-0.512787 3.8674 2.36011
-0.158712 2.78787 2.60993
0.293157 -0.167406 3.2964
-0.478251 1.66963 3.28521
0.222613 3.99955 2.45528
0.62373 2.65574 2.63386
0.0616674 -2.30535 3.23858
0.60705 4.13751 2.51566
-0.151105 1.62616 3.35106
2.0431 -1.48156 3.64923
1.86517 4.13686 2.51288
2.90538 2.85757 2.92745
3.55703 1.27842 3.40817
4.35133 0.0663808 3.73466
1.13335 0.786075 3.58176
0.0594163 3.50845 2.5326
-0.443678 -2.56444 2.78426
1.46512 2.24162 3.08035
-0.284766 3.52761 2.46997
4.11158 0.371941 3.5648
2.75194 2.21122 3.01672
0.633386 3.61435 2.53582
0.392152 1.25404 3.57388
1.83888 2.2255 3.00706
3.26711 -1.4793 4.10682
0.780234 3.75005 2.58169
0.492282 1.21974 3.77906
-1.23386 0.571246 3.27951
0.66718 0.785702 4.1244
0.325075 2.43707 2.73969
-0.542884 0.872353 3.76271
-0.845242 1.09046 3.28935
4.73626 0.667092 4.235
0.448931 2.39029 2.79573
-0.678493 3.61465 2.34298
1.71556 2.64388 2.94087
0.525936 0.554246 4.10739
-1.02203 1.51456 3.2634
2.07522 1.23841 3.62637
-0.579722 3.69053 2.35931
1.32451 -1.40928 0.00948721
0.87893 0.439423 3.48928
-0.265844 -0.020998 3.29782
-0.815494 2.61428 2.69633
-0.957453 3.76153 2.32546
4.06067 0.795411 3.60546
3.50076 -0.794701 4.69842
-0.468404 3.85403 2.36593
-0.482668 -0.904874 3.23171
2.70229 2.57977 2.91054
-0.539715 -0.52291 4.54116
4.43753 1.07167 3.71383
0.907469 1.56674 3.35921
-0.659713 3.83668 2.29787
0.120674 0.224254 3.48017
2.42386 -0.944405 4.7142
0.361289 2.71249 2.60707
0.731818 4.09851 2.49339
-0.059104 1.61735 3.38734
0.909852 -0.890878 4.99369
-0.0363058 -2.44362 3.25123
0.50606 2.64122 2.62226
1.02805 1.72149 3.37279
0.425385 4.13379 2.44333
-1.11122 -0.442696 3.17478
1.01809 2.91962 2.70521
2.09537 1.46465 3.36481
0.447908 4.20893 2.44835
-0.211298 -1.29231 4.64026
-0.50698 2.82009 2.54033
4.46514 -1.94662 3.71057
-0.899047 3.12398 2.56027
-0.819151 1.61197 3.16724
0.226574 -0.790083 4.54418
1.66055 1.722 3.22646
0.248256 2.91958 2.5506
-1.09212 0.958756 3.19499
-0.408107 1.87536 3.14596
0.630966 -0.406509 4.70214
-0.654077 -0.646658 4.00338
2.53667 1.07241 3.48707
-0.00166067 2.50982 2.58972
-1.24115 -0.748132 4.88449
0.470073 4.11562 2.63224
-0.393198 -0.312297 3.23941
1.2972 1.46707 3.46255
0.0646606 4.00881 2.49961
4.09457 -1.2346 4.42825
2.19014 2.6939 2.86095
0.703965 -1.82651 3.33731
-0.515842 3.94615 2.3759
0.599159 1.54954 3.59011
-0.783132 -0.835352 4.00047
1.85326 2.63478 2.86592
0.192413 0.0986716 3.35665
0.767287 2.81324 2.66131
1.23744 4.04898 2.48659
5.0746 1.56692 4.13672
-0.760183 1.64279 3.3172
-0.902431 -2.1286 3.1271
-1.37809 2.94454 2.49123
0.55713 2.70766 2.61412
0.770122 4.17501 2.48931
-0.35638 -0.436199 3.26533
-0.236185 2.84849 2.42978
2.55249 1.50497 3.25722
1.23091 4.21541 2.48617
-0.506966 3.00211 2.6299
-0.797419 1.18401 3.19618
2.40129 1.46426 3.3174
0.439052 -1.08204 4.66655
3.88739 0.0333889 3.85268
-0.682525 1.97837 3.11868
-0.284158 3.03392 2.52388
1.24767 -1.56265 4.77499
2.01224 0.488568 3.96297
-0.975772 1.53521 3.14442
1.80239 4.55275 2.50264
2.29971 1.76632 3.19531
0.615521 -2.36265 3.05972
1.86371 0.0184249 4.3014
-0.782606 0.179 4.06141
2.73496 1.62706 3.19601
0.436021 3.10677 2.51595
0.857273 4.53185 2.46032
2.02515 3.22535 2.8219
4.63993 1.18138 3.37131
-0.501048 3.21821 2.4422
-1.51685 -0.42121 4.28467
3.17291 -2.50278 3.57966
2.57577 -0.380436 4.5354
2.01936 1.94398 3.12942
2.98971 1.72357 3.0809
4.6418 0.27998 3.76603
4.6514 -0.379605 4.50544
-0.440113 3.17496 2.46129
-0.33278 0.443002 3.29029
0.127114 -0.638806 5.05008
1.85016 3.53615 2.74297
1.3238 4.72937 2.38173
-1.63642 2.88331 2.71963
1.24632 2.15762 3.04593
0.986562 3.40928 2.63502
-1.33216 0.0800003 3.31243
0.235841 -1.9086 1.72135
1.78975 2.13643 3.23478
-0.801753 2.81321 2.60104
0.109535 0.259531 3.38034
-1.1225 -0.448984 4.38619
-0.278192 1.73167 3.35888
0.738873 4.04905 2.52624
-0.759825 -0.297382 4.64653
-0.411374 2.71243 2.60236
-0.453405 -2.21087 3.18357
0.414957 1.6235 3.50941
-0.0180634 4.08698 2.44839
3.69004 1.24755 3.40996
1.84621 2.90583 2.87248
-0.538581 -0.718274 4.31094
-0.024114 4.05355 2.37203
-0.463712 0.182729 3.36478
3.17406 -0.7446 4.41889
3.34041 -0.98542 4.33001
0.14266 4.08449 2.34791
1.73827 1.65077 3.27907
-0.586834 -0.0944967 3.27618
0.863323 2.96586 2.67044
4.21129 1.39163 3.55635
0.360265 -0.54536 4.59395
1.60152 2.97264 2.81599
3.84475 2.27774 3.00127
0.65497 3.11832 2.61293
0.631017 -1.49251 4.72158
2.18194 1.74019 3.2461
-0.623878 1.15353 3.24156
2.84212 -1.15642 4.12503
-1.20718 -1.10882 3.00057
0.903982 1.88373 3.2982
4.19248 -1.31813 4.37646
1.74437 3.12799 2.79795
3.80962 2.04317 3.11592
1.74091 3.34389 2.78344
3.98409 1.69434 3.32309
1.26448 2.05072 3.25346
1.85233 0.593681 3.90349
-1.01895 3.21013 2.5059
3.51659 1.77348 3.41532
3.81484 0.357317 3.73723
-1.61027 -0.31248 4.29843
-1.11092 0.602352 2.71297
0.29183 -1.99978 1.79708
-1.0839 0.205697 4.07711
-0.940402 4.33225 2.17037
0.35031 3.22684 2.5147
4.34869 0.152797 3.92783
1.93727 2.02774 3.22909
1.7253 2.1417 3.11466
1.40165 0.156467 4.25042
1.44356 3.52507 2.70267
4.15501 -0.238258 3.93394
-0.974235 -0.877137 2.92042
0.160199 2.12994 2.94684
-0.947788 -0.622058 2.94545
1.55828 3.49154 2.75257
-1.24444 3.6235 2.39125
1.91129 3.593 2.72745
0.709076 -0.122286 4.67927
-0.617112 0.0613643 3.02349
1.2956 2.27281 2.9924
-1.47323 1.20396 3.28987
2.70147 -0.0243271 3.98289
2.31492 2.07389 3.01747
-1.38958 3.86923 2.30816
-0.143906 1.18619 3.34313
-0.317945 3.53583 2.47525
-0.281762 0.438752 4.2782
0.865435 3.23856 2.67131
1.11904 -2.23357 3.15397
0.239993 -2.18902 1.79683
0.0714708 1.98701 3.04504
3.4898 0.276714 3.72503
4.31953 2.03868 3.3186
0.742907 3.15356 2.6417
-0.343024 1.96097 3.0361
1.60696 4.37109 2.47372
2.69063 1.7839 3.16446
2.48098 0.142027 4.13958
1.29362 3.2819 2.6887
4.79884 0.387643 3.37086
-1.56177 -0.585422 4.18002
1.87974 0.260333 4.06125
2.48632 2.00271 3.18517
3.20344 -1.62497 4.30722
-0.204034 3.32585 2.48791
0.580749 1.11646 3.56837
0.162135 2.11615 3.01752
-1.24113 -0.110855 4.28722
3.48408 -1.49609 4.14246
-0.0895236 0.717688 3.31498
1.0908 3.37037 2.68555
-0.105031 0.686891 3.44654
1.95804 -0.33892 4.60559
0.506897 -2.09675 4.43745
1.35967 2.23635 3.05717
-1.20855 1.50808 2.87327
0.348695 3.43811 2.55968
1.77547 -0.195595 4.29567
0.850897 -1.39054 4.46237
-1.11138 2.48247 3.08263
0.758847 3.56761 2.63114
3.99469 0.266209 3.67384
1.87311 2.31568 3.01787
-1.03505 0.261474 2.8693
1.49589 3.73632 2.74682
1.99141 2.18716 2.99286
-0.635367 4.27534 2.20142
-0.826831 3.60649 2.43717
1.04405 0.942563 3.96805
0.228965 0.00185516 3.47159
-0.218904 2.49528 2.83147
0.232668 3.70581 2.5173
-0.738874 -0.786205 2.92605
3.32469 2.17157 3.12634
2.30926 1.12845 3.73851
1.15033 3.80346 2.59596
2.61096 2.49506 2.9982
-0.622922 0.754015 3.44894
1.79929 3.91832 2.66057
4.17356 0.707132 3.67121
-0.827436 0.64275 3.2617
0.116592 2.47259 2.75383
0.969103 3.90328 2.53744
3.9137 0.382961 3.8345
-0.500198 2.67838 2.64467
-0.0601208 0.925503 3.60328
3.56533 0.980011 3.44657
0.930093 1.45181 3.65956
3.11686 0.665708 3.77705
0.614811 -1.57252 3.33401
2.84773 2.57727 3.01026
-0.302678 -0.192667 0.729279
2.55832 4.15219 2.74116
0.121633 2.56141 2.58699
-0.294373 -0.00550948 3.29404
1.97882 -0.827157 4.78959
0.78453 1.51069 3.57476
-0.0558732 3.87862 2.45932
-1.4114 2.37519 2.68597
0.0796466 2.48687 2.58348
-1.47924 -0.617307 4.63184
4.20384 0.888283 3.49215
-0.106425 3.88299 2.41272
0.939317 2.74001 2.70036
0.264319 0.0374432 3.3864
2.66869 1.34111 3.47873
1.10607 4.04155 2.53903
-0.124055 2.64929 2.56599
-1.4463 4.12269 2.3209
2.41918 1.24212 3.45056
3.31031 -0.987642 4.05139
1.18382 4.02794 2.48009
0.158481 1.76768 3.37999
0.346187 2.76631 2.57662
3.82622 -1.32897 4.56997
1.10578 4.11234 2.46381
-1.42414 1.06702 3.22575
0.970342 4.14497 2.43205
2.49894 1.62349 3.43148
4.32128 -1.97486 3.73081
-0.519792 3.01959 2.58595
3.81571 1.38184 3.54123
1.57237 4.15345 2.41229
1.96424 2.94077 2.83528
-1.27125 1.49694 2.97446
-0.479713 3.0475 2.45689
2.72952 4.9432 2.58858
-0.445507 0.207174 4.13529
1.99258 1.82808 3.35297
-1.66951 1.41673 2.89266
-1.42928 0.419003 3.03986
-1.31406 -0.619541 2.98072
2.80957 1.58289 3.29543
0.739613 4.36499 2.48176
4.17355 0.160004 3.94606
1.03381 3.02856 2.64442
0.853282 3.25877 2.63711
3.88868 2.02622 3.10607
-0.361791 2.06645 2.97796
1.81258 4.32512 2.48656
-0.783381 3.08289 2.41853
-1.8694 0.026027 5.43603
-0.946233 2.11992 3.06993
0.41209 -1.85113 4.6688
-0.466879 0.164556 3.02818
0.932188 -0.149086 4.6198
3.18238 1.78112 3.1369
1.73 3.38588 2.76512
1.16547 -1.7391 4.73807
2.84323 -0.0600504 3.95623
-0.604456 0.428948 2.89661
-1.35832 1.48467 2.94015
-0.0139929 2.16027 2.85529
3.24282 -0.560023 3.97153
2.16378 3.54468 2.78056
-0.944764 -0.35079 4.43798
3.38789 1.88203 3.20044
-1.23686 4.13993 2.13732
-0.118615 3.38611 2.5518
4.04712 -0.262352 3.90121
-1.57084 2.26391 2.84295
0.0802345 2.95571 2.50181
-0.26264 -0.68954 4.4528
0.22461 0.148948 4.39909
0.530926 1.83778 3.13714
0.0984403 2.87611 2.51433
-0.636504 1.50572 3.17871
2.95361 1.44392 3.2385
1.77858 0.270566 4.11531
0.961391 -1.51806 4.78893
4.32271 0.6292 3.45525
0.563411 -0.170192 4.75328
1.35583 4.44577 2.47186
0.098904 3.02771 2.48052
1.40779 0.0155483 4.32401
0.991441 1.96551 3.28568
0.946704 2.00452 3.11859
2.26278 4.16168 2.71538
3.56339 -0.462991 4.03954
1.69702 3.3346 2.76798
4.25201 1.06811 3.43468
-1.33327 1.39113 2.91564
2.46684 1.81399 3.29277
3.6092 3.04208 2.92212
-1.39782 1.61349 2.88905
2.02763 3.29829 2.83105
2.10537 1.99003 3.11978
2.90049 -0.736632 4.50076
4.57271 0.272976 3.71854
4.16025 -0.266077 3.71699
1.34986 3.4527 2.70841
4.36322 -0.678939 4.55511
-1.91011 3.46029 5.44392
4.13448 -0.235224 3.95726
0.492004 3.27845 2.56381
-1.25116 3.58705 2.41966
0.754909 2.18764 2.90115
0.942752 3.4741 2.62881
4.21921 0.309252 3.73722
0.52953 0.773108 3.55342
1.4191 2.14756 3.06379
0.663222 3.56337 2.62548
4.19427 0.167875 3.58893
-0.059638 2.29041 2.71968
-0.649107 3.55136 2.46785
2.18297 -2.52557 3.58596
-0.745806 2.32196 2.76169
-0.0762219 3.55171 2.44152
-0.208777 0.988468 3.29498
2.85642 0.696158 3.58254
3.79861 0.514052 3.98616
2.50166 2.29288 2.98809
-0.577716 4.32772 2.25853
