ply
format ascii 1.0
element vertex 1916
property float x
property float y
property float z
end_header
1.53267 3.06562 2.76356
0.378806 -0.702302 4.60973
2.22247 1.55817 3.42213
-0.821906 2.85624 2.47497
3.50587 -2.25015 3.9243
2.32238 -0.363915 4.39416
1.08062 3.19028 2.66744
0.0209899 1.8642 3.04535
1.63187 -1.54817 4.67327
-0.339288 -2.2756 1.56829
-0.570395 1.19269 3.26013
-1.10518 -0.697864 4.29822
-1.3581 -0.448673 2.98406
3.39017 1.54158 3.30788
-1.30956 0.797455 3.74778
3.79507 -0.715912 4.30107
1.81048 3.16308 2.7928
-1.57233 -0.950426 4.54831
4.63266 0.836294 3.39439
3.37753 3.37439 2.83622
1.76632 4.33685 2.44599
2.84311 1.80833 3.18298
-0.608556 3.16402 2.4374
1.89531 1.94031 3.33797
5.12597 -0.762016 4.2326
3.54919 0.547155 3.68431
4.71416 0.130597 3.93418
1.20181 3.36916 2.65569
0.662254 2.06543 3.05744
-0.54329 2.2144 2.87231
0.606539 3.37253 2.4869
2.8146 5.29068 2.56735
-0.802155 0.480205 3.91875
0.948139 2.18795 3.15854
0.0932381 3.31845 2.47191
-0.538459 0.662611 3.92075
-1.37258 2.79774 2.6663
1.16046 3.58429 2.6321
4.25481 -0.367155 3.82855
3.09049 0.243953 3.93848
-0.413603 2.25458 2.74465
1.55156 3.61231 2.61453
1.39099 2.24201 3.06065
0.973472 0.529312 4.26983
-1.29556 3.84112 2.34013
-0.993767 3.0069 2.47572
-1.08304 0.053524 4.07743
0.339597 2.38658 2.78002
-0.201683 3.6003 2.43721
3.76882 0.65438 3.72197
-1.02162 2.41638 2.77319
-1.42677 0.595682 3.28227
0.473205 3.76737 2.54342
1.04151 0.716405 4.06396
-0.151402 1.99609 2.95603
0.110223 3.18591 2.47437
4.29976 -0.271679 3.9524
0.0461811 0.849446 4.06444
-1.23564 0.932727 3.47936
-0.244174 -1.82666 1.61115
1.38892 2.07095 3.07108
0.284021 0.461288 4.21601
-0.465451 3.3467 2.45813
2.57679 1.95236 3.21093
2.09917 0.59788 4.01286
1.01732 3.35232 2.62141
4.24579 -0.356574 3.92346
-0.615607 0.189531 4.23826
2.13991 2.08419 2.98561
4.09152 -0.719316 3.91953
1.46607 2.16118 3.07877
4.46735 -1.15544 3.83718
0.479506 3.50364 2.58076
-1.65909 0.205988 4.5989
0.308892 2.30959 2.77668
0.304224 3.51695 2.52
4.75438 0.680798 3.52206
1.44756 3.70186 2.67162
3.70485 -0.184577 3.98356
-0.197581 2.34632 2.85397
4.17097 -0.210059 4.05086
1.17431 3.72564 2.60876
2.42897 2.3501 2.99026
-0.27615 -1.20025 4.54172
1.52313 3.78473 2.61316
1.50629 1.04234 3.84882
-1.32459 -0.119928 3.2616
1.15868 1.26881 3.70793
-0.470468 3.67485 2.37159
0.915991 2.48139 2.74193
4.65417 1.16048 3.57479
-0.0291913 3.83757 2.44745
3.92519 0.69171 3.5517
3.97021 2.09162 3.26996
1.27813 2.46238 2.88044
-0.845829 3.70858 2.26703
-0.875977 2.65246 2.58009
-0.257813 -0.154475 3.32273
-0.370546 1.47771 3.48993
0.581647 -1.80922 3.3162
3.12316 1.09425 3.79382
-0.53735 2.61206 2.63973
-0.250871 3.84084 2.33234
-0.00846347 2.66586 2.50769
0.279581 0.708505 3.64433
2.05766 1.39421 3.42374
-0.485715 3.8174 2.26714
2.09158 2.74086 2.85525
-0.384218 -2.34935 3.17016
1.14161 1.42372 3.42419
0.920995 4.1359 2.48494
1.01799 4.71007 2.37399
-0.296066 3.36313 2.42892
2.33307 2.02769 3.04564
-0.839032 3.37113 2.46215
-1.35875 0.0409227 3.30674
1.02635 2.15601 3.1383
0.558475 2.15432 2.8397
3.69096 0.409786 3.6924
-0.343628 3.43555 2.43225
4.31416 0.10207 3.73764
1.63085 0.936564 4.02727
0.816065 3.58966 2.55065
0.462831 2.30586 2.81656
-1.40276 3.95384 2.31583
2.12139 3.73979 2.67915
-0.540105 4.3908 2.19651
3.0439 0.465086 3.91913
2.30797 2.17362 2.9943
0.35857 0.343293 4.36138
-0.956908 3.77287 2.4746
-0.670791 2.4793 2.68104
-1.34589 0.294623 3.26386
4.0706 0.688288 3.60095
-0.0452732 1.07924 3.93173
-0.380149 0.349812 4.19671
-0.837103 -0.426293 3.25043
-0.603932 2.36166 2.65858
2.05334 3.84525 2.63564
2.29505 2.58481 2.9005
-0.901156 0.756628 3.20721
0.477685 1.47445 3.74753
1.5982 -0.978354 4.61012
1.23814 3.84978 2.52739
-0.502099 -0.295208 3.28679
1.26439 2.55756 2.86899
3.29248 -0.887124 4.58769
0.704809 3.9736 2.53783
1.27462 1.20783 3.67048
-0.800345 -1.24328 3.19031
0.580117 4.33332 2.56423
1.55359 2.71728 2.88866
1.41423 1.35241 3.55344
3.25198 -1.25404 4.21607
3.95837 1.12767 3.38736
-0.27688 3.86996 2.31365
0.552447 0.913004 3.68882
1.6886 2.85056 2.86388
-0.174308 3.99286 2.34865
-0.0105904 1.57459 3.4658
-0.386337 -2.22196 3.18241
0.458272 2.63673 2.61333
3.93081 1.48256 3.66703
1.40434 2.97506 2.76795
-0.124754 3.94946 2.26612
-0.549019 0.167319 3.28011
4.02841 -0.905173 3.82263
1.50146 1.59615 3.48132
-0.321848 4.19386 2.26081
1.15935 2.87443 2.72793
-0.867179 2.6177 2.71968
-0.733576 0.438204 3.28545
-1.29402 -1.06169 4.20621
0.241283 1.29549 3.89628
-0.72524 3.62636 2.32557
0.260104 2.42368 2.71725
3.96176 -1.0952 4.7978
-0.196113 1.16987 3.60753
2.10485 3.95547 2.64841
1.77603 1.22887 3.58809
0.168414 2.51366 2.60767
-0.612224 1.18389 3.44366
1.05863 3.99726 2.56019
-0.154679 0.736559 3.56752
-0.740804 1.49372 3.30375
-1.01652 3.78092 2.25797
-0.314755 2.74821 2.64636
0.622356 -1.91275 3.33943
2.49663 4.17616 2.64376
4.19654 1.04004 3.69581
1.37731 2.66464 2.81318
0.242731 1.03621 3.67848
-0.576866 -2.21123 3.18384
3.03527 2.88601 2.90289
0.272727 4.11082 2.4475
1.78884 1.55624 3.47572
-1.28467 0.423917 3.18901
-0.334601 2.81216 2.62971
-0.423949 4.06469 2.32662
0.774218 1.51543 3.33195
-0.702425 0.748154 3.31459
0.467914 2.93892 2.56521
0.458578 4.2403 2.4238
4.14569 -0.218186 3.92744
1.71021 0.175856 4.33602
1.77446 1.6554 3.31063
2.32978 2.94398 2.80715
-1.64845 2.60076 2.80727
-0.263835 1.81441 3.32797
0.293345 -1.01719 4.59607
0.950459 1.8647 3.30388
2.01618 3.15304 2.8018
-0.661113 -0.305352 4.40139
2.41867 4.81592 2.67228
-0.772169 1.52402 3.19322
1.45369 -0.137775 4.26969
0.706457 4.45857 2.42773
-0.143207 1.9121 2.9685
-1.32994 0.0103794 3.0401
0.830176 3.26162 2.66207
2.6231 1.68119 3.24707
-0.163039 -2.04982 1.64869
4.13995 -1.24079 4.42548
-0.26111 3.07511 2.47459
-0.957393 -0.469247 4.36566
4.33346 1.50888 3.3271
-0.488197 -0.736838 4.37116
0.610003 3.34882 2.59335
-0.671557 0.32291 3.94506
-0.637145 2.11371 2.9278
-0.491702 -0.718514 4.59238
1.5783 1.87646 3.0841
1.69299 -1.57774 4.69719
0.43044 3.23231 2.55056
2.41273 3.41648 2.78674
3.2833 0.558038 3.99318
2.20206 1.97481 3.20093
-1.20479 1.41589 3.37378
1.07698 3.37348 2.71018
0.233205 2.06265 3.11785
4.66 0.157035 3.94199
0.476721 0.892993 4.02333
2.37855 5.04413 2.66335
0.892511 3.50479 2.61712
1.12529 2.11822 2.99502
-1.23547 3.65521 2.34943
1.28608 3.46291 2.67604
-0.0568806 0.533087 4.15332
2.96528 -2.55537 3.67215
0.0969238 2.13369 2.98004
-0.829865 2.16702 2.70968
0.0313902 0.288483 4.29754
0.633008 0.433957 4.25357
-0.436084 3.48501 2.46073
3.65625 3.19943 2.87663
3.87163 -0.224334 3.87714
1.2915 3.67373 2.64862
-0.0893396 2.2823 2.73417
4.23112 0.0831684 3.70087
1.5502 3.70474 2.62765
-0.538583 0.176547 4.21441
-0.589213 4.3724 2.25053
1.73105 2.23353 3.00804
2.02046 3.80508 2.65865
1.48589 2.48673 2.93587
-1.26093 0.724952 3.29217
2.54393 0.876674 3.58409
2.46723 0.814936 3.69025
4.44425 1.65915 3.2595
3.02404 -1.21603 4.11385
1.98438 2.38356 2.97692
-0.14472 3.73541 2.44099
-0.887259 2.57805 2.6016
4.38471 1.14348 3.57561
2.80527 1.05427 3.56324
0.205383 3.94455 2.54641
1.49102 -0.89838 3.9065
0.124522 2.46248 2.65876
1.75783 3.90828 2.53995
-0.357569 1.30191 3.66369
0.337677 1.53841 3.66634
-0.686215 2.58807 2.549
-0.113292 3.93069 2.41476
3.48546 3.31603 2.78572
1.64159 1.55761 3.62111
0.556432 4.05134 2.47977
-0.293859 2.82531 2.65761
0.26836 0.372428 3.54699
1.49378 1.43322 3.56446
0.570484 4.11813 2.46088
1.25369 2.71106 2.75479
0.51645 -0.00401289 3.42279
2.54974 2.30734 2.96539
-0.607923 4.24619 2.20233
3.33703 0.690757 3.66734
0.289713 3.59593 2.46744
-1.23496 0.0557211 3.26801
0.361637 2.29333 2.78268
0.0698393 3.68508 2.46554
3.08062 2.23132 2.99518
0.418516 3.8445 2.54666
3.08787 2.33897 2.95569
-0.153126 1.15614 3.6387
-1.02469 1.11235 3.37903
-0.490388 3.72523 2.3619
0.754187 2.54916 2.71653
2.8084 2.56966 2.87169
1.23562 1.25917 3.76748
0.372269 4.03954 2.56062
0.728591 2.47165 2.72304
-0.607101 -0.592388 3.25471
4.23634 1.11657 3.6793
-0.484036 0.757432 3.82127
1.51245 3.9563 2.50769
0.14367 2.61131 2.55337
-0.724054 -1.27483 3.20582
1.48747 4.03044 2.5069
1.29393 1.32376 3.46044
0.413307 2.54495 2.60609
0.0222173 -0.504985 3.23569
-1.39678 4.04676 2.31261
0.438064 2.79234 2.59376
1.69635 4.0713 2.48071
3.03815 -0.428968 4.39495
1.18583 1.63062 3.47263
-1.11928 1.03097 3.26548
-0.719948 2.82237 2.61776
0.350642 4.12743 2.40188
2.11616 -0.228583 4.76168
3.71606 1.15688 3.36752
-0.142158 2.95051 2.5411
0.303569 4.35206 2.35845
0.303112 4.13594 2.35157
3.43987 1.47697 3.38056
0.0273228 2.84296 2.5324
1.62856 1.61357 3.4127
3.7476 -0.632173 4.23763
3.69231 1.52109 3.33143
2.93977 -0.860065 4.40974
-0.147272 -1.23236 4.64971
-0.620213 2.9915 2.46022
-1.04188 0.432093 3.16967
-0.804943 -0.553865 4.00237
1.38637 -1.46168 4.70636
-1.11913 1.57987 3.12564
-0.754196 -1.27467 4.48755
1.18424 1.94873 3.23837
2.08252 4.29732 2.51837
-0.233332 3.24678 2.57361
-1.20213 2.44721 2.56994
-0.60566 -1.10536 5.02982
2.35857 1.71581 3.26025
1.30111 4.39527 2.42038
-0.0185845 3.1099 2.52452
4.37566 1.42144 3.40921
1.56684 1.15238 3.67015
1.11045 3.81539 2.56571
-0.242088 2.48798 2.65014
-1.17039 4.1441 2.1936
3.69185 0.717095 3.60844
1.12332 3.85323 2.53408
-0.44041 2.41947 2.65768
3.32968 2.30192 2.92441
3.72433 -1.02584 4.29636
1.20637 2.64771 2.78478
-0.776767 -0.847844 3.22471
-1.2066 1.28638 3.57022
2.89943 -1.30798 4.45075
0.952596 3.91302 2.50826
-1.34097 1.90211 3.0513
0.985723 2.55379 2.74564
0.350123 1.41978 3.68472
1.06628 3.94395 2.48223
1.96777 2.79627 2.84272
0.257563 -0.0439289 3.36841
-1.66346 1.70861 4.45343
-0.864168 3.80066 2.24087
1.50339 2.77279 2.84796
2.51498 1.21237 3.43969
1.53788 4.0382 2.46003
3.21698 1.25648 3.30281
-1.35262 4.0543 2.29086
2.17186 2.93827 2.89582
1.07815 4.12368 2.43438
-0.408937 0.226721 3.38004
1.83067 4.1035 2.40085
-0.24303 1.8398 3.24045
-0.676756 0.884232 3.34632
1.04799 2.99529 2.67208
1.71285 1.6047 3.4331
-0.746514 4.03843 2.13569
0.802481 0.161916 4.41998
1.24167 2.94573 2.7325
-1.54794 2.34551 2.78131
0.852211 3.13036 2.61518
-0.415262 -0.248709 4.43597
4.32825 -1.94212 3.7656
2.83833 5.10936 2.55443
0.294863 1.86066 3.10738
1.21124 3.09875 2.69991
-1.3371 -0.375341 2.9929
-0.971005 -0.0344092 4.06438
0.286165 1.76765 3.08562
0.970519 4.41141 2.424
0.454981 3.18163 2.51291
3.08726 -0.613393 4.51891
4.68997 0.972439 3.38207
0.660905 1.96677 3.05827
1.63155 4.47103 2.43997
2.65506 -0.413897 4.54984
-1.44848 0.780538 3.08157
1.56794 3.29612 2.75131
0.883168 1.86911 3.07971
-1.46542 -0.969235 4.17919
0.548019 2.0008 2.97487
1.98132 3.45571 2.79354
2.84893 -0.837311 4.23794
5.01234 -0.807626 4.05729
3.75381 -0.715652 4.04974
-0.702566 2.91917 2.5596
-0.614918 4.04523 2.30978
0.223244 -0.15674 4.58265
2.2614 1.40296 3.22743
-0.238219 1.71948 3.32379
-0.465931 -0.01072 3.34991
-0.770501 0.945873 3.32321
0.259761 4.08357 2.32461
1.96812 -0.069315 4.1646
-0.0702554 2.75185 2.51783
-1.01914 0.539295 3.19891
0.946941 3.08856 2.66801
3.69148 -0.412764 3.84058
0.0444056 4.23443 2.34365
-0.959259 1.95671 3.16527
-0.52662 2.95987 2.52359
-0.433752 1.38003 3.30484
-0.926279 1.86453 3.17815
2.86076 4.7564 2.55207
4.33952 -0.762446 4.38093
-1.29281 -0.733904 2.95324
3.74423 1.65237 3.3209
2.84886 -0.572186 4.08354
0.50051 3.02038 2.4915
1.44619 1.87636 3.32437
3.0998 1.73138 3.12805
1.30043 4.53754 2.43078
1.99935 -1.03469 4.76691
0.528075 3.21494 2.54016
4.13006 1.8108 3.26936
1.22423 1.93019 3.22555
-1.04234 -1.16737 4.14783
0.682538 -0.850816 4.50236
2.1796 3.2991 2.80461
3.29029 2.70261 2.95732
-0.779928 3.34565 2.45265
4.94631 -0.710404 4.04531
1.18465 0.788707 3.94301
2.80874 1.92465 3.11347
2.47737 5.03733 2.61132
2.65694 1.91284 3.19617
1.69368 3.427 2.7455
2.07774 0.711515 3.8841
-1.42722 0.6106 3.32998
0.156088 2.29953 2.97381
1.96978 3.54766 2.72071
-1.16391 3.01954 2.45693
-0.131755 2.1681 2.89006
1.88357 3.64413 2.72496
2.97886 0.37783 3.98449
-1.39393 3.63803 2.34683
0.506111 3.4057 2.40047
0.752984 2.23759 2.88244
3.60865 0.342115 3.85804
-0.351222 3.6293 2.46602
3.59014 0.622221 3.6249
3.95141 -0.0825659 4.21137
2.35046 2.3943 3.05626
1.7908 5.00166 2.42721
0.373691 3.76214 2.53695
2.85909 0.242854 3.89839
-0.873037 2.33676 2.71017
-1.14145 -0.399818 3.21869
0.218303 4.23291 2.35259
3.84187 1.42374 3.14969
-0.405945 0.203463 4.30015
1.9565 5.02307 2.51828
-0.95841 2.89885 2.3814
3.55907 1.4054 3.2774
1.52577 -1.55135 4.71527
0.147638 2.88232 2.50636
-1.35055 0.889674 2.82688
4.03099 -0.236323 4.18856
-0.276873 3.12903 2.48034
3.63119 1.7234 3.22974
-0.773542 2.03455 3.05964
2.03308 -2.28356 3.55238
4.06621 1.85459 3.22198
2.23859 0.0631772 4.07059
1.51051 1.84372 3.30699
0.903953 4.48459 2.42551
1.5094 3.23057 2.76038
3.00174 2.76369 2.9306
2.09378 3.34561 2.71735
3.91183 -1.15886 4.26669
0.589723 -0.456423 4.77492
1.69257 1.98822 3.15064
-0.863521 3.20396 2.45268
-1.02167 2.16998 3.09647
2.723 -0.247655 4.48515
-0.899517 4.35643 2.12965
2.36257 5.21936 2.48313
4.56587 -0.825062 4.81013
1.50379 3.45547 2.68102
-0.700179 -0.582112 4.45167
1.21541 2.11002 3.13893
2.25485 2.08588 3.02441
-1.18006 3.78823 2.29744
0.536895 2.13779 2.93752
0.225905 3.52562 2.53892
2.36615 3.57115 2.77785
4.48667 -0.421365 3.89025
-0.975818 3.55182 2.43311
-1.3615 4.31358 2.21064
1.74783 2.35524 3.05062
2.05396 3.77703 2.71269
-0.566872 2.31441 2.8226
-0.992558 2.88547 2.53795
0.555868 2.38737 2.72819
-1.49075 1.28096 3.24676
-0.265592 3.65428 2.43118
4.12383 0.356159 3.73453
0.210876 1.15051 3.83054
-0.917187 2.43166 2.7221
-1.20426 4.24069 2.19676
-1.16935 0.791805 3.92949
0.477061 0.981677 3.95755
1.95478 2.56533 2.88515
2.82512 3.9549 2.73588
-0.733729 1.17494 3.33569
3.44247 0.191809 4.0148
4.39766 0.947061 3.65158
1.44529 3.86995 2.568
0.050415 2.49659 2.68701
2.26945 0.543739 3.88232
4.01681 0.754629 3.58718
-1.58459 2.94899 4.22882
0.679848 3.47928 2.59007
0.268512 2.09711 2.96032
4.06402 0.0674783 3.78301
2.27496 3.50201 2.76807
-1.21913 3.56842 2.43206
-0.36021 0.739386 3.89859
1.3248 3.61355 2.67518
-0.985779 2.34863 2.82774
4.23754 -0.660836 3.88376
-1.00634 2.35665 2.9184
3.94462 0.320014 3.65113
-0.394361 3.56269 2.47134
2.59041 5.39234 2.63457
0.774227 2.31422 2.77364
-0.273812 3.61418 2.45728
3.19452 0.717933 3.73962
-0.645196 0.516935 3.92703
2.71895 2.3951 2.96744
0.138938 0.687756 4.09996
-0.932979 2.31002 2.68951
2.22614 3.77585 2.64911
1.27562 1.13705 3.75735
1.39795 0.329824 4.27868
2.27334 2.43048 2.97098
-0.282909 3.73443 2.43375
-0.02555 0.411383 4.29002
-1.01612 -0.792929 3.2396
2.06409 -0.869049 4.71166
1.62631 1.21048 3.56078
0.138114 3.90327 2.52079
0.620005 2.5283 2.69305
-0.795484 0.204526 3.31337
0.0485184 3.89424 2.44894
-0.820344 1.03443 3.578
-0.274124 0.237182 3.3827
1.474 2.57292 2.91907
-0.182664 3.89795 2.39035
1.98352 -1.13153 3.9434
1.44335 2.74147 2.82358
1.62978 1.4174 3.5977
-0.179128 -0.462917 3.23204
1.25141 -1.082 4.84066
-0.407065 1.43642 3.44847
0.206394 1.02056 3.63205
-0.36402 2.64641 2.63631
1.3024 4.05541 2.51277
0.955471 2.81193 2.66308
0.650505 -0.0153995 3.4643
1.61913 1.59797 3.51953
-0.756636 3.81594 2.20794
1.393 2.83783 2.83255
-1.16634 -0.746567 3.15921
4.0479 1.14606 3.46295
1.47206 4.0882 2.4363
3.75464 2.27959 3.11678
-0.419035 4.19477 2.29855
0.633847 2.86344 2.60028
1.08312 1.66321 3.37563
1.36293 2.28813 3.03153
1.71532 3.65334 2.66811
-1.38426 0.407295 3.31623
0.563224 0.950529 3.91755
0.0519275 3.60676 2.47384
1.29415 2.37026 2.90397
2.5743 5.28878 2.66158
2.36993 3.83098 2.69955
4.39518 0.729674 3.62799
1.31755 2.3019 2.94037
0.881734 3.82718 2.56639
1.61697 2.60186 2.9715
3.46293 0.549035 3.72779
-1.27982 0.74404 3.28877
3.53212 0.855958 3.69638
3.66327 0.641456 3.47536
-0.744008 -0.139154 3.31553
-0.257447 2.54391 2.81212
0.677475 3.89689 2.54225
-0.39642 2.64005 2.63716
-0.557875 0.387036 3.32802
1.75892 1.29615 3.59593
-0.645303 3.78511 2.34077
-0.852535 2.62367 2.66517
-0.729106 -1.41135 3.16277
3.71385 0.534952 4.0839
0.780683 4.07414 2.56222
3.70675 0.845994 3.46759
2.66593 -0.610446 4.66747
0.207912 1.18905 3.625
0.0271982 4.05215 2.46513
0.0862411 2.64299 2.5868
-0.888676 -0.314263 3.95632
1.68374 1.35875 3.50889
1.38578 4.02563 2.45714
0.631701 1.65121 3.4084
0.922509 -0.948309 4.92296
-0.437919 2.83202 2.57347
0.334545 -0.802053 3.23698
-0.274804 3.9833 2.29232
2.47877 1.31182 3.46
3.14257 -0.740352 4.18865
-1.34021 0.44369 3.19603
0.768388 2.7104 2.64023
1.15316 2.98888 2.68591
0.851591 4.22949 2.45009
-0.0124706 1.77866 3.20114
4.36187 -1.37387 4.6157
-1.01713 -1.37916 3.15845
4.24663 1.50881 3.79199
-1.0887 1.22484 3.19572
-0.719054 4.09142 2.19034
2.90322 -1.03933 4.18531
2.06822 2.96655 2.83426
-0.386687 1.43953 3.32912
-0.984516 3.03524 2.42699
1.38402 -1.68502 4.6893
2.29496 1.65171 3.2179
2.28573 3.0838 2.77427
-1.12919 0.543173 3.07655
3.48915 1.48582 3.27399
0.829283 4.41935 2.43523
-0.650402 -0.619829 4.25298
-1.84966 1.55797 4.94554
-0.450147 3.7225 2.30662
2.2075 2.61966 2.87496
-1.14146 2.92298 2.54579
3.4765 -0.649424 4.6434
-0.649547 3.69332 2.22984
0.712707 -1.70492 3.35758
2.18121 1.38067 3.46222
-0.810567 3.75057 2.2153
3.47709 -1.0749 4.4306
0.52064 2.71035 2.61484
0.305553 0.0600999 3.38839
1.87467 1.38315 3.60266
1.11204 -0.947959 4.95123
-0.433733 3.89056 2.28759
-0.461809 2.6731 2.57549
0.021705 -0.690399 3.22073
-1.43312 3.12126 2.4319
3.10416 2.89342 2.84436
-0.328159 3.96487 2.28141
0.0304051 1.71598 3.26288
-1.13477 3.26082 2.46407
2.06976 2.88863 2.84308
-1.11768 -1.21993 4.22988
0.642944 4.2107 2.42278
-0.649931 1.6901 3.24675
1.97088 3.12201 2.7865
-1.1115 1.15732 2.9519
-0.221682 4.12097 2.26621
0.814564 1.82838 3.29496
-0.866282 2.90064 2.45621
-0.702763 1.21718 3.23028
1.21171 1.79535 3.46127
2.54683 5.06161 2.47345
3.77984 0.205415 3.89919
-0.167385 1.88649 3.08573
-0.89084 3.04418 2.43717
2.03085 4.09409 2.57477
3.14786 0.402453 3.84572
4.28098 0.871527 3.46698
1.70587 4.38192 2.4413
2.74271 1.79117 3.17689
4.8119 0.649251 3.36895
3.65245 -0.0854942 4.23922
0.0686266 3.17157 2.48555
3.85288 0.052844 4.09241
1.63862 1.88774 3.25178
3.84878 2.65078 3.09083
-1.01991 3.2004 2.49676
3.11401 2.6591 2.97298
1.90243 3.45699 2.72231
3.39698 -0.363937 4.43108
-0.737711 2.16668 2.92165
-1.19797 0.21001 3.50228
0.106926 2.12137 3.08174
4.28316 -0.0515519 3.83089
3.51542 -0.139148 4.28347
0.0300016 3.28557 2.52389
-1.13071 3.8546 2.23358
0.960651 2.20851 2.9801
3.91384 0.214755 3.82731
0.265289 3.41844 2.52261
3.04279 -0.456331 4.26086
0.495348 3.54882 2.57907
-0.499159 2.2035 2.88941
0.287441 2.75373 2.57641
0.538837 0.273478 3.51854
-0.884349 1.70056 3.29126
-0.737591 3.83056 2.2345
3.76846 -0.517961 4.09516
0.329868 -0.214696 4.6914
-0.234834 2.74976 2.59983
2.38952 -1.92825 3.82023
0.211894 1.70055 3.61636
-0.841991 3.80937 2.14066
0.845592 1.70168 3.39125
-0.21355 2.89002 2.56504
-0.805747 -0.640713 4.10965
1.07928 4.14453 2.40688
-1.14014 -1.63053 3.13448
3.89671 -0.62617 4.21482
0.65894 4.26003 2.40225
1.38449 1.75034 3.31908
-1.51551 1.67426 2.91002
-0.130229 3.01846 2.53843
4.23542 1.50479 3.60154
2.8637 4.77906 2.73606
1.42518 3.04002 2.76521
-0.266272 1.42105 3.31638
3.5416 -0.918726 4.66577
1.27124 3.239 2.69516
1.77295 -1.24864 4.37352
-1.25073 0.954211 3.06024
2.92782 1.69873 3.22
3.98731 -0.92516 4.36451
0.220907 -1.15519 4.88955
4.69191 1.43151 3.36544
1.16588 1.88695 3.33687
4.16945 -0.95115 4.26156
1.04958 3.15045 2.65847
-0.615511 3.24197 2.45194
0.360804 -2.14224 2.10739
1.9783 0.731349 4.02601
3.36494 1.83043 3.22085
1.92036 4.60756 2.48147
0.278387 0.786885 4.1491
0.25046 3.14765 2.47949
0.786874 1.92671 3.05265
4.48905 0.0513342 3.85069
0.564533 2.01634 2.92552
-0.883014 0.281672 3.88181
2.17862 3.47786 2.76408
1.39502 4.71328 2.45215
3.76268 0.220502 3.80542
3.45972 2.00731 3.08548
2.15925 5.04204 2.61941
0.0368384 2.15749 2.90598
1.63258 3.53057 2.64932
-0.234914 0.181127 4.32763
1.55084 3.54918 2.71096
4.11957 -0.7028 3.92251
-0.257621 -0.0127598 4.29839
0.970091 2.26649 2.8561
0.876288 3.59119 2.57765
-0.880661 4.09631 2.17078
-0.720705 2.26602 2.76282
0.51837 0.146655 4.43167
-0.425624 4.25668 2.28569
0.0979095 3.61558 2.49088
0.687021 0.51619 4.20109
4.11357 1.88045 3.1814
1.59746 4.51594 2.4381
1.80512 0.729733 3.84568
1.93517 3.25031 2.75304
-0.730737 2.02303 3.06278
1.03093 2.05147 3.14551
-1.22772 -0.21018 4.15363
-0.0882786 3.3056 2.53661
0.334135 -1.04216 -0.986786
1.88814 0.265769 4.23674
0.70929 1.95023 3.06157
-0.927866 4.03889 2.18616
0.624605 3.22662 2.57149
2.7612 0.399887 4.05864
1.30248 2.14578 3.07027
3.0048 -0.0924366 3.91011
4.15227 -0.456878 4.05475
-0.439263 3.42395 2.4925
1.66873 2.0551 3.14112
2.61924 0.10514 3.97055
-1.26749 4.12712 2.15746
0.648229 3.36601 2.56315
1.10802 -1.56204 4.49768
2.09301 -0.205104 4.33418
1.50232 2.2619 3.0346
0.568272 3.43866 2.50052
-0.0396459 -1.28371 4.07659
0.0228187 2.26635 2.93388
-0.0776634 3.4935 2.4395
-0.970847 3.09976 2.06096
2.23253 3.74813 2.70627
0.357579 1.03605 4.1651
1.93134 2.26881 2.99992
-0.816924 3.69214 2.44622
0.432258 1.07834 3.89146
4.01346 2.53541 3.25473
2.51259 4.37031 2.6537
1.50702 3.80955 2.59001
0.0784791 2.36465 2.75376
-1.09759 0.744537 3.25241
3.84402 0.837689 3.4986
0.828573 3.9476 2.58992
2.09038 2.57953 2.91945
-0.767338 0.898906 3.29701
0.28744 1.23781 3.86742
1.60445 3.99382 2.59282
0.217195 2.48176 2.69507
-0.9906 -0.239201 3.25907
1.57616 2.73775 2.84153
0.967448 0.79946 4.04406
-0.56262 -0.971166 3.2332
3.45093 1.05011 3.42073
-0.458929 3.77902 2.30498
0.0312385 -0.151828 3.28365
1.05731 2.64167 2.78607
4.33366 0.948392 3.59182
2.54329 4.19051 2.67683
-0.891275 3.34416 2.46548
3.08916 1.91443 3.17928
-1.62162 -1.19739 4.22466
2.68896 0.617529 3.65471
1.57658 4.71802 2.45641
0.57797 3.31918 2.59085
2.3448 1.98752 3.27954
-0.136277 4.36831 2.19912
-0.683839 3.36364 2.42718
1.54719 0.645528 4.1926
0.777632 2.11449 2.95976
1.57903 2.24829 3.02991
1.04631 3.54465 2.61822
0.114436 0.370047 4.23356
0.544618 -2.0794 4.42371
1.51172 2.19616 3.07028
-0.861206 0.433317 3.90192
0.728095 3.56551 2.55823
4.12089 0.0897874 3.76126
1.81074 0.12003 4.3232
1.11009 0.872251 3.93734
1.96245 3.71347 2.67063
3.84806 -1.55661 4.06401
1.53748 2.39293 2.99
2.39569 0.239723 4.16688
0.748725 3.67775 2.51867
-0.558839 2.37647 2.82386
3.03902 -0.679567 3.86539
0.829781 2.48219 2.78696
3.85913 2.76332 2.9504
1.68881 -1.29417 4.4376
1.71037 1.06345 3.58416
-0.654528 3.66265 2.37284
-0.0993793 2.44071 2.73215
-0.929211 0.271227 3.22454
1.96913 -1.03802 4.43791
3.41355 0.714282 3.5805
0.777569 3.9581 2.5999
2.03561 2.68052 2.93277
-0.599676 0.47828 3.32808
3.32666 1.05476 3.60582
1.42735 3.91397 2.53834
0.0109769 0.969773 3.66657
0.412093 2.44234 2.61818
0.302105 1.26866 3.81886
1.04457 4.03224 2.54932
4.81 1.21352 3.86526
1.83814 2.72482 2.8635
0.740028 4.12539 2.55701
0.283097 0.282825 3.52691
2.30224 1.46738 3.50583
2.5519 4.07896 2.52554
1.1173 2.82878 2.72668
0.78532 1.18505 3.62746
-0.635051 1.53847 3.18681
-0.672297 3.89059 2.21283
-0.864787 2.77364 2.57655
-1.32186 0.653989 3.23863
2.18225 2.38905 2.92906
4.46819 0.914778 3.50296
0.0713715 1.24491 3.81275
-0.85017 3.63525 2.40704
-1.07718 2.34396 2.67654
3.20017 -1.23076 4.02039
0.69809 2.31742 2.77475
0.526565 3.78506 2.53099
3.69824 0.565174 3.60882
-0.864298 0.537405 3.21084
-1.00976 3.70637 2.32328
0.00766509 2.46884 2.67288
-0.400125 1.24636 3.60895
1.81447 1.27405 3.59267
0.274242 3.91187 2.48656
-0.195803 2.55915 2.57655
-0.27622 0.902362 3.55086
1.40649 3.97216 2.52606
3.33059 0.948126 3.58515
-0.554615 -0.618547 3.26261
1.50339 2.64247 2.93148
1.78043 3.99427 2.5119
0.886131 2.73997 2.68758
3.99038 1.09243 3.36986
0.260128 -0.322796 3.28348
0.662391 1.51574 3.55232
0.129799 -0.64496 3.2296
-0.41586 2.68846 2.59909
0.0893448 4.03093 2.40229
0.166978 -2.39824 3.22871
1.89703 2.95871 2.82334
0.454681 1.70608 3.33849
3.42276 -0.386398 4.33231
1.57343 4.06255 2.42206
-0.293461 2.85094 2.61921
-1.05482 -1.94747 3.10916
1.35713 1.61644 3.51315
-0.809228 -0.0521876 4.12175
-0.28691 4.05077 2.29714
4.69966 1.44103 3.39077
1.83273 -0.566282 4.73412
1.70647 4.17126 2.39312
-0.840519 2.91423 2.47868
2.09594 -0.421164 4.50887
0.71915 1.73502 3.27296
1.9832 -0.78913 4.97869
2.42742 1.67586 3.27301
0.423943 -1.37302 4.64556
-0.795037 3.007 2.41924
-1.65587 3.02051 2.50149
2.14741 1.64325 3.32615
-0.55262 -0.577702 4.24187
-0.79616 3.06287 2.5338
-1.00865 0.331318 3.06417
0.39591 -1.14422 4.79838
-0.20338 1.96046 2.95589
1.14186 4.44968 2.42024
0.182027 3.1991 2.52743
4.81499 -0.676409 3.40701
2.37043 -0.907417 4.61372
1.5561 1.88113 3.23952
3.97517 -0.626735 4.12203
0.335896 -1.04217 -0.98536
0.384155 3.11614 2.52574
-0.0873883 3.7801 2.43254
-0.152268 2.58291 2.70286
3.42835 2.29611 3.14642
4.16833 0.870195 3.61455
-0.822285 -0.910058 3.99847
3.74644 0.756961 3.58235
-0.894504 -0.7268 3.22889
1.96458 2.5331 2.97891
3.107 -0.908704 4.41145
1.15262 3.90962 2.53292
3.9242 -1.38511 4.37746
3.40594 2.63519 2.92493
-0.520419 -0.167209 3.2431
-0.645098 1.47191 3.31752
1.4563 4.00514 2.55609
3.45134 2.52228 2.90816
-1.32765 4.02053 2.30445
-0.782554 3.75859 2.22906
-0.466831 1.41762 3.50368
0.443404 -0.54254 3.27257
-0.404038 3.98334 2.35031
2.53293 2.73869 2.85254
1.08058 1.48689 3.4282
0.835781 4.21153 2.49489
-0.323326 1.75874 3.29949
0.314031 -2.39704 3.22936
-0.0433879 2.80876 2.51074
-0.612267 4.12226 2.32105
3.43725 1.2367 3.37098
-0.378905 -1.54234 3.15191
-0.468443 2.79473 2.55519
-0.0530822 4.13319 2.30215
1.62976 1.68784 3.28992
-0.175718 2.92359 2.46413
-0.796102 1.24385 3.287
3.60482 1.50153 3.50158
2.8642 4.71218 2.72575
-0.828616 0.281069 4.15001
0.806129 2.94255 2.6357
4.22237 1.4614 3.40545
-0.798673 3.07763 2.4216
-0.865124 -0.318322 3.34727
1.26883 -0.00197178 4.56947
3.2344 1.65618 3.21962
1.11941 4.52459 2.423
0.727739 3.10888 2.60927
2.34115 0.0223223 4.12917
3.26357 1.60613 3.34203
4.01074 2.15361 3.0414
1.95268 4.4187 2.46884
2.01278 -0.429421 4.57676
0.0802459 -2.14759 1.94251
3.49571 -0.792019 4.1975
-1.25007 -0.283811 4.11158
1.23181 3.34137 2.72591
-0.597185 2.0327 3.01487
0.394738 2.06036 2.9676
2.15958 4.16565 2.58478
-0.450973 3.31243 2.46976
-0.274332 -0.8558 4.99935
1.34339 2.00858 3.15501
0.421439 -0.674714 4.7872
-0.753008 3.26905 2.46824
4.21751 -0.385024 3.93614
-0.498585 -1.53673 3.15096
0.957883 2.97499 2.67272
0.806471 1.7122 3.27026
3.63276 -0.187048 3.87932
1.33407 4.14289 2.42047
4.08546 1.33335 3.49804
-0.55252 1.09021 3.40712
0.927742 4.2314 2.40371
3.82731 -0.066898 4.00549
0.273819 2.83191 2.5577
-0.656725 3.06584 2.47479
-0.715827 1.49791 3.20414
-0.222417 4.52902 2.19145
2.94181 1.58058 3.22951
1.69247 3.20068 2.86051
3.97579 1.88896 3.29397
2.70386 -0.292573 4.3019
1.87735 1.70217 3.34991
1.38728 4.53091 2.4367
0.658701 1.91618 3.14077
-0.397812 -0.628777 4.57342
2.14493 3.33288 2.83767
1.9976 4.23458 2.48474
-0.535532 -0.385799 4.68657
4.49858 0.821162 3.41442
3.69036 -0.847089 4.23572
3.31959 1.78512 3.10729
2.88038 -0.998979 5.09979
0.03039 -2.26785 2.00034
-0.963226 3.30242 2.48967
0.465712 2.00378 3.12473
3.55788 -0.787133 4.39101
2.27425 3.31869 2.77141
4.03671 -0.804258 4.07795
1.29975 3.50518 2.66699
1.62739 2.12065 3.11288
0.722398 4.72451 2.38081
1.84835 2.10927 3.24913
-1.02324 4.3586 2.15714
1.71474 3.491 2.74998
1.76102 0.825892 3.84647
4.02987 0.272475 3.73336
0.360113 2.30581 2.9338
-0.0559865 3.43239 2.46565
0.403444 4.39883 2.37512
0.2688 2.24016 2.964
-0.820948 3.50753 2.42499
-1.26077 0.421049 3.83797
-0.378675 4.33206 2.27182
1.76272 3.7239 2.67049
2.41272 2.26264 3.04851
3.50789 0.461333 3.91003
-0.634014 0.903012 3.63934
-0.496254 2.40069 2.65788
0.424714 3.71119 2.51946
-1.11413 3.61686 2.41311
0.214556 0.251436 4.38448
-0.686248 3.65257 2.36879
4.03764 0.12901 3.96014
-0.136931 0.873787 3.85665
-1.11515 2.04827 2.66041
-0.0467826 2.37897 2.77824
1.77485 -1.59227 4.66164
1.71554 0.391239 4.31625
2.20073 1.79587 3.43465
-0.349123 1.45736 3.32889
-0.578185 3.1334 2.54231
1.21737 1.81624 3.40104
0.892901 4.64954 2.37528
0.903832 3.05222 2.66719
-0.862761 -0.168471 3.32248
3.44022 -0.0539105 4.19847
0.56021 3.25345 2.59333
1.51019 4.35115 2.42963
3.51506 1.78837 3.33546
4.57433 0.80566 3.39199
0.355104 -1.04628 -0.96534
3.63254 0.052703 3.76599
2.81099 1.73067 3.26424
4.26979 -0.595775 4.14116
3.02821 3.46876 3.0273
-1.04184 3.39838 2.51557
1.63559 4.62307 2.45159
3.43355 -0.393152 3.97964
1.11167 -0.0463317 4.51885
-0.692647 2.14132 2.92636
2.18281 3.39445 2.77375
0.995763 2.05916 3.17507
4.06525 -0.255898 4.00628
2.43414 -0.617122 4.38154
0.961837 3.4338 2.60346
1.19271 -0.372361 4.66435
3.92763 1.94044 3.11271
4.1007 0.40914 3.7629
-0.297813 2.24754 2.80294
-0.595875 3.52357 2.50793
3.90166 0.0247927 3.84957
-1.03651 3.5536 2.4599
-0.0865506 2.23625 2.91352
0.398664 4.6632 2.35638
-0.536081 3.58653 2.44236
-0.784349 2.38409 2.71682
2.59251 5.23331 2.68954
3.75695 0.584152 3.72579
-1.36665 2.38496 2.84429
0.580314 2.27558 2.83454
0.172665 3.66163 2.47439
-0.128374 2.51219 2.72585
4.49609 0.541853 3.51664
2.58108 0.919413 3.55619
-0.129557 0.759066 3.92869
-0.0136554 3.68512 2.43271
3.47427 2.30468 3.14533
1.31756 2.42905 2.88101
1.82565 3.88962 2.61578
2.62061 0.818175 3.57072
-0.714549 -0.427302 3.26077
-0.399304 3.78362 2.36424
1.64957 0.460745 4.08158
1.7896 2.58355 2.91088
-0.264641 0.618877 4.14987
3.5374 0.939932 3.66494
1.30501 2.22385 3.09559
-1.05333 4.19909 2.20545
-0.854316 3.40404 2.39879
-0.372423 2.13407 2.83873
3.93114 -0.277644 3.91859
2.0952 3.51401 2.73347
0.33938 4.61496 2.33961
0.810329 2.27871 2.86825
2.00208 3.67108 2.71864
-0.140854 4.18729 2.16472
-0.623174 2.26871 2.77519
1.31916 3.70356 2.63083
2.72129 0.561834 4.08294
1.68811 2.41603 2.91268
-1.41482 2.74001 2.72819
1.82437 3.77536 2.64373
4.41016 0.699697 3.73689
0.571699 0.860302 4.15296
0.915985 2.30525 2.79968
-1.0303 4.31921 2.17855
0.996183 0.881403 3.96012
1.85391 3.86402 2.65365
3.25174 0.906025 3.75942
2.18829 2.47547 2.94222
1.25103 0.419499 4.19743
0.118587 3.79692 2.45062
4.1357 0.231987 3.98208
-0.938322 0.57112 3.24053
3.04026 1.00164 3.44874
0.312095 4.12814 2.47919
2.43855 2.61514 2.89931
-0.407367 0.929374 3.4725
0.594703 4.01205 2.51886
2.00594 1.19959 3.69894
-0.681655 -0.740132 3.2423
-0.653193 2.62895 2.71045
2.37981 -0.758439 4.48183
0.328533 0.553367 3.6314
4.09674 -1.16048 4.44936
1.11436 2.75697 2.73926
0.551742 1.63249 3.57456
2.20111 4.21466 2.69485
2.82404 -0.976437 4.82813
0.195515 1.57246 3.61127
0.367913 1.16409 3.69759
-0.518859 2.70459 2.62333
0.982539 4.17851 2.53955
-0.716166 -2.24369 3.13916
-0.555465 2.88139 2.54675
3.81534 1.28874 3.37755
-0.427619 3.99706 2.30571
-0.826643 2.66682 2.44693
-0.962536 -1.31885 4.42154
-0.328707 -2.11827 3.10887
2.71613 1.30755 3.33787
-0.179698 3.99238 2.27378
3.69561 1.50871 3.55147
0.317883 2.89563 2.55558
-0.326257 4.0439 2.22812
-0.908917 0.33699 3.19677
-1.17578 0.0462107 3.83854
2.62983 1.47852 3.30396
-0.452447 3.02766 2.62468
-0.584818 4.05054 2.20416
4.90899 0.00192615 4.55624
-0.44538 1.05438 3.42067
2.67752 4.70735 2.72599
-0.094963 1.86364 3.10456
-0.602743 3.07571 2.49891
3.82494 -0.424351 4.08409
0.211381 -0.0481847 4.32509
-0.192175 1.84651 3.17969
0.744888 4.54083 2.43545
-0.427739 1.2551 3.29071
1.85608 3.12002 2.80275
-1.01076 0.727846 3.25317
-0.48501 3.14279 2.4337
3.53735 2.04418 3.15758
2.11552 1.92639 3.31502
0.658998 -0.726135 4.9756
2.80467 2.09696 3.08467
0.445544 3.05291 2.48552
-1.54894 0.468347 3.0521
0.117702 1.93375 3.08689
3.22634 -1.02149 4.20957
0.951145 -0.448172 4.94623
0.0404313 3.28949 2.48543
1.26953 2.03871 3.09925
-1.52544 -0.162239 4.08863
0.163088 3.26132 2.53038
3.25626 -1.63224 4.29848
0.446914 -0.783656 4.64511
1.87075 1.98752 3.23532
-0.564356 2.12545 2.83046
-0.704513 3.32038 2.40679
2.86003 3.23656 2.88041
2.9051 2.09855 3.04735
-0.207306 3.35599 2.4033
-0.0431058 0.742416 3.95157
3.8767 -0.287511 3.89033
-0.785809 2.19069 2.79664
0.335457 3.49001 2.49139
3.91554 0.207459 3.74039
1.6832 3.73279 2.68684
0.855504 2.33017 2.83939
-1.19352 0.324739 3.8947
-1.46747 4.01478 2.29015
2.26424 0.864681 3.86411
3.28198 -0.298637 4.07348
-0.633465 2.38108 2.8368
1.10161 3.7133 2.56806
2.80852 0.592992 3.95513
1.56428 2.48919 2.90836
-1.34267 -0.10904 3.25562
2.49279 0.95004 3.62988
2.90254 3.84454 2.67337
-0.570089 1.1037 3.50301
0.428999 2.43067 2.7761
-1.15539 0.253087 3.94247
-0.59186 3.65715 2.32684
-0.494784 0.92709 3.77135
-1.8042 3.13168 4.81892
2.15088 4.81999 2.56267
1.37464 3.4068 2.67101
4.13235 0.117013 3.81776
0.827224 2.01666 3.07716
2.05656 3.4553 2.81393
-0.999772 0.582788 3.65984
2.61059 2.06755 3.08007
-1.01668 4.22896 2.20372
-0.242634 0.712579 3.98057
1.41919 3.55711 2.65986
2.27078 2.07488 3.16028
-1.4102 0.45563 3.32439
-0.256017 3.28091 2.40825
0.151977 2.2622 2.7768
-1.51192 2.01955 3.10971
2.0445 3.64463 2.70681
-0.155009 0.282007 4.25785
-0.503154 4.35647 2.25867
-0.589194 3.60592 2.45585
0.696021 2.21571 2.88152
-0.514648 0.403324 4.2445
-1.30341 3.10071 2.52542
1.08538 0.121891 4.43235
0.139187 3.65728 2.471
2.21171 2.31203 2.9852
3.35609 0.57792 3.64245
3.13908 0.0946446 3.75068
2.54611 -1.08363 4.29938
-1.00854 3.65762 2.3618
1.4547 1.18061 3.75492
1.21712 2.55973 2.93031
3.73666 -0.873805 4.00673
-1.06612 2.20203 2.55333
2.505 0.890789 3.70368
1.53148 3.85014 2.57507
1.00041 2.43903 2.86155
-0.884876 0.925058 3.2234
0.863699 1.42375 3.6538
-0.527844 3.74885 2.34888
1.38983 2.60685 2.79906
-0.935381 0.0323258 3.27044
1.07275 1.30452 3.66224
1.67541 3.94953 2.53193
3.62138 -1.4323 4.25789
-0.158444 0.860071 3.58492
0.176024 2.46373 2.61967
0.370333 0.933032 3.70477
2.45866 2.7546 2.87089
1.91855 1.35419 3.46358
1.37954 4.00119 2.50285
0.183945 0.766053 3.61701
0.700888 2.65125 2.68376
1.12962 4.0764 2.48655
3.84205 1.0162 3.51006
-1.34477 0.682691 3.26153
0.428842 2.84811 2.60451
2.03991 1.53041 3.44992
-0.00684652 3.9708 2.31916
1.23442 2.81495 2.72846
-0.456904 -1.33641 3.17072
1.01886 1.57206 3.38865
0.405908 4.1521 2.39479
-1.4321 0.650953 3.33097
-0.964361 3.42138 2.42658
0.388658 2.23777 2.98891
1.47622 3.69547 2.71474
-0.74135 4.18397 2.10399
0.663729 2.26888 2.84495
2.43613 2.1731 3.07156
-0.0270185 3.56253 2.4578
-1.16391 3.78679 2.3443
1.68989 3.76595 2.6386
1.87042 0.947051 3.64199
3.39448 0.483347 4.0032
1.76818 2.40889 2.94207
-0.269866 -1.41557 3.86212
-0.906964 0.796434 3.74347
-0.418712 3.67058 2.40671
-0.833821 0.716477 3.84346
-0.461371 2.40041 2.77419
-1.08296 2.24796 2.54063
2.32268 2.50883 2.90177
3.43213 0.343685 3.92807
-1.06536 2.70581 2.67429
3.97704 0.765939 3.24074
1.63452 3.87363 2.60545
1.14069 2.52206 2.90184
3.50213 3.30635 2.7913
-0.692139 1.00822 3.65589
1.53022 3.89701 2.54705
-0.784509 2.66821 2.56558
-0.725058 -0.872159 3.22721
-0.701154 1.43003 3.32178
1.88543 -0.823755 4.88732
1.85017 3.97263 2.557
1.81737 2.66261 2.91368
1.52224 -0.566451 4.42068
0.247609 0.318749 3.46519
3.79664 0.942408 3.54973
1.72711 3.9842 2.51862
4.41292 1.14471 3.66277
-0.984381 -0.992697 4.18879
0.24484 2.65404 2.57958
-0.945803 3.75583 2.19853
-1.31131 3.92543 2.31181
-1.14492 -0.892706 4.27282
-0.701867 1.70927 3.19045
1.3716 4.0912 2.45123
1.64053 2.96079 2.82796
-0.7134 -1.8573 3.14239
-0.0517804 1.73074 3.46845
-0.657982 3.56565 1.87756
4.13689 -1.4834 4.54219
0.828307 2.76962 2.66528
-1.0074 -1.84573 3.11622
1.23757 3.05336 2.70653
-0.225899 1.04395 3.53183
1.08677 4.19702 2.39388
2.06869 1.65028 3.33428
2.25248 2.96887 2.79813
-0.775017 1.27825 3.22456
2.18898 -1.28267 4.48059
3.12407 1.37514 3.27774
0.981001 -0.980467 4.77202
-0.777025 2.66836 2.7474
3.82027 -0.839149 4.22432
1.24495 3.90068 2.53203
1.42523 1.25625 3.67274
-0.994934 -0.0888202 3.25433
1.34772 1.3831 3.52268
-0.716796 3.77799 2.29433
-0.645975 -1.38417 4.33367
0.440012 2.57412 2.5904
-0.256603 0.643989 3.47151
0.479843 4.03206 2.4866
-0.839824 1.3956 3.44099
3.12757 -1.07475 4.028
0.828478 2.59191 2.73077
-1.26082 4.08731 2.27552
-0.547365 2.77294 2.5359
-0.88218 3.85056 2.25201
2.85017 1.34266 3.44977
-0.79847 1.51481 3.28184
-0.594595 -0.0176774 3.30618
-1.16731 -1.67561 3.16053
0.331407 2.65335 2.57489
1.89989 4.14511 2.50839
-1.02769 -1.51943 3.14663
1.98158 2.98173 2.78324
1.85273 1.57831 3.32702
-0.765583 3.9213 2.16118
1.45048 2.93404 2.77823
2.56984 -1.28834 3.81657
0.539904 1.64624 3.30749
-0.780653 4.001 2.16119
3.26662 0.131304 3.89768
-0.581099 1.53488 3.24259
0.191186 -1.25037 4.58012
3.224 0.28115 4.00958
-0.700445 3.03164 2.53863
2.29367 1.60823 3.30607
3.16615 1.63991 3.20036
1.13 4.36378 2.41402
-0.502895 3.14792 2.50103
3.87711 -0.279654 4.18187
-1.21099 0.960469 3.0545
-0.834981 1.98918 3.1832
2.00159 4.16898 2.49262
1.62464 3.20605 2.79211
4.50693 1.4432 3.33287
0.625966 0.0942493 4.55056
1.39837 1.98034 3.14785
1.43993 4.42252 2.4364
-1.17038 -0.378236 4.43223
-0.509218 3.19981 2.42958
4.95529 -0.106187 3.45202
3.44241 1.76764 3.30759
4.79218 0.302222 3.935
2.26315 -0.259667 4.29989
2.11458 3.36612 2.80773
0.145132 -0.767028 5.21452
0.436229 3.3886 2.53889
2.56855 2.02335 3.14737
1.39683 4.66135 2.4468
4.03187 0.062166 3.74885
-0.525144 3.2734 2.44268
3.79762 1.90224 3.29108
-0.424026 2.72747 2.59344
3.79589 -1.79636 3.83813
-0.621649 -0.669278 4.5519
2.04912 1.29666 3.42206
-0.77659 3.80348 2.26037
-0.561913 2.66135 2.59849
0.608318 0.843553 3.68944
0.25748 1.57834 3.67331
-0.37195 -0.417868 4.42144
0.178358 4.01562 2.42184
-0.949409 -2.03942 3.136
0.826232 -1.03756 4.93135
-0.0465311 2.67311 2.49926
0.240347 4.11594 2.43447
3.4977 1.19406 3.332
4.44439 -0.862917 4.50883
-0.944484 -1.01536 4.10844
0.541861 4.19266 2.42891
0.0686034 1.76426 3.27133
-0.907047 -1.96861 3.10591
0.414654 2.93381 2.61624
0.369029 4.19536 2.37428
2.57832 1.4449 3.42147
1.38408 2.94407 2.80271
4.1724 1.78015 3.38048
0.129102 -1.22974 4.55979
2.99751 1.50867 3.16594
-0.194996 3.05542 2.5176
-1.30611 -1.38844 4.23023
-0.882937 1.51794 3.16248
0.45611 1.7592 3.18096
1.81596 4.52826 2.46185
-1.01033 0.0723112 3.0422
-0.0638127 2.97261 2.53496
5.09548 0.443419 3.35129
-0.0859323 3.18337 2.51035
0.923842 4.39534 2.41706
1.37243 1.9585 3.24509
-1.1868 0.39621 3.86214
-0.65922 3.1164 2.47329
4.91921 0.443609 3.37353
3.07601 1.65804 3.24665
1.00272 0.641584 4.14153
1.28361 4.48228 2.4238
2.77048 0.122688 3.79327
3.45759 3.22724 2.85585
1.65865 3.37416 2.73262
0.540364 0.351472 4.35451
2.23071 1.91891 3.20471
-0.423252 2.13605 2.86699
3.26078 -1.64541 4.34986
0.152267 0.0653562 4.3374
0.917374 3.48926 2.64928
1.09887 2.11056 3.16203
-0.0293305 3.29194 2.49088
2.17959 5.07631 2.40738
1.37215 -0.249667 4.49763
2.11808 3.60448 2.75029
-0.424496 2.15928 2.6951
-1.33837 0.139386 3.31024
4.67108 -0.263031 4.37463
0.626056 3.54528 2.55895
-0.953506 2.3175 2.92003
0.836872 -1.31294 4.31238
0.0224234 3.11727 2.50811
-1.08104 1.26925 3.18261
2.58007 0.321133 3.91105
2.20959 1.74843 3.20345
2.10417 4.08258 2.62583
2.85997 0.419655 3.90712
1.10697 3.12392 2.66998
4.19448 1.95057 3.10585
0.717397 1.85486 3.23535
1.96063 4.34408 2.48791
3.63806 1.68274 3.18942
-0.715148 0.100243 4.2985
-0.170617 3.15328 2.46935
1.86839 4.36502 2.45185
4.72759 1.39236 3.36279
0.908876 0.216505 4.51127
-1.17762 2.18705 2.98796
1.76616 2.08637 3.23502
0.747094 3.39102 2.61904
2.87159 1.80719 3.13787
0.684329 4.62324 2.37506
3.32636 -0.254722 4.27087
1.43446 3.37042 2.70555
1.05648 -0.413383 4.81192
0.702911 2.19223 2.98398
4.03079 0.185383 3.79118
-0.00809593 2.10017 2.87824
1.15045 -0.232308 4.6054
4.23746 -0.369411 3.82454
-0.014175 3.37311 2.49548
0.925824 3.52962 2.61457
-0.736175 2.36188 2.80923
0.654349 -1.0927 4.30459
-0.87762 3.50739 2.43819
2.7966 -1.56247 4.276
0.619315 2.18446 2.84185
-0.991276 3.60244 2.43935
2.07903 2.33777 3.01038
0.581018 3.68009 2.51543
1.6705 0.908766 3.81962
-1.35873 2.76393 2.66118
1.89622 1.03911 3.62618
1.56579 3.7941 2.60474
0.605004 2.39925 2.70142
-1.16123 -1.81091 3.40911
-0.205778 3.74971 2.42386
3.62314 0.615015 3.61149
-0.800568 1.22559 3.29953
1.4928 2.44013 2.94077
3.90147 0.307474 3.81803
0.20105 3.97858 2.54382
1.53885 2.65708 2.87683
-1.06394 0.449652 3.22127
0.779983 1.37577 3.57286
3.79359 0.768429 3.42161
1.70649 0.794127 4.11962
2.62782 2.52134 2.94575
0.0125937 0.85872 3.64519
-0.762382 3.75372 2.28463
2.47032 3.38426 2.79569
3.31529 2.09111 3.1792
1.39992 0.577434 4.04742
-0.73534 2.06862 2.95423
4.24522 1.45277 3.41243
1.41297 1.8951 3.18224
3.99322 -0.42144 3.94408
1.77762 3.3264 2.76373
4.75472 0.479031 4.118
2.73244 0.410955 3.86195
0.176917 3.41326 2.54617
4.29155 -0.633768 4.10969
0.631652 2.08833 2.94621
0.108916 3.28014 2.49628
3.98064 -0.0569232 3.87961
2.49529 1.97946 3.21681
-1.13646 0.234061 4.31727
0.823016 3.52188 2.6081
-0.745171 0.233532 4.09918
2.09994 2.0628 3.02714
4.85414 -1.05535 3.86659
-0.115733 3.4299 2.42345
2.62459 2.19776 3.03432
2.5067 -0.158408 4.40197
-0.324834 0.0758395 4.31437
0.0820702 2.23237 2.85889
-0.662825 3.58068 2.44406
-0.0180244 4.55077 2.25847
1.87024 -1.63808 4.26647
0.0663312 3.67009 2.49661
1.43281 2.4103 2.91436
-1.36087 3.22944 2.38947
1.13693 1.06622 3.73426
4.59489 0.516327 3.52066
2.57389 2.28112 3.01028
1.19913 3.7602 2.57139
-1.12616 -1.36204 4.22576
1.7271 2.54817 2.90786
-0.863972 0.888381 3.24627
3.78979 0.784347 3.422
0.830351 3.8756 2.57152
-0.511502 0.469771 3.36969
1.75988 2.48422 2.9553
-0.704756 3.67808 2.29015
3.92892 0.717103 3.55377
-0.832198 -0.960147 3.24573
0.641002 3.99847 2.52883
1.28708 2.59516 2.78925
3.95796 0.89877 3.51911
3.32122 1.13356 3.44487
1.10603 3.98286 2.48685
-0.0832536 -0.378932 3.24005
-0.701847 0.783536 3.76886
1.0489 2.73143 2.73653
1.72303 4.04005 2.51464
4.23886 1.00469 3.44625
0.325862 0.0464117 3.38542
-0.147339 2.61719 2.59475
3.68927 -1.51975 4.06707
0.50944 2.35195 2.82677
0.559593 3.62017 2.5434
-0.504095 2.35482 2.8303
-1.29011 2.34301 2.85157
1.21943 3.69445 2.57571
-0.299958 2.45722 2.68368
-1.18699 0.202086 3.27628
-0.3164 3.67757 2.42382
0.810207 1.12432 3.96069
1.04168 2.40674 2.85141
-0.897214 1.2777 3.29654
1.67355 1.05929 3.85712
0.735001 3.83053 2.53697
1.77975 1.14658 3.61349
0.560773 2.47886 2.67627
1.55811 3.87976 2.54396
-0.560311 0.185024 3.32366
3.07659 0.655762 3.97681
-0.553768 1.44983 3.3568
0.87699 4.07496 2.59132
2.13781 2.69405 2.88541
-0.138387 0.661758 3.4576
1.49257 0.913779 4.0833
0.342018 4.08439 2.51856
-0.00539405 1.39894 3.4448
-0.745023 2.58027 2.58737
0.372792 -0.00965768 3.43187
0.38266 0.189944 3.52461
-0.759185 2.83863 2.60277
4.69866 -0.511088 4.09004
1.12884 1.54019 3.40081
-0.315934 3.84372 2.27725
-0.290384 -2.3437 3.17097
2.30297 2.78114 2.90263
1.81427 4.07511 2.46816
1.77021 -0.302309 4.50502
-1.07242 1.45093 3.44258
-0.367447 -1.23549 3.1476
0.350837 2.90362 2.59328
-0.516617 1.79331 3.2278
1.80842 4.10096 2.4302
0.542707 2.81974 2.60428
2.21858 -2.44856 3.61552
0.685702 1.60828 3.27513
2.72111 -0.674156 4.46547
-0.33599 1.86146 3.18889
-1.14156 -0.760677 4.00704
1.65819 4.17772 2.41888
0.732939 3.02361 2.64067
3.9743 -0.890242 4.72013
0.628498 -0.820539 4.744
-0.874922 1.45498 3.16586
1.54548 4.5775 2.44359
0.328586 1.91096 3.12682
-1.6862 1.46166 2.87289
-1.10598 -1.43365 4.33299
-0.0643314 3.12627 2.51524
2.8235 1.60431 3.27209
3.38341 -1.12072 4.19458
1.17899 4.53492 2.42499
1.82636 3.16786 2.77108
4.3792 -2.08174 3.71956
-0.35186 1.21171 3.62588
0.925861 3.81445 2.5936
1.07263 2.46851 2.84756
-1.30818 0.874714 3.27542
2.20555 3.8877 2.65073
1.30545 1.08508 3.87431
-0.478929 -0.0331897 3.37243
-0.761718 -1.05798 4.31561
1.5429 2.44112 2.96508
-0.327169 2.59625 2.63146
-0.792747 0.756344 3.25187
2.66781 1.0581 3.50581
0.729288 3.94564 2.55887
3.95726 -1.53654 4.34665
1.13249 2.5902 2.88322
-0.131668 -0.0343041 3.29349
-0.254481 1.31027 3.56721
0.550637 3.9992 2.53142
-0.797115 2.76734 2.60915
0.217853 -0.63115 3.29132
0.765811 1.5053 3.4804
0.160303 4.07252 2.51078
0.206591 2.57462 2.59388
0.18681 -0.168353 3.29244
0.481018 4.05526 2.46349
3.35839 0.977964 3.3558
0.730543 1.55473 3.35423
2.09147 2.82926 2.85126
0.730496 4.08225 2.44566
-1.01553 -2.17462 3.12265
0.123876 1.80805 3.33515
1.20892 4.15163 2.44267
-0.596059 0.0569576 4.17395
-1.07206 3.14297 2.45535
1.33576 2.98846 2.76506
-2.38571 2.69493 6.39351
0.233692 4.14029 2.33501
0.501555 2.79455 2.59099
-0.270181 0.933436 3.49935
1.89692 3.17767 2.8007
1.55706 -0.287938 4.6601
0.892674 -0.849414 4.75542
0.0047309 1.89465 3.19642
2.45068 5.40517 2.68741
4.15594 1.628 3.29782
3.98097 -0.320072 4.17163
0.983831 1.78722 3.32375
2.06176 4.70132 2.5624
-0.367672 2.99552 2.54722
2.39305 3.30739 2.78918
2.04767 -0.708467 4.99775
2.01141 4.14556 2.52639
2.47663 1.83229 3.27842
2.92354 -1.95089 3.74234
-1.03883 -0.417775 4.21638
-0.587317 3.15651 2.52009
4.46331 1.67637 3.3167
-0.48633 1.93108 3.04405
0.778154 4.52702 2.43463
1.25361 3.34165 2.68928
4.57084 -1.05874 4.80964
3.9925 -0.734662 3.90177
0.0395444 -0.818103 4.72031
0.328597 2.05862 3.09208
3.17185 1.3299 3.36106
1.12234 4.06792 2.43837
-1.28354 -0.303557 4.08882
-0.0941825 -2.37623 3.23557
-0.119547 2.80525 2.54558
-1.42606 0.963835 3.21278
3.22891 1.23807 3.3799
-0.687262 3.90509 2.18493
-1.21211 -0.037957 4.12774
0.723418 2.75531 2.64127
-0.315148 0.982499 3.50449
1.82102 3.08299 2.79575
2.79275 -0.531285 4.23958
1.04055 4.17718 2.38994
2.7962 1.52755 3.29072
-0.116348 2.92579 2.56677
4.31606 1.52576 3.33787
0.769196 -0.854063 4.7187
3.47473 1.43494 3.46548
3.97574 2.28724 2.98366
1.6438 -0.767596 4.50048
2.67022 4.46359 2.53727
2.82567 -0.686432 4.40888
1.27002 3.15966 2.72857
1.21382 1.83847 3.33112
-0.877173 2.06029 3.05024
1.88499 4.49554 2.46386
0.707288 3.25448 2.62493
3.31975 -1.23355 4.74638
-1.53412 0.409505 3.01437
2.84094 1.65201 3.20409
4.63072 0.661628 3.76546
1.17327 -0.997957 4.84551
-0.553189 3.18996 2.54089
2.91812 -1.94933 3.74362
-0.201667 2.05226 2.89775
-1.32926 1.30843 3.39037
0.866295 3.36127 2.616
1.04227 -1.66998 4.65776
0.611493 2.0023 3.05447
2.78649 0.712218 3.73473
0.00593569 3.24711 2.51915
4.12147 -0.446678 4.0012
2.46816 0.550123 3.82133
-0.747215 2.17771 2.79956
-0.349994 3.36995 2.48423
3.49777 0.511663 3.85342
-1.27262 3.63311 2.2756
2.03276 2.03802 3.12851
-0.444766 3.46712 2.49279
-1.27727 2.92287 2.50538
1.71805 0.31926 4.14287
2.12379 2.19695 2.98461
-0.499257 3.47611 2.4372
-0.398355 0.458907 4.13447
0.382137 4.38117 2.25718
1.08791 3.65573 2.5998
1.14314 2.20221 2.95591
0.338793 0.0448816 4.43541
-0.611354 2.37955 2.7527
0.940347 3.69688 2.57076
-1.30984 3.04898 2.53487
3.54976 0.0295216 3.97582
-0.828965 4.05957 2.20425
-0.603627 1.8805 3.22277
1.99847 0.124279 4.16218
-1.68002 1.43871 2.97752
1.50236 3.07914 2.76932
-0.384749 -0.825883 4.49106
1.17403 0.391331 4.33815
-0.937049 1.84218 3.27057
0.542592 2.8931 2.60898
-1.60845 2.01856 2.86945
3.99157 -0.352978 4.09799
3.80464 1.58306 3.24214
2.51339 4.88314 2.68577
-0.681042 3.09073 2.45899
3.96473 2.16108 3.02587
0.22447 0.0326108 4.42799
-0.540741 1.90146 3.12413
1.15421 4.3583 2.41401
-0.0350347 3.04935 2.53876
-1.49483 0.233474 3.00285
0.983944 3.34537 2.66924
4.32882 0.618913 3.43445
-0.0970306 2.01543 2.98546
1.92321 4.27672 2.46271
2.27063 -0.53171 4.38371
1.19308 3.23275 2.64904
-0.351449 2.04232 3.09263
4.0044 -0.801486 3.92701
-1.03331 -0.275145 4.19247
0.567172 3.43486 2.58285
2.36948 1.99712 3.12122
-1.21128 -0.6801 4.24701
3.89907 -1.17457 4.06276
0.97184 4.74115 2.37957
-0.122518 -2.20749 1.75805
2.31216 3.41708 2.75662
2.10449 -0.719095 4.86617
3.28094 1.87127 3.20379
2.71849 2.01078 3.05031
1.26396 3.54212 2.66093
-1.29769 4.03734 2.15696
1.54133 3.67012 2.71041
0.344004 0.856029 4.18557
3.86338 -0.0244625 3.86619
0.72462 2.28242 2.8909
3.98427 2.09143 3.17486
1.17001 3.69145 2.64039
0.126981 4.26282 2.2311
-1.48477 1.8056 3.22432
-0.852834 2.4443 2.70436
3.543 0.386636 3.89338
1.37431 3.72691 2.62183
2.8658 0.756474 3.64587
-0.216156 2.43612 2.85787
-1.36219 0.209353 3.25915
1.22593 0.69093 4.03403
-0.196514 3.69153 2.44881
1.41851 2.60012 2.93255
3.66611 2.21704 3.19644
1.89103 1.11906 3.63928
0.272075 3.78618 2.48655
-0.922237 2.60958 2.80381
-0.673042 0.62392 3.36818
4.4572 0.835596 3.60155
1.30533 0.480501 4.15914
0.0980904 3.88808 2.48988
4.94423 -0.733913 4.06423
-0.950852 2.16217 2.86822
1.43731 3.49315 2.69046
0.466984 2.02635 2.97445
-0.151472 3.28692 2.48481
4.24163 -0.635575 4.0133
1.62546 0.756932 4.08947
0.728296 3.50325 2.59497
