ply
format ascii 1.0
element vertex 1925
property float x
property float y
property float z
end_header
-0.222417 4.52902 2.19145
2.85192 1.60622 3.26751
1.00659 2.38642 2.91715
1.68604 3.25965 2.80701
2.6741 -0.310135 4.31123
0.775087 0.871999 3.89723
1.85131 1.66446 3.40403
0.275456 3.81673 2.41063
-1.26077 0.421049 3.83797
1.4238 4.60214 2.31786
-0.621301 -1.09413 4.77999
-0.322204 4.36953 2.2336
1.75075 3.79421 2.57783
0.230826 4.29 2.26531
4.03782 -1.00684 4.88073
2.35748 2.3033 3.05143
3.39026 0.39359 3.99092
0.703862 3.01055 2.61796
-0.679831 1.70165 3.28664
0.142586 1.77275 3.18377
0.541668 -1.39672 4.67053
-0.634014 0.903012 3.63934
-0.458713 2.41825 2.71072
0.498642 3.77013 2.44598
1.14589 3.15221 2.59617
0.214556 0.251436 4.38448
3.64431 1.51989 3.39271
4.03764 0.12901 3.96014
-0.136931 0.873787 3.85665
-0.642069 -1.22285 4.27316
0.731489 3.08084 2.59633
-0.569017 3.7347 2.32564
-0.0182755 2.38566 2.82884
1.74194 4.51892 2.32607
-0.470192 3.88979 2.22041
1.3172 3.55819 2.58683
-0.993762 3.69851 2.38509
-0.556693 2.75977 2.57184
1.61009 2.11895 3.13632
0.750103 4.76561 2.32581
4.01186 -0.627378 4.0455
0.886325 1.27235 3.51484
2.9868 1.23629 3.5696
1.83037 2.09799 3.27659
-1.02324 4.3586 2.15714
0.675545 2.69249 2.67004
3.1632 -0.504641 4.21896
1.70612 3.5546 2.6716
0.423829 4.08858 2.31936
2.24844 -0.810437 4.90968
1.7181 0.6645 3.92864
0.184267 2.84301 2.51771
3.90775 0.282356 3.76787
3.0432 1.4698 3.61189
-0.688328 3.89068 2.10015
0.37802 2.288 2.97336
0.0260179 3.49791 2.42393
0.501322 4.46599 2.26433
0.605285 2.79473 2.59446
0.28534 2.20384 2.99455
-0.709511 3.58624 2.39416
3.66765 1.28783 3.5441
-0.219367 4.10834 2.21082
3.01937 -0.0629593 4.14083
4.20843 0.219273 3.81663
-0.280577 4.05812 2.27708
2.46563 2.8106 2.82234
-0.64788 0.294973 4.04336
-0.486315 3.52513 2.49231
1.07088 1.38112 3.52008
0.50886 2.06274 2.94796
-0.127476 2.33116 2.98129
0.900601 4.27574 2.38904
-0.321199 1.60193 3.3501
-0.0141189 3.43296 2.37284
0.0125746 2.8593 2.51494
0.861144 -0.196679 4.61936
-1.13083 3.26472 2.45098
2.48473 -0.128431 4.17303
-0.23926 2.23257 2.98458
-0.484124 4.20227 2.25728
3.31913 1.26492 3.42422
0.498306 3.64582 2.49007
-0.409686 2.82913 2.56699
0.0160517 3.84584 2.36062
1.98891 3.44349 2.732
1.28124 4.59404 2.30754
-0.112059 2.60017 2.72914
0.00902531 1.93148 3.10367
6.04612 0.262256 4.8376
4.09292 0.862587 3.65944
-0.822285 -0.910058 3.99847
0.502857 4.28258 2.07567
3.60735 0.767862 3.6557
-0.0305927 1.824 3.05515
3.37558 0.416435 4.06668
1.93316 2.57429 2.96581
3.10457 -0.913088 4.41522
1.35589 3.29152 2.63921
3.9242 -1.38511 4.37746
3.2823 2.74828 2.9021
3.81508 0.118898 3.91005
-0.129504 3.37638 2.45518
1.18451 3.96605 2.43006
-0.648847 1.34096 3.37621
1.47146 4.0738 2.45082
1.50287 2.03648 3.14686
0.395255 3.27082 2.47093
3.637 -0.916866 4.22946
3.32715 2.62812 2.89067
4.13016 -0.718735 4.09623
2.42893 1.92395 3.22409
-0.651833 3.84209 2.18348
2.4369 5.17578 2.53256
-0.477866 1.28779 3.56201
2.01278 -0.429421 4.57676
0.203349 4.08458 2.46606
3.49571 -0.792019 4.1975
-0.490467 2.57197 2.67998
-1.25007 -0.283811 4.11158
1.25058 3.39177 2.66232
3.11975 0.928004 3.6473
-0.584649 1.95707 3.08293
0.406521 2.03078 3.02441
2.13295 4.24927 2.47535
0.497581 1.35764 3.63682
1.01627 4.0293 2.40638
-0.363043 3.38401 2.45235
-0.274332 -0.8558 4.99935
1.22501 2.71847 2.74251
1.52915 0.733821 4.13104
1.33531 1.98554 3.19646
3.44402 0.966126 3.55598
-0.755633 3.83945 2.18349
0.421439 -0.674714 4.7872
-0.659983 3.34251 2.45823
2.57022 2.68051 2.89931
0.583224 3.76787 2.51936
-1.09308 0.768024 3.77132
0.0626277 4.1995 2.21177
1.60899 1.64406 3.34521
4.21751 -0.385024 3.93614
1.77879 2.38386 2.97904
-0.900937 2.96828 2.52023
-0.115177 2.98338 2.46522
1.95147 3.84571 2.55593
3.50319 1.51504 3.54996
2.82238 4.81963 2.60989
0.885427 2.28448 2.90881
-0.828616 0.281069 4.15001
0.833054 2.98042 2.60346
-1.46444 1.78411 3.22721
-0.70925 3.15463 2.42266
1.26883 -0.00197178 4.56947
1.67844 2.59485 2.97549
3.13089 1.69787 3.25355
2.18557 3.96365 2.58525
3.23664 0.79486 3.62881
0.763659 3.15046 2.57161
1.17419 4.59347 2.3052
-0.512868 2.4353 2.72073
2.32659 0.00142023 4.14139
3.16233 1.63328 3.37695
-0.777228 0.910447 3.61305
-0.641425 3.74018 2.26732
3.82196 0.513661 3.89641
1.94389 4.49384 2.35444
4.33952 -0.762446 4.38093
-0.827739 3.73003 2.29894
3.62517 1.70786 3.35895
2.84886 -0.572186 4.08354
1.05238 2.48027 2.86494
0.543246 3.06547 2.45623
1.37312 0.963824 3.83705
1.43757 1.82144 3.37206
3.00201 1.78127 3.16036
1.34239 4.60799 2.31357
2.10132 1.10457 3.76698
1.99935 -1.03469 4.76691
0.575876 3.2609 2.49862
3.5076 0.271706 3.80704
1.18654 2.60185 2.78097
1.22428 1.88939 3.28639
2.98691 0.503938 4.11555
4.52359 1.02627 4.0681
0.682538 -0.850816 4.50236
-0.120467 3.91494 2.38814
2.13673 3.37197 2.73453
-0.166204 2.57992 2.76714
1.32558 4.01178 2.4482
-0.634513 2.96832 2.57672
-0.628602 3.56336 2.42001
0.879244 2.22437 2.91042
-0.483508 4.12932 2.2432
0.223244 -0.15674 4.58265
-1.04234 -1.16737 4.14783
4.81306 0.402002 3.62382
2.19529 1.39105 3.26616
-0.239443 1.56489 3.38685
1.71549 2.17518 3.04853
3.77717 0.437244 3.68435
0.355943 4.14236 2.22694
1.96812 -0.069315 4.1646
0.961998 3.65277 2.49067
-0.0178365 2.80216 2.52811
-0.70368 2.41941 2.76251
0.971967 3.13024 2.62274
3.69148 -0.412764 3.84058
4.99462 0.70543 4.34275
0.15855 4.30208 2.24988
-0.952909 1.83196 3.23427
0.271032 3.67238 2.41515
-0.612345 4.2172 2.14746
-0.4586 3.00978 2.52867
-0.622675 2.37459 2.84086
0.718937 3.74762 2.42498
-0.924237 1.74092 3.25098
2.86076 4.7564 2.55207
2.88342 0.257382 4.07398
-1.34839 3.6654 2.34038
4.63903 -1.39831 4.72443
0.563366 3.46225 2.34161
0.857037 4.25366 2.31161
-0.539118 -1.09236 4.80127
0.767017 2.239 2.91167
3.47619 0.284343 3.93532
1.90398 1.49762 3.42829
1.96529 2.98943 2.737
-0.230643 4.13048 2.10404
3.75904 1.50529 3.29309
-0.246225 3.70534 2.41663
3.46341 0.610365 3.70739
0.202808 3.02139 2.48637
3.95141 -0.0825659 4.21137
2.30303 2.4406 3.05547
3.08708 1.46458 3.31416
1.13094 -1.56715 4.79268
1.79414 5.04103 2.37043
0.449581 3.8245 2.46456
1.90321 3.04348 2.69007
2.76043 0.130959 3.99222
-0.841041 2.32772 2.75935
-0.44963 1.43411 3.55094
-0.678999 3.42164 2.43425
1.31388 4.04709 2.41572
-0.519092 2.70578 2.58282
4.91002 -0.714791 4.06399
1.17594 0.765835 3.95485
2.73185 1.96256 3.13234
4.27328 -0.768036 4.56615
-0.29778 1.32905 3.5657
2.47153 5.09073 2.53803
2.59054 1.93843 3.21982
2.30535 2.73563 2.90102
3.16782 -0.602117 4.05008
1.68421 3.49079 2.67184
3.21445 -0.797857 3.98684
-0.142484 2.84965 2.5631
2.02995 0.558713 3.98058
-0.0450277 4.00788 2.29155
-1.42722 0.6106 3.32998
3.68265 1.28704 3.46616
-0.85983 3.91162 2.15892
0.177659 2.26758 3.02131
1.94033 3.62083 2.63515
-1.08524 3.08592 2.46125
2.22856 2.90071 2.87402
-0.110812 2.14362 2.9511
1.86702 3.71228 2.63698
-0.849771 1.47631 3.31144
1.5209 4.16119 2.32696
-0.902155 -0.0826187 4.17757
1.93598 2.85499 2.80844
1.11764 3.55205 2.55125
0.861022 4.80381 2.33054
-1.66346 1.70861 4.45343
-0.733093 3.88746 2.19458
-0.631126 2.09276 2.83162
2.44691 0.0407669 4.14316
1.5009 2.81949 2.83279
2.30252 3.58507 2.69461
2.44262 1.1714 3.49267
1.30546 2.06477 3.13767
-0.150749 2.19557 2.89796
1.54125 4.10304 2.35309
3.1087 1.28273 3.35719
3.32415 -0.450329 4.06018
2.13452 2.99868 2.85597
-1.07571 2.5521 2.77597
1.12012 4.18428 2.32659
1.75925 3.65506 2.58997
-0.162172 -0.141132 4.46272
-1.48777 1.00178 3.39118
1.55463 1.02542 3.79779
1.14362 3.87133 2.46962
1.01613 1.88505 3.25784
4.67407 0.0691037 4.0284
-0.203074 2.50794 2.68393
1.72986 3.36402 2.7049
3.5613 0.714461 3.68698
1.1549 3.90912 2.43436
-0.645506 1.87695 3.1908
4.28498 1.9666 3.44002
-0.404314 2.44098 2.71154
0.463201 0.528426 4.16577
1.30193 3.22568 2.6336
3.72433 -1.02584 4.29636
-0.555458 3.32976 2.43932
1.21463 2.69538 2.78884
1.54886 0.263807 4.2074
1.43828 1.97586 3.14649
0.819465 -1.78456 4.72027
-1.2066 1.28638 3.57022
2.89943 -1.30798 4.45075
-0.456506 3.22217 2.41258
2.07681 0.309014 3.97596
0.998617 2.59314 2.75572
1.144 1.95121 3.22184
0.997859 3.97168 2.40927
0.34028 1.22468 3.74022
1.1037 4.0024 2.3813
-0.228422 2.60456 2.68911
4.61844 0.217677 3.71699
0.504161 3.22692 2.47318
3.08726 -0.613393 4.51891
4.3534 0.939815 3.80257
0.363825 3.93064 2.41669
0.668399 1.9282 3.12413
-0.658961 2.63667 2.79079
2.65506 -0.413897 4.54984
1.64708 4.54306 2.32259
1.56519 3.35465 2.68703
-0.0633454 1.1797 3.83181
0.866078 3.98592 2.41974
0.885145 1.8271 3.13451
-1.46542 -0.969235 4.17919
0.55556 1.96441 3.02566
2.59999 1.13184 3.70045
1.95665 3.52477 2.71734
2.84893 -0.837311 4.23794
0.424695 0.697722 4.23322
0.688355 2.63497 2.68396
5.01234 -0.807626 4.05729
-0.047392 4.0008 2.33777
3.75381 -0.715652 4.04974
1.78914 0.681856 3.87446
-0.0896883 3.60242 2.41105
1.8117 4.16993 2.29098
-0.239398 1.70812 3.2999
3.94054 0.204909 3.83625
2.42013 2.36823 3.09683
1.06712 3.03693 2.63637
1.6906 1.53845 3.48938
-0.397681 3.67753 2.38724
-0.680474 4.08139 2.11056
0.802481 0.161916 4.41998
0.468936 2.21754 2.86257
1.24951 2.98965 2.69595
0.258454 4.32014 2.14762
0.881518 3.1707 2.5669
-0.415262 -0.248709 4.43597
2.39888 2.43515 2.92276
2.83845 5.12999 2.52722
0.299021 1.79645 3.18575
-0.863157 3.79778 2.39957
2.80596 0.770616 3.63532
1.22286 3.14459 2.65129
1.68619 2.39741 2.95064
-0.971005 -0.0344092 4.06438
0.28973 1.70488 3.17215
1.03037 4.47776 2.31009
3.45472 0.644656 3.85434
0.645759 3.86617 2.44873
0.94182 1.95816 3.18897
2.24679 4.27661 2.57
3.56339 -0.462991 4.03954
-1.02469 1.11235 3.37903
1.69784 3.42009 2.67265
0.774903 2.589 2.72858
-0.371774 3.80454 2.30169
2.39613 1.83519 3.33344
3.52356 3.11772 2.88031
1.22138 1.08831 3.8522
0.462742 4.10419 2.4693
2.00333 3.39285 2.73575
0.750948 2.51714 2.75665
4.09344 1.1401 3.74023
-0.484036 0.757432 3.82127
2.04737 2.01673 3.13588
2.90049 -0.736632 4.50076
0.183576 2.65424 2.56381
1.51861 4.02077 2.40126
1.3854 3.52094 2.59964
4.57271 0.272976 3.71854
1.49901 4.09866 2.40076
4.36322 -0.678939 4.55511
1.27556 1.2043 3.54949
-1.91011 3.46029 5.44392
0.439909 2.59149 2.61564
4.12417 -0.249265 3.96972
0.574302 3.33925 2.49958
2.47697 2.36132 2.95558
0.159668 3.01974 2.47968
-0.569119 4.27537 2.17824
3.22673 0.649918 3.74855
-0.26264 -0.68954 4.4528
0.22461 0.148948 4.39909
0.52785 1.74268 3.23368
0.365106 3.65283 2.39855
0.167726 2.93876 2.49936
0.38202 2.29812 2.82157
0.162708 3.74773 2.39607
2.82807 1.48546 3.28693
1.76773 0.247887 4.12708
0.961391 -1.51806 4.78893
0.563411 -0.170192 4.75328
0.50061 3.90629 2.46668
1.43011 4.53793 2.31676
2.98673 2.42431 2.95069
0.181813 3.09204 2.45357
1.40779 0.0155483 4.32401
-0.158551 1.0549 3.68409
0.983382 1.85746 3.33564
3.57821 1.57512 3.38296
2.93977 -0.860065 4.40974
2.80614 0.650712 3.62101
3.63499 0.439202 4.08693
-0.147272 -1.23236 4.64971
-0.543215 3.05341 2.46732
2.40883 2.37116 2.96132
-0.513554 4.36956 2.22237
-0.804943 -0.553865 4.00237
1.38637 -1.46168 4.70636
3.00832 0.562029 3.80528
0.132127 3.72827 2.38339
0.760387 0.41897 4.21055
0.458869 1.12165 3.77368
-0.754196 -1.27467 4.48755
1.1856 1.90844 3.30358
0.691212 2.51711 2.75056
-0.157341 3.30176 2.55831
-0.00289117 3.80682 2.37644
1.71185 0.497879 4.11617
0.397828 3.86616 2.3743
-0.60566 -1.10536 5.02982
-0.958153 1.00696 3.63943
2.30489 1.71906 3.29816
2.94718 2.42926 2.9533
0.0485783 3.16221 2.51223
2.06075 4.37524 2.4085
1.3386 4.46349 2.30522
0.472516 2.83371 2.58361
-1.08877 3.6887 2.39267
0.762004 2.18554 2.95036
3.03815 -0.428968 4.39495
1.17632 1.52051 3.52547
1.69101 4.14222 2.37445
1.00866 3.53775 2.53047
-0.658778 2.85752 2.63833
4.21921 0.309252 3.73722
1.41178 2.15561 3.10413
0.440556 4.19167 2.30452
2.11616 -0.228583 4.76168
3.63302 1.166 3.40076
-0.0357224 2.30102 2.79344
0.752313 3.62688 2.53016
-0.0819569 3.00686 2.546
-0.493884 3.65245 2.42525
4.11703 0.162375 3.63242
0.398374 4.19533 2.25367
3.33563 1.50785 3.42983
-0.726974 2.28611 2.83411
0.0826099 2.89297 2.53499
1.6057 1.541 3.46306
0.0612862 3.62888 2.36862
3.7476 -0.632173 4.23763
-0.802782 2.15407 2.77399
0.0313902 0.288483 4.29754
0.141098 1.56525 3.44049
0.400942 2.81931 2.56705
3.82622 -1.32897 4.56997
1.18532 4.18788 2.32427
0.633008 0.433957 4.25357
-0.333161 3.55901 2.42576
3.60703 3.23894 2.86081
3.87163 -0.224334 3.87714
1.05866 4.21706 2.28905
2.42819 1.60751 3.48328
1.3124 3.72751 2.55631
-0.0642915 2.28997 2.78423
-0.430682 3.08468 2.60161
4.14202 0.0750436 3.75963
1.55123 3.76806 2.53305
-0.538583 0.176547 4.21441
3.66073 1.4437 3.60409
1.59943 4.2394 2.26366
-0.521475 4.4165 2.21468
1.92914 3.02233 2.76338
1.71178 2.26109 3.02618
2.35741 3.49964 2.70951
0.168053 2.61629 2.62188
3.18374 0.479382 4.07857
2.15846 1.9798 3.22224
1.97882 -0.827157 4.78959
0.753743 1.28184 3.66433
0.104977 3.9561 2.36131
1.10678 3.41895 2.6503
-1.20479 1.41589 3.37378
0.118275 2.54958 2.63916
0.246972 1.99593 3.17177
-1.47924 -0.617307 4.63184
4.20384 0.888283 3.49215
0.46681 0.855195 4.03473
0.965436 2.79612 2.67784
0.0577267 3.96206 2.31264
0.932728 3.55665 2.54682
4.66 0.157035 3.94199
2.56168 1.30316 3.52471
1.18522 4.11604 2.39964
1.12485 2.11389 3.03337
2.37786 5.14512 2.53146
-0.0623452 2.69655 2.58925
-1.10948 3.72885 2.31316
1.30247 3.51614 2.59789
-0.0568806 0.533087 4.15332
2.33193 1.19548 3.52115
3.31031 -0.987642 4.05139
0.113456 2.10037 3.04819
0.932188 -0.149086 4.6198
3.04457 1.87038 3.15965
0.334081 1.34337 3.73624
1.24812 4.10111 2.33702
1.73022 3.47109 2.66119
-0.635136 2.62583 2.58639
1.16547 -1.7391 4.73807
2.75047 -0.139843 4.0375
-0.00371546 3.99972 2.33708
1.62382 1.44588 3.67405
0.635583 4.11491 2.38259
-0.00127814 2.13336 2.94109
3.24282 -0.560023 3.97153
-0.240048 2.85663 2.67097
2.12915 3.65235 2.6663
-0.944764 -0.35079 4.43798
3.24396 1.98002 3.22058
1.47868 1.32309 3.64267
0.649232 4.18136 2.36284
0.00152215 3.46486 2.50808
-1.23686 4.13993 2.13732
1.25835 2.75131 2.73762
3.88535 -0.258387 3.93878
-0.378495 3.13584 2.46406
1.99217 3.87948 2.56309
1.48182 2.51771 2.94519
2.72952 4.9432 2.58858
-0.445507 0.207174 4.13529
1.95196 1.80193 3.40064
2.46294 0.805235 3.64174
2.3967 0.719021 3.76422
2.70895 1.62145 3.34982
0.868139 4.45163 2.33431
2.99262 -1.22354 4.13555
1.95171 2.4266 2.98333
4.17355 0.160004 3.94606
-0.83738 2.60221 2.6381
1.06768 3.08214 2.57844
0.912149 3.31711 2.5596
-0.0398559 3.80409 2.37563
2.72026 1.00214 3.61801
0.297386 4.00943 2.46737
-0.359916 1.95718 3.04687
1.83217 4.42075 2.33343
0.154526 2.48949 2.68608
-1.8694 0.026027 5.43603
-0.94741 1.96755 3.14385
-0.666348 3.17745 2.42546
-0.372771 1.16884 3.71252
1.74369 3.97774 2.43686
3.00805 3.00068 2.80662
0.41209 -1.85113 4.6688
2.15608 2.20936 3.0122
-0.209376 4.03398 2.20158
4.05716 -0.455856 3.91052
0.0296559 1.58463 3.31593
3.75098 0.0157837 3.82473
-0.19344 3.49644 2.39808
2.03419 2.94977 2.80365
-1.11768 -1.21993 4.22988
1.9882 2.14901 3.04885
3.84604 0.134752 3.86526
-0.653787 1.55516 3.31665
3.0281 3.80686 2.68723
-0.919067 2.43054 2.77316
0.721989 4.27832 2.32193
1.94142 3.18676 2.73015
1.03828 3.77479 2.52899
2.97384 0.646884 3.7404
-0.110404 4.18295 2.18654
0.816102 1.7459 3.35927
1.53005 2.35671 3.01714
-1.53941 1.8528 3.24337
-0.791745 2.96273 2.4741
-0.165398 4.35479 2.21135
2.15557 0.0419172 4.0537
-0.909969 3.66466 2.30812
1.20471 1.69117 3.50591
2.54683 5.06161 2.47345
1.61947 1.96751 3.16492
-0.650402 -0.619829 4.25298
-1.84966 1.55797 4.94554
3.73626 0.538765 4.017
0.301005 3.3009 2.4735
-0.330185 3.79454 2.24847
2.15615 2.67712 2.84646
-1.62985 -1.33819 4.16656
3.4765 -0.649424 4.6434
1.66932 -1.58678 4.70308
-0.520762 3.77602 2.18222
-0.81337 3.31276 2.46954
2.13962 1.32805 3.53523
3.82184 0.246345 3.82487
1.98388 2.09413 3.11409
3.47709 -1.0749 4.4306
0.550649 2.75198 2.61495
-0.680648 3.83544 2.16953
1.16611 3.52235 2.54132
0.712592 4.7857 2.32348
3.78744 0.354546 3.74586
1.84592 1.28299 3.66133
1.11204 -0.947959 4.95123
-0.0490306 2.06963 3.01486
-0.309251 3.96623 2.21587
-0.410367 2.70849 2.60308
4.10419 0.115154 3.65499
-0.904156 3.49203 2.48363
1.87752 3.52474 2.6396
-0.719763 3.87815 2.24111
0.962634 2.69471 2.67844
3.39698 -0.363937 4.43108
-0.718219 2.10658 2.98608
1.77004 1.30897 3.70429
-1.19797 0.21001 3.50228
2.65204 1.08167 3.61136
0.121755 2.0649 3.14586
4.27653 -0.0576787 3.83972
1.12039 2.67968 2.77861
3.45301 -0.194767 4.33653
0.101331 3.34026 2.49472
-0.323886 2.90232 2.6257
0.930216 4.16288 2.43408
-1.13071 3.8546 2.23358
3.86036 1.26157 3.45303
0.966492 2.2005 3.01833
-0.781217 3.87959 2.15019
2.29085 2.81075 2.79142
3.91384 0.214755 3.82731
0.332898 3.47255 2.47776
3.04279 -0.456331 4.26086
0.557273 3.60529 2.52458
3.59277 1.15818 3.43589
-0.476614 2.16809 2.9585
3.64216 0.150254 3.99158
-0.162606 1.80065 3.15524
-1.19844 -1.12226 4.02658
-1.18852 0.842664 3.64079
-0.802457 3.10831 2.4365
1.01186 4.16732 2.31729
0.0743104 2.4473 2.76237
2.64403 -0.909573 3.74654
3.04458 0.314999 3.9341
1.68796 3.8732 2.49459
2.0098 4.17446 2.47208
-0.428433 1.22841 3.60394
1.71116 4.45479 2.3266
2.66848 1.81789 3.2067
1.09442 3.90309 2.43298
1.05893 2.59287 2.77944
3.65245 -0.0854942 4.23922
0.134899 3.22487 2.4588
3.85288 0.052844 4.09241
1.62324 1.85871 3.29743
3.73135 0.753966 3.58418
-0.94722 3.28078 2.50209
-0.356452 3.79624 2.24942
3.84878 2.65078 3.09083
-0.885031 2.63167 2.77653
0.932169 3.88153 2.47306
2.30084 3.32762 2.71334
1.61287 2.63864 2.97282
4.04242 -1.17894 4.53147
3.35265 0.515738 3.82661
1.08671 1.89094 3.28859
-1.25824 -0.602748 4.2106
3.42335 0.836161 3.77045
3.51934 0.662003 3.55461
-0.406337 1.80664 3.14283
2.96964 -0.597082 4.10716
-0.222242 2.54153 2.8527
0.531724 3.13193 2.53428
0.743818 3.95799 2.45392
-0.348455 2.67103 2.67009
2.00791 4.12062 2.48007
0.0248136 3.33042 2.48655
1.73272 1.18633 3.66875
3.82906 -1.08392 4.31968
-0.52179 3.87076 2.29058
2.84384 1.89495 3.18821
0.780795 3.25968 2.51867
-0.804889 2.64428 2.70679
3.61038 0.446713 4.16779
0.983921 1.9461 3.21643
-1.16417 -0.923471 4.97042
3.57158 0.871362 3.54277
2.54934 -0.123999 4.13383
0.847335 4.13512 2.46246
-0.113741 1.65945 3.4406
2.07677 3.03334 2.7974
-0.943256 4.03043 2.18722
1.3615 2.2914 3.05374
1.21983 4.14702 2.26998
2.63005 -0.0154662 3.97995
1.70464 3.71991 2.5764
-1.38426 0.407295 3.31623
0.553363 0.922306 3.92445
0.0353227 4.19773 2.20029
3.52014 1.55145 3.41279
0.139806 3.67215 2.41424
1.29753 2.39767 2.92746
-0.349771 3.09911 2.53381
-0.686655 -0.458358 4.84411
2.48988 -0.266683 4.44614
0.239632 1.67769 3.3463
2.32456 3.92151 2.60795
1.34961 -1.36824 4.68769
2.57468 5.35406 2.56509
1.47213 3.09285 2.71649
1.32088 2.33636 2.97943
1.16425 3.03298 2.64432
0.801916 3.64943 2.492
0.734952 2.29494 2.87622
0.915446 4.29484 2.345
-0.0112033 1.66169 3.26074
3.90644 0.251348 4.7084
-1.38818 4.21643 2.22021
4.36187 -1.37387 4.6157
4.13798 1.51754 3.85145
-0.0278948 4.22621 2.13641
1.04296 0.526321 4.10499
0.314829 2.25186 2.90775
2.90322 -1.03933 4.18531
2.03066 3.02744 2.78726
1.20717 2.51421 2.94103
-0.787647 3.73342 2.42937
2.66392 0.138192 4.08971
-0.904448 3.11216 2.43457
1.03181 1.02496 4.00279
-0.643954 4.1411 2.15684
2.23947 1.65619 3.25605
2.09083 3.87249 2.57238
1.38402 -1.68502 4.6893
2.23607 3.15137 2.72025
0.182754 2.39273 2.82755
3.3785 1.52863 3.32615
-0.744861 3.74217 2.32082
-0.319736 0.891581 4.06527
0.902139 4.48883 2.32188
1.7865 4.8717 2.35842
2.66593 -0.610446 4.66747
0.13548 4.12054 2.37982
0.125764 2.68206 2.60655
-0.888676 -0.314263 3.95632
0.73095 3.47036 2.55419
1.65419 1.25852 3.566
2.24658 2.0318 3.21489
0.639417 2.14043 2.90939
1.40186 4.08724 2.35024
0.627619 1.53147 3.5111
0.922509 -0.948309 4.92296
-0.378032 2.86628 2.58437
2.1138 0.53944 3.93911
0.809044 3.63311 2.55504
3.81205 0.462919 3.74569
2.96204 2.07871 3.2038
2.41172 1.27019 3.50409
3.14257 -0.740352 4.18865
0.192704 3.45473 2.45458
-0.154954 4.05093 2.21171
0.789416 2.74659 2.63028
-1.13891 4.33031 2.17516
0.789013 2.35407 2.82406
4.21453 0.190606 3.76019
0.0952794 3.12037 2.57376
3.35996 -1.0946 4.6594
3.0983 0.668484 3.82408
-0.645196 0.516935 3.92703
1.72451 1.71018 3.38848
-0.168594 3.68866 2.40762
0.138938 0.687756 4.09996
0.255027 2.96769 2.53662
2.47594 -0.879012 4.81376
-0.898405 2.30128 2.73846
-1.13192 1.79084 3.34827
2.18449 3.86046 2.55666
1.42021 4.26481 2.27255
1.87822 1.7794 3.37608
0.276978 -1.49778 4.63411
1.25577 0.965479 3.84171
2.59256 5.43784 2.56926
1.381 0.30372 4.29052
1.80404 3.29159 2.72201
2.22646 2.48675 2.9708
1.13118 4.53192 2.30343
-0.173665 3.80706 2.37233
2.7 -1.35011 4.60358
-0.02555 0.411383 4.29002
0.43814 1.49168 3.56506
1.80441 4.04529 2.38162
-1.58459 2.94899 4.22882
1.90636 2.86915 2.81594
0.729623 3.52953 2.5288
0.282581 2.06793 3.02667
4.06402 0.0674783 3.78301
2.1874 1.21884 3.57162
-0.0337793 4.07358 2.28187
0.58492 -0.496385 5.32682
2.2277 3.58226 2.68815
-0.212266 2.74295 2.64667
-1.10185 3.65214 2.41133
-0.36021 0.739386 3.89859
0.712828 2.92705 2.60668
3.87201 -0.76496 4.2071
-0.96079 2.32306 2.87509
1.34386 3.66974 2.58951
-0.255815 4.18145 2.28501
4.23754 -0.660836 3.88376
1.22659 1.59534 3.52553
1.91767 1.46666 3.56482
1.97761 -0.552445 4.85495
-0.976952 2.30414 2.9687
3.81756 0.322506 3.7229
1.89941 2.92027 2.76302
1.76447 4.2024 2.30969
-0.289659 3.63831 2.4305
0.97117 2.84878 2.63721
3.51999 2.74859 2.95253
1.59636 1.49616 3.56227
-0.628096 3.90147 2.15705
3.22043 -0.0348154 4.35238
2.44038 2.14357 3.08173
0.918603 0.274452 4.22692
1.39884 2.88781 2.81274
0.0510716 3.495 2.47123
2.22678 2.04151 3.05374
0.40613 3.51464 2.44363
3.96349 1.158 3.49802
1.48279 4.15527 2.32824
4.88994 -0.83912 3.80578
-1.42974 4.17983 2.21347
-0.616415 -0.239659 4.36538
-0.205494 3.56566 2.38596
-0.360494 4.23468 2.26435
1.92889 2.24427 3.03089
0.66444 2.90156 2.58249
1.07319 1.55992 3.42002
-1.02917 -0.0796649 3.7917
2.06409 -0.869049 4.71166
1.60856 1.10454 3.673
-0.447538 0.628003 3.91738
-0.43776 1.9628 3.05412
0.231291 3.97073 2.44222
0.646556 2.57769 2.72738
1.24831 4.67712 2.30966
0.273013 3.2371 2.47285
-0.590357 1.88529 3.06408
0.149071 3.95901 2.36888
-0.820344 1.03443 3.578
0.265375 3.18353 2.49332
-1.34022 -0.8544 4.23598
1.47081 2.60323 2.91672
-0.670865 0.31462 4.08652
1.9414 3.54154 2.65015
1.94837 -1.15016 3.94158
1.44135 2.78915 2.80881
-0.0705459 3.96574 2.31389
-0.907147 2.11484 2.98864
2.4221 -1.42385 4.64713
1.61203 1.30872 3.66766
1.25141 -1.082 4.84066
-0.0106564 2.04117 3.07868
4.23176 0.253429 3.89182
-0.415875 1.31346 3.50898
-0.31684 2.67812 2.66824
-0.239413 3.28157 2.42797
1.32785 4.11738 2.4076
1.48606 4.83603 2.33069
0.331958 2.5823 2.61476
2.05183 3.41962 2.64241
2.12857 1.21411 3.80032
3.91183 -1.15886 4.26669
0.589723 -0.456423 4.77492
1.67493 1.9816 3.18975
-0.772018 3.28179 2.44737
0.0262956 3.97484 2.37806
0.263088 2.58566 2.70034
-1.00508 2.06808 3.15096
-0.238541 3.91079 2.27933
2.698 -0.263311 4.49754
0.959297 1.18161 3.74944
-0.899517 4.35643 2.12965
2.36257 5.21936 2.48313
1.43769 4.07705 2.38964
-1.01874 0.77285 3.71772
4.56587 -0.825062 4.81013
0.616148 2.67608 2.63282
1.50589 3.51218 2.60342
3.122 1.13068 3.54895
-0.700179 -0.582112 4.45167
1.22179 2.0946 3.18852
0.321221 4.29601 2.25246
3.74993 1.46196 3.17852
-0.405945 0.203463 4.30015
1.68824 0.806498 3.85406
-0.803984 3.63363 2.34311
-0.88679 2.97764 2.39623
-0.273969 4.41599 2.23667
-0.321552 2.44712 2.85602
3.48592 1.41905 3.30351
1.52577 -1.55135 4.71527
2.13027 3.88942 2.57858
0.198099 2.92616 2.49224
2.05452 2.31111 3.00887
-0.427957 3.75261 2.32956
4.03099 -0.236323 4.18856
4.22111 0.765332 3.54722
1.03813 2.53051 2.80278
-0.759457 1.93732 3.11819
-0.203567 3.18991 2.4699
3.51159 1.7829 3.26118
1.13084 0.973552 3.82807
2.2251 0.0421844 4.08371
1.49786 1.7915 3.35174
1.36814 2.48734 2.90732
0.970182 4.5561 2.31361
1.51054 3.28595 2.70144
-0.663284 3.73751 2.25492
1.19729 3.22114 2.63644
0.581192 2.44439 2.79349
0.24574 -1.26427 4.57735
1.35217 -0.972972 5.05818
0.847775 1.84788 3.34333
4.12383 0.356159 3.73453
0.196811 1.06133 3.86993
2.39191 3.12323 2.69824
-0.879808 2.4232 2.76962
-0.160312 3.7246 2.37398
2.21147 -0.717591 4.43314
2.01812 1.7174 3.49303
-1.16935 0.791805 3.92949
0.468596 0.951971 3.96746
1.91999 2.61934 2.86867
2.76819 4.06452 2.6588
2.26419 4.06481 2.57827
3.44247 0.191809 4.0148
4.39766 0.947061 3.65158
-0.31943 -1.20147 4.41515
0.0848609 2.52238 2.72284
0.170263 1.97902 3.16712
1.45697 3.93324 2.46665
2.62196 3.35691 2.73999
2.20412 0.406059 3.97154
4.01681 0.754629 3.58718
-1.07385 -0.77768 3.72333
2.61787 1.72181 3.197
2.20507 2.12884 3.04293
2.29181 4.25833 2.47472
-0.835369 -0.191032 4.08211
1.38025 1.45352 3.43624
2.12597 4.44766 2.45463
0.0405581 2.78455 2.52578
-1.1408 3.79858 2.29018
0.545054 2.10455 2.96459
0.0463878 4.13111 2.26055
3.3601 -0.209937 4.05134
2.20691 1.33312 3.56787
2.31391 3.65793 2.69288
0.299987 3.5857 2.4896
0.685669 2.75631 2.62805
-0.860541 3.63545 2.40209
4.42411 -0.391566 3.86397
0.815239 4.24129 2.30949
-0.737412 -0.484994 3.92886
1.47268 1.62173 3.40581
1.73385 2.37992 3.06272
-1.3615 4.31358 2.21064
-0.603715 3.01662 2.53452
0.152912 -0.299987 4.4942
0.347368 1.6266 3.4299
2.02693 3.85397 2.61858
-0.536275 2.29377 2.87766
0.789341 4.27683 2.26709
0.240755 2.87023 2.53158
-0.920513 2.93693 2.56061
0.172012 2.33136 2.8091
2.79624 3.15776 2.81674
0.650237 -1.04335 4.20164
3.48611 -1.09531 3.79687
1.50417 4.25122 2.30944
4.23043 0.167627 3.83319
-0.386906 1.72629 3.2472
-0.386765 3.64892 2.4138
2.11652 0.452703 3.93511
1.10146 2.98561 2.66258
3.51383 -0.952619 4.28271
0.565434 2.25821 2.8719
0.404054 3.69965 2.42647
-0.172154 1.6766 3.39073
3.15586 -1.54218 4.2195
3.57239 2.59386 3.0012
0.301923 0.197685 4.38216
1.44968 3.86095 2.51655
3.03991 4.85471 2.50592
2.06828 2.40234 2.9443
1.69723 3.22698 2.71981
3.268 -1.60277 4.48316
0.703033 0.9281 3.84117
-1.81035 0.218531 4.89709
-0.455877 1.79667 3.20575
0.452651 1.44416 3.67367
0.0243576 4.01702 2.33375
0.225255 -0.605987 4.97677
-0.931902 2.10777 2.92565
1.16355 2.76967 2.73478
4.94423 -0.733913 4.06423
1.4473 3.54998 2.61081
0.473759 1.99483 3.03082
-0.536154 3.93178 2.21358
2.8342 1.09487 3.55471
-0.0732999 3.34677 2.45942
4.24163 -0.635575 4.0133
0.859664 2.6847 2.72518
1.59672 0.66021 4.13901
-0.686469 2.90242 2.57252
-0.98438 -0.6444 4.03817
0.777546 3.55304 2.52686
0.212013 4.03971 2.25133
-0.213827 2.21014 2.87939
4.1801 2.21174 3.28384
5.13731 1.63149 4.12554
-0.241042 1.4905 3.38297
0.962456 -0.7751 5.04113
0.955653 2.16816 3.06232
-0.0413325 0.855617 4.02666
1.45692 2.90299 2.80033
0.402109 4.15787 2.27358
-0.935484 3.58119 2.40867
-1.10549 2.74464 2.72578
-0.0867047 2.83836 2.62981
2.38395 5.20544 2.53424
-0.493408 1.50104 3.35819
2.05225 -0.0417763 4.17654
0.668184 2.13185 2.97997
0.648208 3.36534 2.44205
0.368845 4.07873 2.33816
0.659342 2.71062 2.6386
-1.10804 3.68399 2.35336
-0.719574 3.49241 2.41027
3.13164 2.00537 3.2022
0.736824 4.22239 2.38583
2.15727 0.0945954 4.22709
-0.186575 1.39734 3.46715
0.819774 -1.34774 4.33443
-0.756804 -0.259139 4.07495
1.65736 3.67179 2.57903
1.86605 4.22931 2.36508
2.79517 2.98953 2.86863
3.39381 1.33409 3.4671
3.54355 -0.322919 4.0133
-0.557411 2.20087 2.83217
1.72704 -0.926913 4.66112
0.429563 1.92025 3.19972
0.312932 0.589507 4.22767
2.84948 0.907364 3.67346
1.31296 3.32745 2.63191
1.7541 3.90059 2.49476
1.38044 4.56185 2.31404
2.05777 2.58065 2.91711
2.14057 1.89411 3.5391
1.57116 4.4936 2.31716
2.72833 0.814514 3.67289
0.478468 3.93734 2.40723
0.3122 3.16795 2.51738
0.214618 2.44879 2.75376
0.979486 1.23251 3.50746
2.38985 0.193486 4.0163
2.89226 -1.59021 4.33348
-0.397826 2.00888 2.95554
3.32536 2.68957 2.89731
0.396799 3.96262 2.36452
3.30075 3.60708 2.72896
-0.990562 0.310494 3.88663
3.19165 0.246579 3.98469
2.30202 1.10695 3.7334
1.94465 -1.19587 4.43359
-0.647182 1.96637 2.99946
2.28823 2.63672 2.87314
4.62116 -1.15145 4.11959
1.79976 3.4355 2.68008
1.01697 3.39064 2.61313
-0.332888 3.96493 2.28091
1.60771 2.71062 2.90948
-0.0819828 1.95946 3.04839
1.9088 4.35097 2.351
2.27063 -0.53171 4.38371
-0.606827 1.26488 3.51388
-0.528576 3.77066 2.26437
1.20532 3.27734 2.58762
1.90399 2.60431 2.93538
-0.335535 1.95636 3.15775
3.9873 -0.822888 3.95016
2.66146 0.892964 3.59569
-1.03331 -0.275145 4.19247
-0.136967 2.7115 2.58944
1.94729 4.05367 2.4872
0.62253 3.48403 2.52705
2.79411 1.16067 3.48134
2.22275 0.562348 3.98045
2.31133 2.01847 3.13455
-1.21128 -0.6801 4.24701
0.748962 4.17274 2.46286
2.51051 2.74321 2.90831
3.89907 -1.17457 4.06276
2.26026 3.49701 2.67967
-0.417229 0.796622 3.93865
2.41183 1.10733 3.51884
2.10449 -0.719095 4.86617
3.18067 1.92212 3.22779
1.08628 4.09065 2.37801
-0.597899 1.74864 3.26792
1.98468 0.102355 4.1734
1.8038 3.76967 2.59047
-0.748043 4.11492 2.17073
1.50118 3.13388 2.72066
0.994331 4.78054 2.32355
0.0355532 2.35286 2.83657
4.14567 0.286373 3.63697
-0.384749 -0.825883 4.49106
1.15244 0.340864 4.33558
-0.937059 1.69834 3.33715
0.579388 2.9326 2.58967
-0.440645 3.71678 2.3985
1.14666 2.26951 2.94819
3.26556 -1.47677 4.10799
3.99157 -0.352978 4.09799
0.522018 1.0673 3.85683
1.11413 3.82369 2.47875
3.73011 1.60841 3.26697
2.50255 4.98085 2.5608
-0.147731 2.48372 2.77414
-0.597242 3.15564 2.45869
3.51364 0.635869 3.71138
0.22447 0.0326108 4.42799
-0.533397 1.78889 3.18566
1.57341 3.8902 2.48276
-0.632428 2.40096 2.72926
1.20078 4.42192 2.30153
0.0288482 3.10225 2.53128
0.649615 3.07678 2.54016
-1.48477 1.8056 3.22432
-0.816377 2.43512 2.74677
3.42375 0.323408 3.96737
-0.577757 1.80597 3.20915
0.572898 -1.08094 5.01778
2.77186 0.697842 3.72051
0.655728 3.05894 2.6054
1.38789 3.7877 2.52988
-0.180305 2.4163 2.89651
1.01891 -0.810317 4.76109
3.47552 1.55546 3.48582
2.76159 -0.824036 4.35595
0.456065 -1.55018 4.66491
1.21527 0.669981 4.04732
-0.0923168 3.76242 2.38931
1.41993 2.62979 2.93115
0.553523 3.19831 2.49096
1.86214 1.0114 3.74236
0.358557 3.84713 2.40994
2.82265 1.79702 3.3102
-0.881189 2.59703 2.84094
2.82343 -1.48029 4.55976
-0.638378 3.09105 2.39964
4.4572 0.835596 3.60155
1.29291 0.455351 4.17373
3.30539 1.67131 3.32527
-0.86853 -1.11914 4.30284
0.193747 3.95388 2.41188
2.64286 2.05304 3.06657
-1.41423 -0.327367 4.26894
1.86382 1.38619 3.52454
4.35435 0.470011 3.80978
1.75782 2.89905 2.81346
1.76777 4.18188 2.38971
1.28508 3.59629 2.57934
0.431211 -0.144742 4.80823
-1.29769 4.03734 2.15696
1.49222 1.56498 3.44751
0.344004 0.856029 4.18557
1.54826 3.73191 2.62042
1.05943 -0.771105 4.93505
1.68479 4.18218 2.33145
0.736165 2.27862 2.92155
3.71424 -0.0676907 3.96669
0.518965 2.93749 2.58867
3.89982 2.14071 3.17857
0.811311 -0.498581 4.75811
-0.391333 1.62162 3.45468
1.19973 3.74673 2.55095
-0.518345 4.13526 2.17715
0.201045 4.30815 2.16692
1.7221 2.99641 2.80745
2.50701 0.563474 4.0261
1.6438 -0.767596 4.50048
1.05425 3.80239 2.46128
2.67022 4.46359 2.53727
4.94581 0.570359 4.0918
0.0488741 2.39485 2.76647
2.82567 -0.686432 4.40888
1.2807 3.20776 2.67539
-1.06635 0.894855 3.6951
1.21441 1.78062 3.40527
-0.862652 1.96418 3.10698
1.88387 4.57237 2.34708
2.02118 1.01564 3.73056
0.747995 3.29867 2.57856
3.29379 -1.28736 4.77083
0.14541 3.76793 2.34126
-0.109209 0.452765 4.19657
2.75774 1.67805 3.2383
1.6571 2.65604 2.96728
1.52272 0.991753 3.86001
1.22042 3.91126 2.41721
1.17327 -0.997957 4.84551
-0.475048 3.25498 2.53705
0.139692 0.582716 4.01639
2.80263 2.46646 2.96247
3.07727 1.34686 3.41967
-0.0567984 3.37284 2.34428
0.519452 2.16605 2.87256
1.1587 4.12785 2.33342
-1.28354 -0.303557 4.08882
4.63072 0.661628 3.76546
-1.40953 0.427116 3.32549
-0.0644553 2.85697 2.55855
3.11985 1.25133 3.43144
-0.300842 3.5499 2.40401
-0.691364 2.14586 2.86197
-0.563247 3.98328 2.1336
-1.21211 -0.037957 4.12774
0.747896 2.79454 2.63231
0.570961 4.1696 2.07205
-0.519206 2.42747 2.86995
1.80139 3.14589 2.74377
2.79275 -0.531285 4.23958
-1.22743 3.89618 2.29543
1.08333 4.23688 2.28096
2.71906 1.5398 3.33925
1.5862 3.70195 2.53042
-0.058495 2.97659 2.5779
2.17623 2.231 2.98207
-1.00357 3.49819 2.42848
-0.597371 3.67783 2.36704
0.769196 -0.854063 4.7187
3.3711 1.45527 3.51352
-1.20969 2.9881 2.52861
1.70132 0.293095 4.15999
-0.846658 -1.4168 4.3704
2.07858 2.24183 2.99219
1.73549 1.50054 3.34677
-0.672732 3.00111 2.57398
-0.402074 3.55022 2.40305
1.72749 4.20456 2.34255
-0.398355 0.458907 4.13447
0.419835 4.41768 2.20885
2.83097 -1.21268 4.53711
1.75761 2.97936 2.78379
-1.01987 1.62858 3.3618
1.11912 3.70986 2.51145
1.1428 2.20882 2.99189
2.67983 1.55283 3.36476
0.759233 4.34454 2.33563
0.444102 2.96105 2.50898
0.338793 0.0448816 4.43541
-0.57852 2.37265 2.80115
0.625912 -0.963943 4.75311
0.979931 3.74924 2.48194
-1.28714 3.06009 2.53879
3.4374 -0.0328073 4.06331
3.84766 1.03821 3.61695
1.19351 3.97602 2.39746
-0.186631 2.01556 2.97065
-1.32926 1.30843 3.39037
1.51096 2.77374 2.86194
0.902368 3.40548 2.554
2.82943 1.02808 3.6341
0.455928 4.08363 2.39064
1.04227 -1.66998 4.65776
0.617973 1.95698 3.10901
2.70189 0.625199 3.81107
-0.674544 2.67211 2.69568
2.73179 -0.677243 4.36136
0.0775002 3.30263 2.49276
-0.704245 -0.878204 4.12185
-0.860545 2.89366 2.64051
2.39171 0.421105 3.90195
-0.726914 2.15857 2.87739
4.12147 -0.446678 4.0012
1.81214 1.41509 3.56959
1.5301 4.10251 2.39101
0.577485 -0.877422 4.82556
-0.258086 3.4388 2.45529
3.39054 0.453434 3.94143
-0.682498 2.79514 2.63744
-1.19096 3.7268 2.27068
1.98733 2.04058 3.12912
-0.162382 3.98562 2.20331
2.25224 1.21533 3.49556
4.29499 -0.31723 4.03732
-0.741175 2.80089 2.6423
1.75828 3.58644 2.64833
-0.344182 3.54009 2.46017
0.757384 1.36624 3.57127
0.265425 4.13704 2.42328
-0.462071 2.11344 2.97175
4.68871 0.226188 3.7641
1.39365 0.0349314 4.5946
0.24272 2.61352 2.6047
0.507017 3.23847 2.40187
0.566646 4.11797 2.36769
3.23095 1.00183 3.41541
1.8271 4.88482 2.35591
0.716744 2.06677 3.16726
2.33236 2.08697 3.08201
0.726056 1.4412 3.45443
0.14158 -0.410818 4.56807
2.05367 2.89002 2.81601
0.796419 4.14496 2.3411
-0.430465 3.51537 2.43918
2.65891 -0.378932 4.18383
3.92842 -0.366454 3.96851
-0.361419 1.08854 3.66831
0.972749 3.87171 2.50493
0.21823 1.85522 3.20653
4.46199 -0.264641 4.1454
1.0794 2.49117 2.85989
0.353392 3.12494 2.48
2.16816 3.97253 2.5551
0.247427 1.73485 3.18284
1.93733 4.44236 2.35076
1.2834 0.90477 3.9699
-0.780787 0.376843 3.83857
-0.600903 3.09783 2.48128
-0.761718 -1.05798 4.31561
1.53707 2.47057 2.97828
2.18065 3.44599 2.7005
2.33408 0.0850272 4.19529
-0.284035 2.62344 2.66819
-0.499628 1.99194 3.03422
3.39354 2.05045 3.23862
2.58845 1.01537 3.56217
0.797329 4.00603 2.46553
3.95726 -1.53654 4.34665
-0.29585 0.336277 4.29331
1.14218 2.61701 2.88845
2.85169 1.75603 3.22015
-0.310228 3.25456 2.49033
-0.26202 1.16154 3.62664
0.629215 4.05937 2.43447
-0.462395 2.60586 2.75283
3.92621 -0.63946 3.90838
2.33919 3.38724 2.72216
2.04767 -0.708467 4.99775
0.650178 1.15684 3.86044
2.2016 0.736022 4.06971
2.42289 1.83645 3.31157
-1.03883 -0.417775 4.21638
-0.507802 3.22193 2.51428
1.41632 3.94174 2.50807
0.745708 2.4897 2.82766
-0.219429 3.80546 2.29355
-0.480316 1.85367 3.13007
1.98951 4.22377 2.41841
3.7123 0.733156 3.67687
0.857149 4.60182 2.32403
2.30945 0.443968 4.029
1.26938 3.39439 2.62171
4.57084 -1.05874 4.80964
3.39498 2.68539 3.00103
3.98546 -0.743066 3.91194
0.82266 4.07795 2.45072
0.0395444 -0.818103 4.72031
0.337774 1.99304 3.14119
2.84626 0.512809 3.96477
2.34533 1.01195 3.50606
0.124998 1.67341 3.40442
1.24137 4.21295 2.33402
-0.596059 0.0569576 4.17395
1.63448 2.37541 3.11571
-0.57904 3.61592 2.44464
1.34077 3.03597 2.72633
0.558573 4.35984 2.21673
-0.910098 2.26053 2.87883
-0.345108 3.64744 2.40688
-2.38571 2.69493 6.39351
0.331957 4.20007 2.23835
3.84301 0.334243 3.69315
0.536177 2.83282 2.57719
1.87299 3.24458 2.74512
1.55706 -0.287938 4.6601
0.920491 2.39202 2.82743
0.894207 3.74523 2.46974
0.0100846 1.80215 3.27074
0.892674 -0.849414 4.75542
1.18729 0.885468 3.84846
3.14589 -0.354007 4.15213
3.98097 -0.320072 4.17163
0.982375 1.70095 3.3822
1.60009 2.37656 2.99279
0.913751 3.85558 2.48848
-0.301856 3.05318 2.55339
-0.73801 1.38687 3.35249
-0.892913 3.86187 2.21493
2.40405 2.03876 3.1944
2.06465 4.78499 2.44056
-0.263366 2.78021 2.66564
3.20344 -1.62497 4.30722
-0.0831725 3.40474 2.44724
2.45209 4.27905 2.5427
4.06649 1.05979 3.75985
0.168753 2.06394 3.10849
-1.24113 -0.110855 4.28722
1.378 2.71049 2.80669
3.48408 -1.49609 4.14246
1.14394 3.43966 2.5981
2.9473 2.98671 2.8725
1.95804 -0.33892 4.60559
0.506897 -2.09675 4.43745
1.35477 2.24097 3.07883
0.368179 4.17809 2.35076
1.76162 1.47756 3.52402
0.454208 3.50487 2.4925
1.77547 -0.195595 4.29567
-0.281881 2.84495 2.64523
-1.10693 2.3773 3.16499
-0.296185 4.14035 2.25127
0.767208 1.40371 3.42727
0.841673 3.63285 2.53054
-0.281762 0.438752 4.2782
-0.822561 2.6241 2.75786
-1.29402 -1.06169 4.20621
0.921397 3.29776 2.60033
0.230465 1.20072 3.93643
-0.604476 3.70865 2.28215
0.0697517 1.9081 3.14678
3.4898 0.276714 3.72503
0.289012 2.43421 2.74302
3.96176 -1.0952 4.7978
0.803897 3.20907 2.58009
-0.206884 1.04967 3.65401
2.0741 4.03816 2.54728
-0.353544 1.85245 3.1567
4.25611 2.06761 3.32669
2.58526 1.83493 3.18283
1.65123 4.46084 2.31997
1.75232 1.12216 3.68156
0.850897 -1.39054 4.46237
2.42586 0.0621059 4.19918
1.32143 3.34556 2.59059
0.200496 2.54904 2.63568
-1.56177 -0.585422 4.18002
1.10197 4.0566 2.46081
1.86509 0.239448 4.07555
2.25039 0.999038 3.85534
0.785754 4.53351 2.32059
-0.137127 1.85885 3.04517
1.21186 3.87456 2.46376
2.53227 2.5925 2.97715
0.866875 3.30418 2.61141
2.55961 1.69899 3.2902
1.80672 4.01041 2.52021
4.09524 0.708523 3.72577
4.13995 -1.24079 4.42548
-0.191767 3.13433 2.46777
-0.957393 -0.469247 4.36566
0.151717 2.48471 2.79434
-0.488197 -0.736838 4.37116
0.659844 3.3957 2.54219
3.9137 0.382961 3.8345
-0.442551 2.71472 2.68954
-0.618646 2.04776 2.98848
1.04771 3.97665 2.40736
3.3867 1.02216 3.51664
-0.491702 -0.718514 4.59238
0.899662 1.21462 3.76109
2.97917 0.589682 3.88193
1.56014 1.87252 3.1265
2.74914 2.68905 2.97971
-0.671557 0.32291 3.94506
0.483151 3.28013 2.51134
2.51641 4.28884 2.60443
1.69299 -1.57774 4.69719
1.84618 2.37516 3.0307
3.90369 0.262722 3.72902
0.50764 2.98147 2.54704
1.53358 3.81982 2.62508
0.547977 4.30674 2.3214
4.04025 -0.220331 3.9708
1.68634 0.129381 4.34637
1.95069 2.25203 3.01301
1.75034 1.61582 3.36609
2.27716 3.01331 2.76498
-0.572441 4.31476 2.17108
-0.261034 1.65409 3.37839
-0.662916 3.7078 2.39796
0.293345 -1.01719 4.59607
0.952259 1.77493 3.35166
1.03363 0.921818 3.9804
1.98616 3.22001 2.74591
-0.661113 -0.305352 4.40139
-0.17969 2.48412 2.88384
2.40717 4.91383 2.54931
0.360812 3.78234 2.42761
1.45369 -0.137775 4.26969
3.34041 -0.98542 4.33001
0.298049 4.16175 2.2278
1.70092 1.60976 3.34903
0.862015 3.64156 2.47102
0.482674 2.30422 2.84412
0.902679 3.02318 2.61898
-1.3905 3.9324 2.3126
2.08702 3.82072 2.58601
4.11715 1.41391 3.59413
0.360265 -0.54536 4.59395
-0.540105 4.3908 2.19651
2.95364 0.367114 4.01265
1.60389 3.04747 2.75669
2.25468 2.21595 3.00342
0.35857 0.343293 4.36138
0.714698 3.17625 2.55525
-0.629006 2.48604 2.72933
-0.834825 3.85672 2.43621
2.1255 1.74129 3.2957
0.631017 -1.49251 4.72158
3.96052 0.699023 3.66898
2.80113 -1.19361 4.17584
-0.0493048 0.993665 3.96836
-0.380149 0.349812 4.19671
0.897795 1.77162 3.34724
-0.568987 2.36662 2.70539
4.19248 -1.31813 4.37646
1.73484 3.20743 2.71478
-0.727929 2.85233 2.62956
2.01962 3.92184 2.53263
-0.203795 3.43272 2.3971
1.03986 4.74904 2.31782
-1.1225 -0.448984 4.38619
-0.309661 1.49421 3.4361
0.850438 4.1251 2.39446
2.27492 2.06619 3.06428
-0.759825 -0.297382 4.64653
-0.73728 3.44835 2.44557
-0.344526 2.75592 2.63499
-1.35875 0.0409227 3.30674
1.03093 2.11936 3.17025
0.397265 1.40038 3.61994
0.151642 4.17249 2.33719
0.569021 2.14885 2.87778
3.51125 1.30984 3.46771
3.55801 0.389203 3.78365
1.82965 2.98802 2.81583
-0.538581 -0.718274 4.31094
0.142505 4.14051 2.25835
-0.245983 3.50712 2.39388
3.17406 -0.7446 4.41889
4.2788 0.112905 3.75347
1.59942 0.779899 4.1122
1.70111 2.15664 3.13851
3.84091 1.16721 3.44335
1.40165 0.156467 4.25042
1.47431 3.5997 2.59304
-0.160136 3.93741 2.23755
1.67659 2.9043 2.83391
4.15501 -0.238258 3.93394
0.170788 2.09929 3.0469
-0.0549459 4.05777 2.26171
-0.0239637 1.40715 3.55718
1.58013 3.57273 2.64588
0.488219 2.68069 2.6159
3.82923 1.49357 3.7154
0.709076 -0.122286 4.67927
1.40804 3.0258 2.73223
1.90329 3.68592 2.60941
-0.0102789 4.01291 2.18297
1.29544 2.29007 3.01859
-1.07643 3.71936 2.35732
-1.47323 1.20396 3.28987
1.48041 1.49496 3.52368
2.60695 -0.114894 4.05113
2.24628 2.14467 3.03513
-0.287443 4.21149 2.24754
-1.36933 3.85361 2.3029
1.16969 2.91536 2.69994
-0.170808 3.6303 2.42067
2.24436 2.64174 2.88252
1.74119 3.43067 2.68631
0.471452 1.275 3.81627
1.59151 -0.983937 4.61419
1.26485 2.01077 3.3165
1.80045 0.459945 3.97991
-0.900115 3.30399 2.51738
1.26313 3.90609 2.42807
3.91451 1.71869 3.34761
1.26739 2.58142 2.868
3.29248 -0.887124 4.58769
3.39033 1.84279 3.45824
3.78108 0.359518 3.76115
1.25451 1.05095 3.74929
0.769996 4.03402 2.44082
-1.61027 -0.31248 4.29843
0.580117 4.33332 2.56423
-1.0839 0.205697 4.07711
-0.940402 4.33225 2.17037
1.54974 2.76039 2.87504
0.438391 3.29114 2.46018
4.34869 0.152797 3.92783
1.39963 1.24127 3.65182
3.25198 -1.25404 4.21607
1.90565 2.03299 3.2626
0.806553 2.86849 2.63306
1.29981 4.12686 2.34707
-0.615607 0.189531 4.23826
2.09326 2.13081 3.00321
4.9797 1.55598 4.16951
-0.7567 1.52166 3.37342
4.08884 -0.718211 3.92093
1.45962 2.16085 3.11058
4.46735 -1.15544 3.83718
0.601244 2.75929 2.60594
0.888044 4.25463 2.35229
0.540723 3.56019 2.52986
-1.65909 0.205988 4.5989
0.329953 2.31884 2.82209
0.369871 3.57149 2.46758
4.75438 0.680798 3.52206
-0.154939 2.92849 2.44724
2.44959 1.53146 3.30599
1.46111 3.76679 2.58321
1.30041 4.29971 2.33854
-0.421669 3.05029 2.64271
3.57512 -0.248233 4.07643
-0.166466 2.33148 2.91381
4.17097 -0.210059 4.05086
1.20214 3.78211 2.51778
2.31215 1.45363 3.36558
0.439052 -1.08204 4.66655
1.0296 0.692142 4.07524
-0.140759 1.94387 3.02429
-0.654077 -0.646658 4.00338
2.4328 1.02161 3.56246
0.178146 3.23765 2.44769
0.0420737 2.57515 2.64864
-1.24115 -0.748132 4.88449
4.29976 -0.271679 3.9524
0.0459937 0.842649 4.06679
0.59062 4.18277 2.52928
-1.23564 0.932727 3.47936
1.26665 1.33027 3.57129
0.218808 4.09124 2.39354
1.38325 2.06973 3.11198
4.09457 -1.2346 4.42825
2.1332 2.7789 2.81053
0.284021 0.461288 4.21601
-0.372696 3.41922 2.43793
2.51604 1.97237 3.23125
2.05264 0.468744 4.09076
0.580313 1.32604 3.68711
-0.783132 -0.835352 4.00047
1.04553 3.39876 2.55767
-0.324848 4.04346 2.29565
1.8232 2.70976 2.82464
4.24579 -0.356574 3.92346
-0.718058 3.79645 2.22526
-0.381943 3.31015 2.42396
-1.51685 -0.42121 4.28467
-0.826071 2.68801 2.62344
2.57577 -0.380436 4.5354
1.96825 1.96479 3.15708
-0.373448 1.35797 3.54777
3.07541 1.06126 3.82835
2.89699 1.76248 3.10648
-0.492521 2.64113 2.6847
4.6418 0.27998 3.76603
4.6514 -0.379605 4.50544
-0.327557 3.26253 2.44864
-0.13807 3.90863 2.25939
0.0377436 2.71264 2.52244
0.127114 -0.638806 5.05008
1.84653 3.62772 2.62701
2.01644 1.3411 3.48644
-0.359065 3.89399 2.20216
1.24503 2.16086 3.09167
1.04278 3.46813 2.53895
1.33631 4.76907 2.32127
2.05268 2.80085 2.82503
-1.33216 0.0800003 3.31243
1.7673 2.13655 3.26438
1.1249 1.31622 3.50866
0.978712 4.19752 2.38126
3.88739 0.0333889 3.85268
-0.686805 1.81212 3.1911
-0.189571 3.11584 2.53401
2.36948 2.39961 2.98216
-0.27615 -1.20025 4.54172
1.52931 3.84933 2.51869
1.96041 0.354623 4.05154
1.24767 -1.56265 4.77499
1.48014 0.869656 3.94146
1.14124 1.09422 3.79424
1.83756 4.65184 2.34609
2.22354 1.78787 3.22126
-0.359872 3.75313 2.31699
0.929059 2.52112 2.76373
1.83573 -0.0162239 4.31903
-0.782606 0.179 4.06141
2.63138 1.67397 3.24072
0.511841 3.16647 2.46437
3.81461 0.702046 3.61596
0.0738078 3.90231 2.37349
1.99846 3.32057 2.73255
0.981297 4.62323 2.31402
1.2787 2.48402 2.88325
1.10164 3.23199 2.6154
0.472328 1.05431 3.84524
0.874535 3.81803 2.46641
0.0264318 1.80343 3.12392
1.63187 -1.54817 4.67327
0.635897 0.756305 4.19562
0.362816 2.44986 2.76913
-1.10518 -0.697864 4.29822
-0.542884 0.872353 3.76271
3.2885 1.58531 3.35631
4.73626 0.667092 4.235
0.476552 2.40115 2.83049
3.79507 -0.715912 4.30107
1.79168 3.22606 2.73559
-1.57233 -0.950426 4.54831
1.70805 2.71097 2.91863
0.525936 0.554246 4.10739
3.28429 3.48887 2.78198
2.0192 1.11692 3.72207
-0.510538 3.7256 2.29547
2.76553 1.83966 3.21121
-0.401037 3.7929 2.28905
-0.566149 3.19261 2.43306
-1.30956 0.797455 3.74778
1.76372 4.40686 2.3299
-0.768901 2.62424 2.75745
1.87196 1.90687 3.36901
3.97717 0.794059 3.65391
-0.778272 3.87234 2.27257
2.79313 -0.282291 4.20905
5.12597 -0.762016 4.2326
4.31367 0.0893947 3.76294
0.186033 3.58782 2.46724
0.652477 4.20941 2.31245
1.77908 -0.0239361 4.56396
0.0921778 2.78479 2.51139
2.17137 1.43633 3.50091
1.45989 2.25364 3.10827
1.70669 4.2106 2.30215
0.383453 1.69578 3.2926
-0.140006 3.61882 2.41143
-0.210975 -0.551268 4.69725
1.53047 3.12015 2.7147
2.64644 2.30078 3.00449
4.04862 0.37656 3.61335
0.378806 -0.702302 4.60973
2.178 1.51964 3.46749
-0.754393 2.91375 2.49777
0.725462 3.67558 2.42247
1.81414 2.27686 3.02248
2.32238 -0.363915 4.39416
1.00512 1.58671 3.42907
1.18447 3.63968 2.548
0.5684 4.21472 2.31522
3.26711 -1.4793 4.10682
4.24247 -0.381383 3.84479
2.98106 0.137688 4.02819
-0.382799 2.24637 2.79927
1.05016 2.97488 2.65627
2.03626 1.41815 3.43258
1.5477 3.67445 2.52267
1.3869 2.23901 3.07888
0.950928 0.478372 4.28794
0.593397 4.2909 2.3148
-0.211298 -1.29231 4.64026
-0.430057 2.86896 2.56018
-1.232 3.87582 2.32338
-0.794932 3.19899 2.57726
-0.90803 3.07147 2.48229
-1.08304 0.053524 4.07743
0.365797 2.39086 2.81265
1.62509 1.68684 3.2946
-0.0999681 3.66927 2.38155
3.63667 0.634622 3.79862
0.315608 2.97657 2.52644
0.226574 -0.790083 4.54418
-0.987765 2.39908 2.82243
-0.422245 1.69827 3.21381
0.630966 -0.406509 4.70214
0.549006 3.82621 2.46569
3.42434 0.528258 3.7732
3.50076 -0.794701 4.69842
-0.290154 3.94911 2.28198
4.71416 0.130597 3.93418
2.60136 2.69089 2.87204
-0.539715 -0.52291 4.54116
1.21871 3.42298 2.58601
4.43753 1.07167 3.71383
0.669049 2.02195 3.09902
-0.52016 2.18186 2.9405
0.884662 1.42755 3.48625
-0.478433 3.94077 2.22751
0.656031 3.4225 2.42899
2.39483 -1.00818 4.75757
0.408515 2.77734 2.61773
-0.802155 0.480205 3.91875
2.81761 5.30675 2.54419
0.953889 2.14792 3.19589
0.846684 4.17771 2.36229
-0.0913794 1.38208 3.47863
0.878475 -0.935515 5.01461
0.162235 3.37436 2.43396
-0.538459 0.662611 3.92075
0.546841 2.69889 2.62865
-1.37258 2.79774 2.6663
-0.487969 2.81309 2.55548
0.994316 0.113349 4.41955
0.84282 2.17843 3.03814
-0.750989 3.93735 2.19919
2.76039 1.31883 3.48438
-0.799234 1.40458 3.32899
1.05126 4.65545 2.31125
2.65657 2.03049 3.1476
4.44063 0.74742 3.63573
0.363601 2.69867 2.58458
1.44575 0.234711 4.29005
2.14119 3.60966 2.67648
-0.656164 3.53843 2.4316
2.49173 2.27181 3.04916
1.88199 4.21739 2.39963
1.94662 3.03949 2.73227
-1.38683 -0.174275 4.07511
4.10588 0.0394968 3.76339
1.82373 1.53718 3.38725
-0.644922 3.98983 2.12449
-0.438422 3.57451 2.41251
0.276219 4.39182 2.24561
1.45018 2.98415 2.74473
2.62179 2.1902 3.0762
0.808744 3.66662 2.46348
0.540374 1.53692 3.38908
-0.686569 4.0595 2.12705
1.14743 0.630448 4.11709
0.981001 -0.980467 4.77202
-0.734148 2.68051 2.78875
3.82027 -0.839149 4.22432
-0.871533 3.35699 2.52556
-0.285472 0.711491 4.00846
1.27107 3.95699 2.431
1.4013 1.09949 3.74099
4.10111 -1.19106 4.30042
1.99083 1.91302 3.32649
4.54753 -0.338958 4.08754
1.33395 1.26875 3.61273
-0.591849 3.86435 2.24712
0.224929 2.0656 3.0707
-0.645975 -1.38417 4.33367
4.77408 0.0699024 4.12762
0.465699 2.6182 2.59767
2.54275 3.54359 2.71169
4.15275 0.211911 3.97124
-0.842014 1.26994 3.46513
3.12757 -1.07475 4.028
1.78632 2.01269 3.31518
-0.0829733 3.28414 2.45445
0.843641 2.63438 2.73881
0.566581 4.09379 2.39064
1.76094 4.78581 2.34462
-1.10227 1.15421 3.39836
1.39372 1.96664 3.20074
-0.193767 3.87248 2.3199
-1.17038 -0.378236 4.43223
-0.735387 2.57711 2.57257
-0.425007 3.27182 2.42118
1.46693 4.49174 2.31894
-0.873672 1.07157 3.47286
-0.80152 3.74306 2.16835
3.34287 1.812 3.34201
4.79218 0.302222 3.935
2.23257 -0.29492 4.31137
-0.406463 2.61099 2.73865
2.08067 3.43869 2.73755
0.145132 -0.767028 5.21452
0.848512 2.7197 2.64557
0.496158 3.4377 2.49001
2.50203 2.04651 3.15443
1.43585 4.73553 2.32646
-0.907514 1.40839 3.31313
-0.0696139 4.00236 2.30709
3.99975 0.0597426 3.77101
-0.435771 3.34672 2.4278
-0.308765 2.71671 2.65263
3.68982 1.95641 3.30451
1.33401 4.07246 2.35671
0.818562 1.31312 3.64261
3.15421 0.0389812 4.00015
