ply
format ascii 1.0
element vertex 1926
property float x
property float y
property float z
end_header
2.86861 1.6796 3.23185
0.464995 0.632034 4.19313
0.933033 2.33925 2.84391
-0.350391 -0.799653 4.60861
1.61684 3.2226 2.67011
0.898341 0.711471 4.01694
1.92927 3.9919 2.47445
1.52959 1.67951 3.42912
3.03308 1.87971 3.36222
3.0534 0.940341 3.87283
-0.333839 -1.36334 4.37898
2.13352 2.59846 2.89836
1.12146 0.239979 4.2495
-0.658097 3.15918 2.45032
0.35563 3.88158 2.33877
3.69294 -1.06154 4.18611
4.04471 0.326617 4.01739
2.72451 1.41522 3.51872
1.3072 2.23152 3.11831
1.9161 4.14567 2.29025
-0.565312 2.89374 2.66472
1.79488 1.31719 3.59084
-0.639565 3.50265 2.39335
-0.359769 2.03738 2.96522
3.89314 -0.327293 4.01993
1.87819 2.89035 2.75409
-0.50862 3.93047 2.10659
2.11644 3.65453 2.57133
3.97352 -0.617368 4.16302
0.707437 3.00465 2.57343
0.828276 2.2864 2.90776
1.13453 4.25243 2.24004
1.98971 1.59879 3.46182
2.04886 3.80898 2.54756
-0.281465 2.93597 2.59586
1.22757 -0.517885 4.72361
-0.600516 2.18102 2.88664
0.151431 4.12366 2.11202
-0.823542 1.42831 3.30204
1.43707 3.79594 2.46931
-0.434083 2.91608 2.58061
3.56571 1.47861 3.44841
0.219656 3.52075 2.41373
2.45996 2.27237 3.01829
3.7112 0.097173 4.04384
-0.134698 4.09257 2.20037
3.9722 0.205998 3.91478
-0.828599 2.66269 2.44967
-1.02437 -1.3768 4.43164
2.5371 1.36715 3.39386
1.92521 3.77171 2.52121
0.3529 2.15434 3.00626
3.51416 1.65635 3.61076
0.102441 4.07771 2.14715
0.419086 2.94324 2.52081
-0.14416 -0.162253 4.30554
0.926298 2.27765 2.90487
-0.0399691 4.1256 2.11853
0.644897 3.72012 2.41988
3.25391 -0.0598964 4.2774
2.84039 1.07701 3.55692
0.434986 4.14826 2.44826
1.07729 1.9707 3.18791
2.36592 2.75979 2.83281
2.2594 3.52361 2.61126
-0.838623 1.88135 3.19631
0.827167 4.10979 2.36678
1.91088 1.0644 3.84335
1.02931 3.34489 2.53707
3.4106 0.576653 3.88592
-0.577469 2.61702 2.79905
2.21959 -0.807431 4.55887
1.8491 3.63172 2.55385
4.07507 -1.14763 4.46047
1.15748 2.82656 2.69387
3.53599 0.31178 3.82958
-0.612169 1.99851 2.91025
0.505909 1.35831 3.70062
2.27788 4.36999 2.47641
2.74688 -0.992258 4.86737
0.134945 1.25103 3.72435
-0.0587546 0.484397 4.09372
-0.465763 1.95363 3.00133
-0.427371 2.71301 2.68111
0.405844 3.39661 2.45736
1.1891 4.27347 2.36254
1.64987 2.82719 2.80627
-0.826575 3.49492 2.52698
-0.565103 1.17282 3.47728
0.520346 4.00844 2.30684
3.307 -0.326205 4.04529
0.987827 -0.185094 4.5582
-0.69412 1.97655 3.03773
1.01908 2.67506 2.74436
2.19169 3.53966 2.62418
0.993785 1.99549 3.22883
1.71646 4.07449 2.30234
1.45293 1.12702 3.71662
2.2798 -0.653328 4.46436
1.08055 4.19395 2.31834
0.0452818 2.64939 2.52917
1.08601 3.50857 2.47231
1.26882 1.31021 3.59056
1.05142 -0.516861 4.71054
3.76205 2.13259 3.11987
-1.40134 -1.31275 4.23845
2.52413 0.798097 3.74701
1.58322 0.236228 4.39216
2.13441 1.80412 3.47855
1.62823 2.50249 2.90268
1.84898 3.88523 2.46195
-0.419187 3.2033 2.56527
0.921032 3.84205 2.37859
1.18774 1.697 3.46739
0.875531 0.728206 4.11276
0.987857 3.11568 2.58382
0.605649 2.3381 2.84177
1.18496 3.98065 2.40552
3.23853 -0.0612363 4.3432
0.698735 3.31888 2.51614
2.03101 2.70845 2.89849
3.33994 1.96652 3.36313
-0.647175 1.02548 3.69215
2.50582 0.910776 3.73481
3.32932 0.0963529 3.9613
2.67891 1.84715 3.30199
1.43402 2.60422 2.91057
2.98036 3.67997 2.8696
0.0795574 3.959 2.33253
-0.0688999 2.49072 2.78048
1.69653 3.35133 2.60453
3.13574 -0.769996 4.22622
2.38932 0.892109 3.65261
-0.206947 0.591046 3.95652
1.63539 1.78726 3.20832
0.222525 3.7665 2.33132
2.11759 3.32685 2.66626
2.02817 -0.639303 4.37337
1.3281 2.47349 2.86851
1.74261 1.7393 3.35354
1.90398 4.01311 2.43292
2.42373 0.787769 3.69135
-0.120999 3.8805 2.28549
1.53025 0.342116 4.15458
3.78242 -1.11936 4.3409
1.77761 2.67045 2.85872
-0.109736 3.22649 2.44722
-0.331074 0.494331 4.17422
3.32004 1.03335 3.77574
1.7412 -0.989006 4.81911
2.39384 1.89099 3.22739
-0.413668 3.96755 2.12914
-0.108092 1.49629 3.48739
0.668984 -0.184848 4.55495
-0.273323 2.18675 2.90511
-0.380943 3.62126 2.48247
2.22502 3.02928 2.68654
-0.791637 3.66063 2.45176
-0.0666048 2.15173 3.00159
-0.32487 4.10848 2.16331
2.35558 1.41198 3.50485
2.4509 2.95879 2.72965
-0.148788 3.06993 2.54538
1.45507 -0.524496 4.68353
-0.744604 2.30608 2.80398
-0.2912 3.68869 2.39911
0.548966 1.62554 3.31083
-0.430509 4.12309 2.11733
3.50052 0.677414 3.87874
2.64895 1.569 3.41436
-0.0493522 -0.339035 4.33536
0.597955 2.25481 2.8739
0.389012 3.74439 2.37139
-0.682317 2.98148 2.55903
0.642459 1.79628 3.19514
-0.411223 -0.640459 4.57758
-0.064564 0.98388 3.99961
2.15783 3.47696 2.70012
-0.327217 2.4671 2.73336
-0.628885 -0.502562 4.69886
0.704717 3.99544 2.40909
0.579422 1.13433 3.71689
2.25581 4.18168 2.46607
3.16095 1.93958 3.11818
2.76339 -1.03689 5.15288
-0.502762 2.62756 2.69234
4.71345 0.480898 4.11326
-0.758678 3.39793 2.51121
2.41933 0.576847 3.81585
0.456578 1.86786 3.17403
3.53505 -0.776665 4.40447
0.0137535 1.05101 3.76624
2.25828 3.46978 2.62814
0.0108266 2.54725 2.71213
-0.52549 3.8817 2.22855
1.03347 3.03861 2.59773
0.303671 2.27033 2.87977
0.771273 1.57851 3.39782
3.31148 -0.163166 4.07232
0.158487 3.58538 2.38962
1.48106 4.23852 2.2308
3.87866 1.5318 3.55604
0.816523 2.20588 2.92098
1.13476 4.3262 2.21906
3.52923 -0.0487697 4.19546
0.369401 2.88009 2.53942
1.92689 3.82216 2.4825
-0.0769978 2.41341 2.79007
-0.497393 3.13645 2.50396
0.717758 3.82172 2.41811
2.1774 0.843046 3.8716
2.77731 1.71079 3.27804
1.01715 2.39805 2.91167
1.74503 3.31738 2.74716
2.51124 -0.341197 4.3929
0.690953 0.716827 3.9408
1.81352 1.68456 3.42244
0.419769 3.83772 2.37329
-1.29705 0.330946 3.85911
-0.679241 -1.15976 4.78549
1.83349 3.84633 2.49921
0.41312 4.31786 2.21435
4.01636 -0.999832 4.892
2.3337 2.37831 3.02475
3.25885 0.475433 4.05779
0.765306 3.02681 2.58935
-0.71983 1.53917 3.30768
0.10945 1.69002 3.23913
-0.682191 0.791173 3.66228
-0.444706 2.37864 2.75093
0.630791 3.79528 2.40099
1.20254 3.17661 2.54044
0.135058 0.125256 4.40771
3.54864 1.67097 3.40779
3.94427 0.22074 4.00039
-0.206199 0.709553 3.88334
-0.731528 -1.30257 4.29014
0.79716 3.09952 2.56294
-0.430999 3.75659 2.32313
-0.00310902 2.34982 2.85096
-0.32023 3.91744 2.2074
1.40214 3.592 2.51858
-0.515357 2.73926 2.60531
1.59808 2.14464 3.12861
3.9625 -0.593217 4.07517
0.827099 1.2003 3.54386
2.90275 1.32773 3.59619
1.81732 2.12745 3.26627
0.712862 2.70089 2.65727
3.04187 -0.480307 4.28354
1.77828 3.60703 2.60043
0.584072 4.11324 2.26818
2.12424 -0.867485 4.96054
1.62029 0.599982 3.97355
0.238741 2.84595 2.51043
2.98275 1.56391 3.63504
-0.536977 3.91784 2.09654
0.386135 2.2551 2.98884
0.140719 3.51808 2.40721
0.650236 2.801 2.57339
0.289105 2.15913 3.00408
-0.585488 3.60678 2.40425
3.56437 1.43363 3.56526
-0.0494118 4.12829 2.17321
2.86529 -0.0465066 4.22995
-0.110431 4.07842 2.24765
2.45314 2.90359 2.77038
-0.743991 0.115438 4.06796
-0.35675 3.55119 2.4967
1.01778 1.3134 3.55014
0.500503 2.03495 2.964
-0.117827 2.27188 3.01193
1.05952 4.30872 2.31569
-0.364742 1.46017 3.37917
0.0948034 3.45057 2.35913
0.0674576 2.86043 2.52318
0.730272 -0.355145 4.65358
2.32711 -0.167181 4.25491
-0.242041 2.17201 3.02057
-0.299149 4.23483 2.22776
3.21899 1.3915 3.45306
0.628694 3.67188 2.45022
-0.359393 2.81366 2.58965
0.165789 3.86844 2.32909
2.04241 3.50924 2.66021
-0.0790792 2.57877 2.74625
-0.0117623 1.85284 3.14591
5.98692 0.390019 4.83377
3.9566 1.02606 3.70902
-0.896459 -0.990525 4.01455
3.48026 0.902577 3.71284
-0.0604152 1.74685 3.1027
3.25504 0.484315 4.13585
1.93876 2.63416 2.93304
3.04927 -0.910692 4.4441
1.42045 3.32396 2.57931
3.83481 -1.37899 4.42239
3.23279 2.89159 2.85382
3.71373 0.215546 3.96062
-0.0243535 3.39363 2.4462
1.30183 3.9961 2.35325
-0.715712 1.16038 3.40946
1.58643 4.1178 2.36993
1.49054 2.05612 3.15225
0.482855 3.28826 2.43458
3.2603 2.77802 2.84576
2.38719 1.99973 3.21893
-0.501871 3.86816 2.18029
-0.550914 1.10318 3.60674
1.86845 -0.512582 4.64312
0.373854 4.11197 2.42265
-0.465619 2.54731 2.72181
-1.27655 -0.310114 4.11598
1.32797 3.42958 2.60067
3.01047 1.01805 3.68581
-0.615208 1.84004 3.12428
0.398814 1.99378 3.05428
0.43982 1.23302 3.66947
1.14821 4.05853 2.3352
-0.255751 3.40007 2.45228
-0.289612 -0.869539 5.00227
1.25333 2.74168 2.70584
1.44363 0.629822 4.17388
1.32009 1.98733 3.20159
3.32825 1.09001 3.59876
-0.607204 3.86821 2.18227
0.413275 -0.68602 4.79234
-0.564347 3.35194 2.47972
2.54966 2.77666 2.85093
0.705145 3.79892 2.46945
-1.13704 0.684323 3.78641
0.238082 4.22058 2.16372
1.57205 1.64918 3.36508
1.77569 2.43185 2.95705
-0.0487722 2.98891 2.47229
2.02749 3.90237 2.4741
3.41943 1.64316 3.56011
0.892286 2.28556 2.90585
-0.921688 0.117991 4.16329
0.887428 2.99683 2.56895
-0.629112 3.16288 2.45326
1.12678 -0.176016 4.61516
1.69186 2.63819 2.94074
3.04868 1.82143 3.25471
2.26166 4.02878 2.49777
3.11928 0.89355 3.67594
0.835135 3.16969 2.53533
-0.497731 2.38804 2.76164
2.17578 -0.0431168 4.22146
3.08079 1.7529 3.37957
-0.828608 0.789425 3.64103
-0.504975 3.76257 2.26462
3.6923 0.635761 3.96283
4.29254 -0.735841 4.40656
-0.694085 3.75139 2.30247
2.72571 -0.550734 4.14692
1.07004 2.49471 2.85472
0.613163 3.07939 2.42926
1.30167 0.880513 3.87872
1.41745 1.81994 3.38826
2.92602 1.89792 3.1592
2.02876 1.0965 3.80111
1.85539 -1.10244 4.82055
0.660345 3.27859 2.46259
3.38176 0.362194 3.85855
1.20788 2.6264 2.7566
1.21004 1.87596 3.30372
2.87169 0.528872 4.17062
4.52359 1.02627 4.0681
0.680412 -0.857005 4.50625
0.0362343 3.94137 2.35978
2.17437 3.44193 2.65737
-0.133196 2.5563 2.78908
1.44087 4.04333 2.36736
-0.571456 2.9623 2.60377
-0.505908 3.58272 2.4305
0.881924 2.22643 2.91078
-0.305559 4.16153 2.21698
0.124189 -0.296464 4.60765
2.11684 1.44164 3.27933
-0.285018 1.42184 3.42227
1.70282 2.21739 3.03499
0.51968 4.16493 2.17187
1.82569 -0.133202 4.23106
1.06642 3.68097 2.43228
0.0317291 2.80314 2.53765
-0.697314 2.35537 2.80704
1.03489 3.152 2.57519
3.63675 -0.380752 3.86848
4.90074 0.836893 4.37887
0.339645 4.32572 2.19885
-0.994724 1.67 3.27459
0.39872 3.6912 2.37831
-0.390869 3.00662 2.54892
-0.618565 2.30957 2.88072
0.839666 3.7717 2.37129
-0.974263 1.57038 3.29158
2.75212 0.271305 4.14707
4.62467 -1.38888 4.71568
0.681853 3.47589 2.30084
1.01355 4.28236 2.23813
-0.549698 -1.0957 4.80367
0.772617 2.2294 2.91499
3.33268 0.373513 4.00601
1.85633 1.51367 3.45364
1.98342 3.04971 2.68009
-0.230643 4.13048 2.10404
3.64774 1.67509 3.30768
-0.108171 3.7283 2.4031
3.33445 0.719415 3.7734
0.268277 3.02486 2.46975
3.85002 -0.00143067 4.26546
2.29116 2.5207 3.02463
3.00115 1.58042 3.33354
0.585542 3.8507 2.42136
1.92447 3.10193 2.63105
2.61775 0.14061 4.07504
-0.849924 2.25976 2.81246
-0.515545 1.25234 3.59128
-0.570713 3.43752 2.45093
1.43043 4.07806 2.33489
-0.478637 2.68413 2.61393
1.08858 0.643018 4.00443
2.67918 2.0609 3.12315
4.21531 -0.770706 4.59067
-0.360089 1.15177 3.59531
2.54373 2.02628 3.21307
2.30003 2.81448 2.85377
3.07271 -0.559566 4.09858
1.75092 3.54315 2.60347
3.1606 -0.785271 4.01558
-0.0892598 2.84471 2.57711
1.93 0.514699 4.043
0.116072 4.02918 2.2544
3.56831 1.43556 3.48616
-0.715719 3.93649 2.15234
0.181834 2.2144 3.03304
2.00202 3.68177 2.55912
2.23725 2.97984 2.81756
-0.113541 2.08154 2.98296
1.94359 3.76667 2.56007
-0.913652 1.29067 3.35218
1.63379 4.20216 2.24389
-0.947058 -0.128593 4.18449
1.95145 2.91874 2.75632
1.20852 3.58202 2.48975
-1.66346 1.70861 4.45343
-0.581153 3.91602 2.19135
-0.651828 2.01738 2.88778
2.30186 0.00578129 4.21777
1.52902 2.86049 2.79357
2.3487 3.66264 2.61782
2.35747 1.21968 3.52666
1.29924 2.07035 3.14099
-0.153356 2.13752 2.93204
1.64675 4.14146 2.26939
3.00798 1.39569 3.38201
3.20559 -0.399467 4.12046
2.15594 3.07342 2.79856
1.2556 4.21699 2.25093
1.83098 3.70657 2.51717
-0.270212 -0.299993 4.48178
1.48657 0.975658 3.85604
1.25693 3.90037 2.39797
1.00242 1.86229 3.27779
-0.178937 2.48221 2.70785
1.78656 3.41909 2.63927
3.44067 0.837499 3.74842
1.26932 3.93876 2.36186
-0.679122 1.74129 3.23142
-0.391838 2.40557 2.75285
0.374155 0.394582 4.19051
1.36115 3.25841 2.5764
3.68541 -1.0115 4.31921
-0.458336 3.34227 2.45621
1.24109 2.71982 2.75703
1.42564 0.149187 4.26666
1.42695 1.99196 3.15941
-1.24625 1.15368 3.59723
2.82684 -1.31309 4.48682
-0.369278 3.23672 2.4301
1.95051 0.265462 4.04091
1.02358 2.60999 2.73779
1.13239 1.93962 3.23797
1.12601 3.99981 2.34133
0.277776 1.08509 3.76711
1.22545 4.03302 2.30914
-0.195923 2.57958 2.71334
0.58672 3.24364 2.44004
2.9342 -0.623248 4.58943
4.22944 1.09912 3.84272
0.515984 3.956 2.37059
0.654845 1.89527 3.15767
-0.631663 2.59119 2.83004
2.515 -0.447752 4.62382
1.62921 3.40053 2.62507
-0.138169 0.979829 3.86968
1.00045 4.01555 2.35207
0.864986 1.79877 3.15957
0.541653 1.92732 3.05138
2.52186 1.18253 3.73394
2.01598 3.58961 2.64411
2.82514 -0.830352 4.25087
0.342762 0.543384 4.26705
0.721146 2.64379 2.67651
0.114797 4.02347 2.30205
3.69211 -0.684351 4.08544
1.68889 0.61992 3.91993
0.0354488 3.62053 2.3926
1.90495 4.21183 2.20305
-0.27326 1.58148 3.33215
2.39897 2.45032 3.06548
1.12139 3.05938 2.59527
1.64861 1.53687 3.51149
-0.260836 3.70266 2.38477
-0.5123 4.11039 2.08961
0.689092 0.00935904 4.45089
0.474251 2.20278 2.87896
1.29618 3.01788 2.6526
0.947527 3.18848 2.52057
-0.462382 -0.297608 4.44808
2.37083 2.5212 2.88889
0.269121 1.72254 3.21487
-0.727893 3.81894 2.405
2.69708 0.830598 3.69419
1.28086 3.1743 2.60003
1.6865 2.44265 2.9295
-1.03272 -0.126827 4.07751
0.254055 1.62931 3.21434
3.33832 0.746554 3.91597
0.780088 3.89227 2.39422
0.929936 1.93318 3.20896
3.43415 -0.392683 4.11203
-1.06242 1.00239 3.40067
1.75995 3.47193 2.60671
0.802992 2.59882 2.71664
-0.219046 3.82781 2.28681
2.35076 1.90103 3.32865
1.15591 0.994905 3.89329
0.633885 4.13106 2.41869
2.05316 3.45789 2.6648
0.776353 2.52513 2.74944
3.97866 1.30589 3.76145
-0.541327 0.6392 3.84596
2.0171 2.07024 3.12744
2.77051 -0.744845 4.56481
0.221517 2.65836 2.57842
1.62281 4.06117 2.32006
1.46548 3.55574 2.5308
1.61067 4.14072 2.31786
4.28328 -0.608386 4.59946
1.21273 1.15702 3.59069
-1.91011 3.46029 5.44392
0.470681 2.6008 2.62582
0.664909 3.35736 2.46032
2.44062 2.45318 2.92359
0.228008 3.02547 2.46484
3.10566 0.736779 3.81121
0.138782 0.0176555 4.41667
0.503617 1.67793 3.27385
0.4894 3.67402 2.36238
0.227721 2.94326 2.48982
0.389666 2.28134 2.8403
0.302641 3.76716 2.36455
2.74572 1.58141 3.30067
1.64046 0.156015 4.18292
0.470795 -0.295403 4.77743
0.64777 3.93779 2.4194
2.93752 2.55058 2.91532
0.25777 3.1009 2.4405
1.27153 -0.125821 4.38371
-0.243524 0.853707 3.71277
0.964009 1.80874 3.3443
3.48628 1.72605 3.39177
2.8099 -0.861443 4.47331
2.68207 0.713147 3.67851
3.51065 0.52437 4.1477
-0.47124 3.05698 2.49342
2.37262 2.45098 2.92066
-0.8809 -0.644249 4.01513
2.88732 0.628025 3.86691
0.268531 3.7501 2.35434
0.67125 0.289359 4.24179
0.389552 0.972778 3.81267
-0.76508 -1.27802 4.49139
1.17284 1.89385 3.32077
0.715252 2.52242 2.74714
-0.0610152 3.31203 2.55558
0.14336 3.83176 2.35125
1.60788 0.402424 4.17068
0.541092 3.88841 2.32801
-0.627476 -1.12312 5.02611
-1.02779 0.843027 3.66125
2.25236 1.77788 3.3008
2.89751 2.54887 2.91456
0.131301 3.17129 2.50097
0.522056 2.84281 2.57189
0.761583 2.17164 2.95924
2.89707 -0.421586 4.47195
1.13713 1.46954 3.54639
1.7936 4.18981 2.29007
1.10615 3.56273 2.4721
-0.60943 2.83643 2.6704
1.40888 2.16925 3.10169
0.606087 4.21794 2.24732
1.99458 -0.315218 4.82772
3.51069 1.31526 3.43292
-0.0298803 2.26486 2.82072
0.864103 3.64987 2.47572
-0.0138099 3.01207 2.55318
-0.358952 3.68002 2.42525
0.564567 4.2168 2.19699
3.25002 1.63874 3.44268
-0.735558 2.21377 2.8856
0.141752 2.89439 2.53165
1.56363 1.53263 3.48318
0.190117 3.64928 2.34734
3.65018 -0.573381 4.29442
-0.822493 2.07895 2.83233
-0.0472325 0.163469 4.32311
0.106296 1.43568 3.46331
0.451272 2.82558 2.55648
3.73438 -1.3417 4.61033
1.31942 4.21901 2.24845
0.538824 0.291972 4.28155
-0.209949 3.58091 2.42396
3.76217 -0.13055 3.93494
1.19773 4.24477 2.21371
2.37921 1.66198 3.49019
1.41079 3.76254 2.4833
-0.0596674 2.25665 2.81051
-0.356908 3.08307 2.61655
1.64043 3.81173 2.45615
-0.62964 0.0190951 4.23504
3.57652 1.58243 3.62194
1.70806 4.28043 2.17497
1.95257 3.08382 2.70544
1.70609 2.30406 3.01211
2.39345 3.57916 2.63012
0.203463 2.61088 2.63664
3.06285 0.524223 4.14046
2.12828 2.03656 3.21664
1.81067 -0.926683 4.85841
0.696907 1.17957 3.68932
0.263817 3.97837 2.32429
1.19247 3.4449 2.58947
0.146501 2.54625 2.66066
0.231893 1.91975 3.18565
-1.5784 -0.743493 4.6373
4.08032 1.03211 3.53701
0.374727 0.65987 4.05626
1.00297 2.81404 2.64976
0.216809 3.98154 2.27383
1.03353 3.58391 2.48996
2.48391 1.35978 3.54514
1.31552 4.14771 2.32235
1.11907 2.11804 3.03817
-0.0207821 2.68439 2.6039
1.38491 3.55039 2.53178
-0.124996 0.405671 4.17338
2.25502 1.23579 3.55118
3.20738 -0.94964 4.1096
0.107951 2.03612 3.07345
0.799507 -0.301374 4.65584
2.97314 1.98679 3.14984
0.28157 1.20113 3.76351
1.36941 4.13038 2.25726
1.79183 3.52287 2.58857
-0.607708 2.60083 2.63011
2.59079 -0.133002 4.13465
0.157674 4.02317 2.29889
1.58132 1.41561 3.69338
0.790205 4.14619 2.32251
-0.00454181 2.07282 2.9677
3.18533 -0.537504 4.0001
-0.181778 2.84197 2.68347
2.18706 3.7209 2.58786
-0.998716 -0.410901 4.45251
3.17404 2.11014 3.20058
1.42396 1.27632 3.6671
0.80918 4.21218 2.30224
0.113539 3.48553 2.4904
1.28723 2.77396 2.69947
-0.298495 3.14822 2.48276
2.06922 3.93619 2.47779
1.4961 2.55139 2.92054
-0.476272 0.158769 4.15176
1.92395 1.83062 3.40703
2.35484 0.8384 3.68323
2.28808 0.737997 3.80704
2.64686 1.71295 3.36122
2.92048 -1.21524 4.17555
1.94644 2.48426 2.95955
4.07903 0.25599 3.98189
-0.815436 2.56353 2.6838
1.12292 3.10441 2.53469
0.991696 3.33789 2.50794
0.108208 3.82918 2.34992
2.62414 1.05446 3.65362
0.465361 4.03766 2.42307
-0.386369 1.86432 3.08929
0.176742 2.47923 2.69878
-1.8694 0.026027 5.43603
-0.977796 1.82156 3.18823
-0.580442 3.18625 2.4528
-0.453928 0.959664 3.74558
1.83326 4.02563 2.35577
2.98662 3.12305 2.75148
2.12974 2.27772 2.99432
-0.040094 4.05465 2.16803
-0.0173259 1.46595 3.34293
3.62222 0.123305 3.88726
-0.0764018 3.51479 2.39194
2.05491 3.01805 2.75102
-1.12978 -1.22508 4.23307
1.96617 2.2061 3.03579
3.7422 0.234226 3.916
-0.714232 1.38818 3.3605
3.04577 3.9215 2.60016
-0.91597 2.3667 2.8367
0.888644 4.3141 2.25969
1.97769 3.24896 2.6679
1.15292 3.80255 2.46365
2.85651 0.716905 3.80341
0.0635718 4.2015 2.14294
0.791102 1.69538 3.39076
1.53648 2.39114 3.00664
-0.730893 2.95941 2.5124
2.01125 -0.00266299 4.13217
-0.78082 3.6861 2.32149
1.17488 1.6447 3.51146
1.60214 1.99138 3.16952
-0.727923 -0.709936 4.26778
-1.84966 1.55797 4.94554
3.6215 0.63419 4.08082
0.392422 3.31747 2.44936
-0.182158 3.81768 2.23254
2.14894 2.7521 2.80073
3.42656 -0.647092 4.66974
-0.373506 3.80218 2.17618
-0.720638 3.32304 2.49883
2.07966 1.35294 3.57046
3.72505 0.344149 3.8675
1.95788 2.14783 3.0988
3.42026 -1.07041 4.45974
0.592714 2.76035 2.60478
-0.532405 3.86311 2.16608
1.24965 3.55288 2.47713
3.65261 0.47231 3.80288
1.78579 1.2626 3.68037
1.10391 -0.951745 4.95369
-0.058752 1.99779 3.03823
-0.151023 3.98953 2.188
-0.370477 2.6923 2.63447
-0.793446 3.50591 2.5066
1.93677 3.582 2.56415
-0.57004 3.90685 2.23808
0.991677 2.71302 2.6566
3.25738 -0.329366 4.50554
-0.741232 1.99831 3.03893
1.71525 1.28004 3.72854
2.56247 1.13824 3.64204
0.111522 1.99128 3.16734
1.14898 2.70347 2.75303
3.29905 -0.158579 4.42727
0.200929 3.3542 2.47571
-0.265359 2.88912 2.63903
1.0796 4.19686 2.3622
3.74483 1.42684 3.48
0.965116 2.19095 3.01823
-0.634046 3.90719 2.14698
2.28276 2.88749 2.73497
0.441468 3.49146 2.44047
2.8963 -0.441373 4.34138
0.677441 3.62652 2.47521
3.47674 1.30472 3.46915
-0.487216 2.08834 3.01017
3.48928 0.243977 4.07687
-0.198479 1.69858 3.19221
-1.22855 -1.1631 4.03164
-1.19778 0.824194 3.64733
-0.724779 3.11178 2.46823
1.15096 4.19306 2.24215
0.0944856 2.41922 2.77232
2.58856 -0.909503 3.77255
2.90802 0.35707 4.00592
1.77619 3.92187 2.41492
-0.502189 1.03677 3.64176
2.61245 1.91045 3.20809
1.21191 3.93075 2.36012
1.08336 2.61233 2.76155
3.52214 -0.0182247 4.30934
0.224181 3.23862 2.441
3.75447 0.128518 4.14198
1.60183 1.87254 3.30899
3.59642 0.903452 3.64505
-0.853312 3.29298 2.54637
-0.209511 3.81921 2.23299
-0.862603 2.57464 2.81856
1.06024 3.90616 2.40727
2.32482 3.40944 2.64118
1.63489 2.68131 2.94193
3.22366 0.605695 3.90034
1.07295 1.8708 3.30512
-1.32921 -0.698672 4.22084
3.30876 0.943217 3.81493
3.38629 0.800305 3.62015
-0.44339 1.69486 3.18699
2.83841 -0.574219 4.17438
-0.192898 2.50523 2.87922
0.605359 3.14889 2.5056
0.88361 3.99168 2.39863
-0.310465 2.65503 2.70526
0.124541 3.34828 2.47178
1.66868 1.15578 3.69946
-0.370717 3.89506 2.28076
2.78405 1.99735 3.18651
0.858152 3.27752 2.47544
-0.777808 2.60395 2.75397
3.49142 0.523909 4.23083
0.971815 1.92441 3.23669
-1.18691 -0.955909 4.96894
3.44881 1.01321 3.6007
2.39176 -0.146155 4.21944
0.999149 4.16635 2.39397
-0.153272 1.52145 3.46875
2.09575 3.10485 2.73871
1.3631 2.30272 3.03485
1.34365 4.17618 2.1905
2.47753 -0.0141422 4.06483
1.78193 3.76957 2.49924
0.468485 0.746121 3.95408
0.211796 4.21748 2.15132
3.43095 1.69977 3.42054
0.271764 3.6949 2.39091
1.30878 2.41954 2.91212
-0.2754 3.1055 2.55052
-0.709649 -0.484524 4.84485
2.32831 -0.327707 4.52101
0.201449 1.58735 3.38532
2.39163 3.99369 2.52149
1.51955 3.13596 2.66655
1.32574 2.35253 2.96015
1.21554 3.05901 2.59896
0.914749 3.66937 2.4355
0.741543 2.28546 2.87959
1.07371 4.32725 2.27133
-0.0542587 1.5468 3.29423
3.80818 0.2887 4.77452
4.32984 -1.37593 4.62715
4.07352 1.66998 3.85942
0.932041 0.370248 4.14584
0.321136 2.22089 2.92316
2.80703 -1.01913 4.23156
2.05004 3.09488 2.72719
1.22795 2.53602 2.92104
-0.649039 3.75513 2.43359
2.52983 0.133794 4.17143
-0.817738 3.11227 2.4741
0.964548 0.8998 4.05073
-0.469161 4.17138 2.13301
2.18154 1.71631 3.26311
2.16058 3.94077 2.48705
2.25464 3.22564 2.65361
0.20059 2.36156 2.83842
3.28875 1.66242 3.34207
-0.60783 3.76369 2.32132
-0.378149 0.77326 4.08758
2.51832 -0.651714 4.74594
0.307369 4.14822 2.33415
0.165232 2.68076 2.62437
-0.955244 -0.393855 3.97377
0.829737 3.49259 2.50948
1.59246 1.23332 3.59199
2.21497 2.09511 3.20101
0.637434 2.12504 2.92302
1.51399 4.12253 2.26859
0.588661 1.45721 3.55568
0.919501 -0.958612 4.92549
-0.322797 2.85048 2.60144
2.00765 0.50091 3.99658
0.921305 3.65679 2.49987
3.6672 0.582988 3.80799
2.90399 2.19236 3.1794
2.33124 1.31867 3.52278
3.08365 -0.728074 4.22333
0.30456 3.47038 2.42678
0.0127929 4.07079 2.17733
0.826978 2.75942 2.61014
0.800181 2.35514 2.82157
0.175256 3.13013 2.56479
3.36315 -1.08408 4.66269
2.98337 0.741859 3.8809
-0.716097 0.377018 3.95178
1.69327 1.71871 3.40685
-0.0324023 3.71045 2.39348
0.0628359 0.527237 4.126
0.318774 2.97184 2.52033
2.30284 -0.94704 4.89309
-0.909926 2.23288 2.79508
-1.18184 1.60716 3.39768
2.25084 3.92662 2.47381
1.54272 4.30019 2.18811
1.84841 1.80439 3.38764
1.1809 0.871274 3.87922
1.25847 0.153097 4.34192
1.85386 3.34502 2.65653
2.21371 2.56399 2.94066
-0.0279458 3.83112 2.35357
2.69665 -1.34791 4.60707
-0.0996723 0.28635 4.31539
0.390808 1.37129 3.59583
1.89098 4.09023 2.29312
-1.58459 2.94899 4.22882
1.92396 2.93119 2.76777
0.831966 3.55342 2.48159
0.276214 2.02227 3.06239
2.12241 1.2479 3.61164
0.132511 4.09254 2.24103
0.575597 -0.507893 5.33167
2.27676 3.65509 2.61179
-0.166468 2.72677 2.66229
-0.419353 0.623169 3.92157
0.764481 2.94091 2.5821
3.78107 -0.711101 4.25848
-0.97308 2.23841 2.92868
1.43792 3.70492 2.51732
-0.0777582 4.20201 2.24702
1.1899 1.5494 3.54028
1.86814 1.47616 3.58658
1.82913 -0.656782 4.91506
-0.991331 2.20188 3.02321
1.91791 2.98213 2.71194
1.8658 4.24964 2.22351
-0.159427 3.66007 2.42069
1.01076 2.86583 2.60486
1.55233 1.47221 3.57693
-0.477094 3.93092 2.15199
3.06985 -0.00824555 4.44271
2.40203 2.22527 3.06313
0.824203 0.150131 4.25769
1.43952 2.93017 2.77142
0.169342 3.516 2.45104
2.18704 2.11692 3.04261
0.515535 3.53322 2.40217
3.84356 1.33741 3.52861
1.59686 4.19528 2.24286
-0.662605 -0.292046 4.37704
-0.0836855 3.5859 2.37338
-0.176746 4.26036 2.22943
1.91849 2.30544 3.02232
0.715153 2.91458 2.55936
1.03285 1.50965 3.44404
-1.04886 -0.113304 3.80802
1.93699 -0.923897 4.76325
1.54491 1.06838 3.72857
-0.51358 0.505212 3.94396
-0.462919 1.85959 3.09314
0.392821 3.99872 2.40073
0.675425 2.5826 2.71997
0.360301 3.25474 2.45088
-0.627506 1.76906 3.10463
0.306029 3.98441 2.33154
-0.867808 0.908475 3.60259
0.347416 3.20071 2.47243
1.49115 2.63806 2.88742
-0.704104 0.274221 4.09992
1.99832 3.60426 2.57607
1.92584 -1.15595 3.94978
1.46785 2.82894 2.7691
0.0890558 3.98782 2.28087
-0.935223 2.00323 3.04128
1.55879 1.27491 3.69209
1.18809 -1.12165 4.86578
-0.0204916 1.95794 3.09797
4.12763 0.356729 3.93093
-0.49299 1.12914 3.55443
-0.277545 2.66257 2.69983
-0.144233 3.29436 2.42734
1.4498 4.15121 2.32773
0.361252 2.58833 2.62659
2.09181 3.48503 2.5687
2.065 1.20488 3.82582
0.585132 -0.467178 4.78013
1.65703 2.00674 3.19384
-0.683298 3.29141 2.47429
0.188186 3.99982 2.3406
0.297103 2.5734 2.71006
-1.03489 1.9213 3.20345
-0.0799406 3.93326 2.2519
2.53817 -0.323269 4.57735
0.896165 1.08356 3.77944
1.5507 4.11501 2.31018
-1.08359 0.598414 3.74765
4.52043 -0.817255 4.82835
0.652272 2.68487 2.62272
1.58067 3.55064 2.53637
3.0232 1.22863 3.58131
-0.716263 -0.592452 4.45175
1.21919 2.09444 3.19151
0.500769 4.32159 2.19746
3.67663 1.60569 3.19978
-0.439597 0.153679 4.31694
1.60272 0.746896 3.90082
-0.676521 3.65591 2.36018
-0.800902 2.96974 2.42959
-0.303258 2.4052 2.88903
3.38422 1.56507 3.32091
2.20046 3.95767 2.49452
0.256938 2.92894 2.48253
2.04152 2.37935 2.98751
-0.281377 3.7834 2.32503
3.92193 -0.153469 4.24913
4.1281 0.890794 3.5791
1.05982 2.54973 2.78818
-0.791212 1.80051 3.16069
-0.117238 3.19917 2.47092
1.05895 0.871096 3.87614
2.0805 -0.00307806 4.16076
1.4747 1.79281 3.36598
1.38159 2.51614 2.88611
1.57188 3.32737 2.64133
-0.526477 3.76072 2.25311
1.26067 3.24858 2.5797
0.602342 2.44152 2.79626
1.3444 -0.975864 5.06121
0.832591 1.79497 3.36589
4.02295 0.471977 3.77548
0.115804 0.875709 3.90081
2.39265 3.20668 2.63064
-0.880284 2.35652 2.82356
-0.0202055 3.74826 2.35922
2.0751 -0.752556 4.49064
1.98833 1.74848 3.50413
-1.23483 0.628847 3.95014
0.384524 0.763991 3.99435
1.92312 2.6826 2.8333
2.82691 4.15998 2.56769
3.34959 0.254618 4.06085
4.33753 1.04078 3.66339
-0.41804 -1.2841 4.43147
0.110842 2.50686 2.73804
0.15377 1.89998 3.17741
1.55905 3.9711 2.38437
2.63447 3.4523 2.66955
2.08275 0.371276 4.03822
3.873 0.903851 3.63944
-1.13617 -0.858058 3.74311
2.5558 1.81664 3.20438
2.1734 2.20298 3.0295
2.37451 4.3202 2.37551
-0.889864 -0.279935 4.1056
1.33408 1.42347 3.45737
0.0885857 2.78409 2.53043
0.538404 2.07369 2.97848
0.216048 4.15073 2.21656
3.18575 -0.146609 4.14891
2.14852 1.36331 3.59961
2.36002 3.73631 2.60882
0.423113 3.6066 2.45347
0.726818 2.76316 2.608
-0.737163 3.65568 2.41948
0.970713 4.27104 2.23823
-0.772922 -0.521885 3.94267
1.44088 1.61463 3.43058
1.73845 2.42152 3.04112
-0.539936 3.01764 2.56401
0.0514848 -0.437514 4.51763
0.303294 1.51718 3.45756
2.10493 3.91401 2.53311
-0.536626 2.22912 2.92661
0.950844 4.30623 2.19403
0.297407 2.87364 2.52307
0.185099 2.29876 2.8275
2.79133 3.2646 2.74738
3.3987 -1.06658 3.84998
1.62374 4.29255 2.22516
4.11573 0.279146 3.87478
-0.422166 1.59402 3.27651
-0.249709 3.67236 2.40689
2.0004 0.414994 3.99257
1.15118 3.00896 2.62206
3.4581 -0.943881 4.31179
0.570339 2.24414 2.88669
0.531971 3.72171 2.38249
-0.212468 1.54135 3.41892
0.204703 0.0412041 4.40393
1.5505 3.90159 2.44218
2.05743 2.47213 2.91981
1.74677 3.27861 2.6582
3.27114 -1.60215 4.48094
0.621725 0.779834 3.88561
-1.81035 0.218531 4.89709
-0.489227 1.67136 3.24147
0.405489 1.31719 3.7087
0.18769 4.03809 2.2913
0.215938 -0.61571 4.98104
-0.960742 1.99868 2.9784
1.1951 2.79445 2.70163
1.52831 3.58793 2.54111
0.459533 1.95569 3.05063
-0.380399 3.96123 2.20264
2.74394 1.1724 3.59329
0.0284425 3.36357 2.45146
0.892197 2.69782 2.70477
1.50549 0.562976 4.19091
-0.634386 2.89306 2.61283
-1.04464 -0.738384 4.05516
0.88305 3.57501 2.47289
0.370134 4.06089 2.20686
-0.21809 2.15515 2.91774
5.09454 1.72175 4.12114
-0.293902 1.34764 3.42065
0.953881 -0.779428 5.04314
0.954972 2.15704 3.06327
-0.116 0.690259 4.05156
1.49482 2.94378 2.75365
0.566085 4.18099 2.21795
-0.817886 3.6049 2.42768
-0.0322372 2.82869 2.64246
-0.552978 1.34176 3.40212
1.90415 -0.104354 4.25517
0.66439 2.10986 2.99175
0.737277 3.38495 2.40044
0.529018 4.10524 2.28934
0.69544 2.72189 2.62832
-0.605276 3.51192 2.42517
3.06316 2.12913 3.18233
0.899351 4.25889 2.31986
2.02216 0.0275851 4.30755
-0.247119 1.25268 3.52113
-0.829031 -0.358783 4.09483
1.73511 3.71875 2.505
1.96376 4.2768 2.27353
2.77794 3.09741 2.80185
3.29544 1.46187 3.48619
3.39116 -0.243434 4.09545
-0.565438 2.13272 2.88548
1.55246 -1.02656 4.7328
0.414101 1.84745 3.20572
0.226287 0.431433 4.25429
2.74594 0.966519 3.71568
1.38056 3.35896 2.56824
1.84115 3.95301 2.41625
2.05529 2.64985 2.87878
2.12659 1.92718 3.5392
2.62142 0.87117 3.7189
0.628247 3.96121 2.35862
0.393204 3.18377 2.496
0.233957 2.42939 2.7611
0.926791 1.15977 3.54373
2.25979 0.171582 4.09856
2.77512 -1.58785 4.39005
-0.419685 1.92949 3.00694
3.26681 2.83729 2.85259
0.55002 3.98458 2.31168
3.3196 3.66981 2.67641
3.05958 0.295232 4.06663
2.23151 1.12532 3.77413
1.83185 -1.22842 4.47502
-0.682542 1.85678 3.04197
2.27764 2.71657 2.8301
1.85837 3.49018 2.61118
1.10143 3.41455 2.55775
-0.179963 3.98718 2.26096
1.63078 2.75545 2.87263
-0.100221 1.87867 3.08775
2.12122 -0.576205 4.4567
-0.689048 1.06128 3.54726
-0.385972 3.7942 2.25718
1.26764 3.30944 2.52953
1.91117 2.66846 2.90214
-0.358298 1.8458 3.19938
2.55695 0.947767 3.63945
-1.10232 -0.368186 4.20638
-0.0937455 2.69794 2.6054
2.0351 4.11109 2.39819
0.72962 3.50486 2.48667
2.70609 1.24096 3.51848
2.11482 0.532891 4.03301
2.27145 2.08806 3.1216
-1.28133 -0.776375 4.25834
0.907467 4.21056 2.3938
2.49683 2.83699 2.85695
2.3013 3.56976 2.60442
-0.475739 0.677088 3.96262
2.32653 1.15513 3.55848
1.98365 -0.777309 4.91657
3.11096 2.04965 3.21493
1.21883 4.12049 2.30221
-0.639979 1.60185 3.29024
1.8475 0.0281029 4.24708
1.88403 3.82249 2.51111
-0.604523 4.13412 2.14871
1.55144 3.17577 2.66713
0.0479126 2.31834 2.8544
1.03751 0.18467 4.37899
-0.988283 1.51843 3.37052
0.635092 2.94581 2.56575
-0.30033 3.74232 2.39605
1.14697 2.27819 2.94312
3.86433 -0.258886 4.16707
0.444774 0.911083 3.8984
1.22564 3.8536 2.41203
3.62653 1.77823 3.27452
-0.125788 2.45738 2.79683
-0.514901 3.16536 2.48371
3.3844 0.745297 3.77795
0.125584 -0.108588 4.45209
-0.57063 1.65872 3.21781
1.66937 3.93133 2.40264
-0.62207 2.34727 2.77452
0.106449 3.11329 2.52696
0.71615 3.09466 2.5123
-0.817478 2.36866 2.79713
3.27106 0.395831 4.04007
-0.614013 1.67216 3.24511
0.572331 -1.08561 5.01987
2.65973 0.749496 3.77748
0.722472 3.07408 2.5796
1.48449 3.82801 2.45677
-0.162133 2.3677 2.91833
3.39418 1.68744 3.49532
2.63277 -0.826513 4.4185
1.11923 0.54184 4.09663
0.0499166 3.78577 2.36845
1.4444 2.66393 2.90116
0.634897 3.21447 2.46191
1.78776 0.988469 3.79626
0.504851 3.8715 2.36552
2.76534 1.89835 3.30813
-0.860887 2.53039 2.88071
-0.562678 3.09703 2.42892
4.4572 0.835596 3.60155
1.18316 0.308108 4.21859
3.22473 1.80523 3.32663
-0.924871 -1.17418 4.31484
0.349856 3.98198 2.3748
2.59305 2.14684 3.05451
-1.45293 -0.373443 4.27526
1.81424 1.38837 3.55555
1.78593 2.95694 2.76852
1.8705 4.22873 2.30558
1.37471 3.63082 2.51158
0.324546 -0.288301 4.83279
1.45459 1.54923 3.46557
0.274691 0.706188 4.21221
1.64066 3.77503 2.54473
1.0569 -0.773309 4.93699
1.78869 4.22599 2.24426
0.741801 2.26624 2.92533
0.577715 2.94797 2.56763
3.80597 2.32187 3.15628
0.693331 -0.615084 4.78652
-0.432535 1.46577 3.48873
1.30526 3.77806 2.4818
-0.345047 4.16318 2.15691
1.75963 3.05531 2.7624
2.40221 0.555769 4.07813
1.51086 -0.83549 4.54993
1.16556 3.82955 2.39338
4.84727 0.694091 4.12344
0.0649333 2.36749 2.78171
2.66367 -0.701509 4.48863
1.34124 3.23997 2.61794
-1.11748 0.762992 3.72284
1.19673 1.7592 3.42895
-0.88852 1.82471 3.15542
1.94604 1.00042 3.7736
0.831659 3.31944 2.5365
3.24023 -1.29163 4.7974
0.284895 3.78914 2.30706
-0.18304 0.319946 4.21974
2.68926 1.77777 3.24502
1.67945 2.70124 2.93336
1.44914 0.924381 3.90571
1.33047 3.94022 2.34266
1.11162 -1.03997 4.86804
-0.389098 3.26518 2.55095
0.0572734 0.4296 4.04129
2.75999 2.57396 2.92056
2.98769 1.4534 3.4435
0.0468816 3.38731 2.33335
0.520771 2.14868 2.88927
1.28601 4.15954 2.2575
-1.32194 -0.34916 4.09301
-0.00861525 2.85901 2.57324
3.01876 1.35952 3.45653
-0.182583 3.56916 2.40049
-0.710068 2.06762 2.92232
-0.403011 4.00763 2.11973
-1.31386 -0.21533 4.13684
0.790129 2.80723 2.61386
-0.505892 2.36738 2.9085
1.8428 3.20384 2.68702
2.64475 -0.532173 4.32273
1.22218 4.26638 2.20551
2.64752 1.63001 3.35564
1.66405 3.74535 2.45113
0.00761589 2.9788 2.58701
2.14857 2.30148 2.96151
-0.463659 3.70048 2.36563
3.28679 1.5856 3.52754
1.57495 0.187576 4.21502
-0.962951 -1.50911 4.38538
2.05457 2.30927 2.97066
1.68526 1.51492 3.36911
-0.610207 2.99382 2.60352
-0.281844 3.57219 2.40334
1.8307 4.25176 2.2557
-0.467051 0.316904 4.15688
2.77482 -1.22587 4.56214
1.78902 3.03636 2.73746
-1.08109 1.43404 3.39732
1.22435 3.73893 2.44796
1.14209 2.21703 2.99358
2.61319 1.64228 3.38128
0.929834 4.37791 2.26686
0.504576 2.97171 2.48869
0.248687 -0.0856898 4.45871
-0.572708 2.31387 2.84181
1.09219 3.77538 2.41869
3.28164 0.0319111 4.1559
3.72558 1.19396 3.65689
1.30934 4.00405 2.32038
-0.200884 1.9481 3.02404
1.53815 2.81235 2.81938
0.988815 3.42799 2.49966
2.73258 1.09233 3.66703
0.616394 4.11129 2.3358
0.605533 1.92069 3.13717
2.58541 0.658631 3.86396
-0.64686 2.642 2.74029
2.5692 -0.692615 4.43977
0.174179 3.31773 2.47541
-0.704245 -0.878204 4.12185
-0.810858 2.86813 2.67742
2.26875 0.411139 3.96529
-0.744686 2.07852 2.93831
1.76504 1.41338 3.60046
1.64028 4.14501 2.30797
0.576354 -0.883327 4.8285
-0.146159 3.45654 2.44775
3.26354 0.537057 4.01205
-0.641148 2.76956 2.67421
1.95884 2.09183 3.11456
0.00290371 4.00308 2.17118
2.17336 1.25145 3.52342
4.2029 -0.237639 4.08496
-0.698992 2.77401 2.67905
1.82842 3.63897 2.57657
-0.222009 3.56016 2.45586
0.708133 1.28099 3.60589
0.438585 4.16613 2.3702
-0.476672 2.03149 3.02168
1.27771 -0.0999918 4.63737
0.277404 2.6146 2.61503
0.588579 3.25178 2.36784
0.725392 4.14652 2.31004
3.10996 1.12856 3.454
0.713329 2.03455 3.18045
2.29431 2.1638 3.0697
0.682273 1.37594 3.49766
0.0283348 -0.554244 4.59133
2.06806 2.95929 2.76423
0.9455 4.17694 2.27131
-0.307382 3.53823 2.44026
2.51436 -0.380181 4.25635
-0.452696 0.875387 3.69209
1.0986 3.90182 2.44135
0.194299 1.77988 3.24843
1.09684 2.50646 2.84577
0.429484 3.13973 2.4549
2.24402 4.03771 2.46617
0.213293 1.65966 3.22757
1.20442 0.804348 4.00779
-0.822329 0.295232 3.85816
-0.525095 3.10695 2.50936
-0.855635 -1.15863 4.32948
1.54931 2.50544 2.95652
2.22369 3.51631 2.62499
2.19405 0.0379971 4.26893
-0.252608 2.60237 2.70273
-0.524195 1.88377 3.0729
2.49539 1.07396 3.6001
0.944037 4.03711 2.40258
3.93361 -1.52514 4.35863
-0.371621 0.194615 4.31688
1.16803 2.63718 2.8638
2.78086 1.85609 3.21833
-0.217156 3.26564 2.49629
-0.345215 0.973165 3.66762
0.781118 4.08964 2.3721
-0.433622 2.57384 2.79327
2.37113 3.46664 2.65044
1.92542 -0.783587 5.04792
0.583283 1.01606 3.87635
2.11179 0.699521 4.1177
2.37428 1.90362 3.30562
-1.10354 -0.50994 4.23595
-0.422952 3.23004 2.52951
1.52726 3.98289 2.43068
0.770528 2.49164 2.82327
-0.072825 3.82594 2.27317
-0.516569 1.74252 3.17863
3.58089 0.873146 3.73673
2.19804 0.423146 4.08692
1.3454 3.4279 2.56031
4.51462 -1.05398 4.83384
3.34052 2.83519 2.9523
0.970399 4.11005 2.3865
-0.0178891 -0.868044 4.73316
0.326342 1.92863 3.16241
2.72808 0.539837 4.0235
2.25414 1.06008 3.54709
0.089862 1.54621 3.43278
1.37274 4.24557 2.25231
-0.680007 -0.0902692 4.19447
1.64309 2.40655 3.10012
-0.455104 3.63569 2.44779
1.38882 3.07092 2.67825
-0.922889 2.17469 2.9357
-0.208869 3.67041 2.40198
-2.38571 2.69493 6.39351
0.500003 4.22312 2.18529
0.58703 2.84321 2.56157
1.91517 3.30522 2.68208
1.43079 -0.415493 4.70937
0.934139 2.3978 2.82459
1.00983 3.77042 2.4153
-0.0221493 1.70457 3.3143
1.1067 0.783169 3.89827
3.87085 -0.241893 4.23631
0.955995 1.65823 3.41326
1.60226 2.41453 2.97353
1.04136 3.88396 2.42842
-0.230174 3.05886 2.56798
-0.809815 1.19924 3.3881
-0.74678 3.89291 2.21744
2.36542 2.10991 3.17772
-0.213151 2.76465 2.68173
0.023932 3.42397 2.43486
2.5324 4.35773 2.44296
3.95044 1.21839 3.79214
0.159621 2.00095 3.13447
-1.24113 -0.110855 4.28722
1.40404 2.74587 2.77149
1.22755 3.46983 2.53769
2.92868 3.10428 2.81304
1.81972 -0.427031 4.67395
1.356 2.25175 3.06431
0.539275 4.20874 2.29492
1.71434 1.47732 3.54984
0.566705 3.5279 2.44991
1.64117 -0.270856 4.34769
-0.227783 2.83062 2.66032
-1.1261 2.2597 3.22112
-0.12143 4.16087 2.21337
0.718428 1.33846 3.46488
0.951686 3.65773 2.47478
-0.353287 0.305507 4.30104
-0.798592 2.57587 2.80323
-1.40023 -1.16705 4.20815
0.999017 3.32196 2.5523
0.163831 1.01703 3.95
-0.466311 3.73178 2.27996
0.0457828 1.83321 3.19196
3.38772 0.363197 3.76761
0.305732 2.41477 2.75132
3.93865 -1.08664 4.81021
0.879396 3.22851 2.53994
-0.29845 0.857172 3.68956
2.15572 4.10222 2.45558
-0.387131 1.73969 3.20062
2.53084 1.92363 3.17933
1.68459 1.09292 3.72227
2.28387 0.0167997 4.27783
1.38667 3.37546 2.52789
0.22907 2.54354 2.65164
1.23336 4.08926 2.38771
1.7408 0.163823 4.14208
2.17715 0.995935 3.9006
-0.166066 1.77913 3.09286
1.32252 3.90544 2.39002
2.516 2.68789 2.9343
0.947653 3.32642 2.56123
2.50102 1.7813 3.29523
1.89955 4.06329 2.43207
3.95835 0.86209 3.77461
-0.11338 3.14191 2.47218
-1.02529 -0.558789 4.38108
0.175305 2.46018 2.80415
-0.569913 -0.823727 4.38547
0.754057 3.41611 2.50063
3.78498 0.499973 3.88682
-0.403374 2.69076 2.71842
-0.645125 1.93744 3.03202
1.17203 4.00731 2.33894
3.27357 1.14454 3.5542
-0.503012 -0.729437 4.59682
0.842594 1.11271 3.78939
2.86523 0.647959 3.9449
1.53547 1.89701 3.13518
2.72573 2.79676 2.93328
0.569678 3.30012 2.47515
2.60108 4.37215 2.49889
1.84428 2.42583 3.01158
0.568626 2.99224 2.5266
1.63585 3.86497 2.54965
0.721193 4.33725 2.25904
3.93126 -0.124876 4.02711
1.55693 0.0182335 4.39828
1.93868 2.31251 3.00329
1.71288 1.62992 3.38948
2.28548 3.09199 2.70774
-0.300405 1.51028 3.40301
-0.527361 3.73032 2.39812
0.930079 1.72565 3.36805
0.954042 0.789702 4.0277
2.02284 3.28474 2.68134
-0.730313 -0.39901 4.42254
-0.156746 2.44041 2.90557
0.500233 3.80567 2.38396
1.30383 -0.268796 4.32139
3.28118 -0.98633 4.35936
0.465226 4.18514 2.17632
1.66372 1.6213 3.37313
0.970772 3.66335 2.41385
0.491799 2.28968 2.85017
0.958293 3.04299 2.57751
2.15677 3.88736 2.50276
4.01044 1.58679 3.61288
2.83137 0.392479 4.08065
1.64456 3.0905 2.70409
2.22508 2.29118 2.9851
0.260572 0.175649 4.38701
0.787413 3.19669 2.51785
-0.612418 2.43436 2.77481
-0.692855 3.87954 2.43678
2.08379 1.78498 3.30228
3.82287 0.857793 3.73389
2.72663 -1.19388 4.21475
-0.135572 0.785209 3.99518
-0.412559 0.300707 4.2126
0.875624 1.72004 3.36089
-0.56439 2.31075 2.74594
1.78117 3.25687 2.6558
-0.678489 2.82511 2.65531
2.09233 3.98178 2.442
-0.0958592 3.44949 2.39022
-1.20331 -0.563307 4.4012
-0.36505 1.34154 3.46604
0.998296 4.15549 2.32445
2.23569 2.13996 3.05425
-0.855642 -0.42093 4.65163
-0.625821 3.46722 2.46391
-0.297776 2.73918 2.65657
1.02949 2.10274 3.16951
0.351327 1.28099 3.65432
0.323598 4.19873 2.29265
0.567422 2.13229 2.89476
3.40689 1.44575 3.49063
3.41401 0.498759 3.85851
1.86249 3.05104 2.76507
-0.627486 -0.813422 4.32878
0.313033 4.16459 2.21262
-0.123949 3.53023 2.38767
3.09602 -0.731466 4.46459
1.51728 0.687355 4.16219
1.68906 2.18369 3.12115
3.71855 1.33209 3.47644
1.27385 0.019617 4.3111
1.55701 3.63825 2.52447
-0.00464469 3.95958 2.21089
1.70572 2.95496 2.78245
0.165378 2.04721 3.07911
0.105513 4.08038 2.22445
-0.0799345 1.26323 3.59934
1.6583 3.61369 2.57332
0.525845 2.68868 2.60772
3.75453 1.64038 3.72196
0.578787 -0.292671 4.71168
1.45616 3.06802 2.68707
1.97496 3.74125 2.53295
0.147994 4.03134 2.1419
1.29723 2.29944 3.00144
1.43709 1.46709 3.54396
2.44316 -0.123489 4.13282
2.21477 2.21774 3.02036
-0.110368 4.23227 2.20571
1.2128 2.93945 2.66162
-0.0419922 3.65072 2.40555
2.23707 2.71917 2.84368
1.80273 3.48393 2.61636
0.412755 1.12549 3.83897
1.48598 -1.04836 4.68051
1.25897 2.00318 3.3216
1.69026 0.38998 4.04203
-0.809724 3.31517 2.55099
1.37192 3.93752 2.35422
1.28933 2.60596 2.84318
3.23945 -0.889599 4.6155
3.32887 1.97111 3.45342
3.62465 0.485421 3.82773
1.18379 0.968837 3.79037
0.913058 4.06689 2.37516
0.730983 4.37497 2.50451
-1.12097 0.163166 4.08235
1.57554 2.7995 2.83341
0.525167 3.30921 2.42146
4.2507 0.266087 3.96439
1.34154 1.18991 3.69335
3.14762 -1.22148 4.27389
1.88908 2.06838 3.25673
0.852815 2.88372 2.60455
1.42081 4.15994 2.26752
-0.70453 0.0306489 4.26327
2.06306 2.20088 2.98948
4.89634 1.73508 4.171
-0.822929 1.32995 3.4138
1.45583 2.17934 3.10571
0.643037 2.76555 2.58629
1.04417 4.2877 2.27923
0.651169 3.58504 2.48669
-1.66158 0.190927 4.60215
0.340992 2.30352 2.84198
0.48829 3.59313 2.42577
-0.0939699 2.93359 2.46338
2.3756 1.60668 3.31807
1.55944 3.81405 2.51096
1.43564 4.33587 2.25401
-0.350685 3.0432 2.65785
-0.154977 2.27771 2.94563
4.07105 -0.117659 4.09987
1.30788 3.81398 2.44715
2.24316 1.50724 3.38072
0.9313 0.544471 4.1158
-0.162992 1.86866 3.07149
-0.728198 -0.740531 4.01657
2.34224 1.06797 3.60335
0.267422 3.25111 2.43113
0.073642 2.57003 2.67339
-1.26473 -0.763455 4.88435
-0.0240355 0.685468 4.08882
0.762419 4.22011 2.46738
1.21331 1.27356 3.60641
0.385703 4.12117 2.34429
1.37502 2.08463 3.11754
4.04968 -1.23942 4.4459
2.13418 2.85271 2.76347
0.197187 0.309678 4.24223
-0.260953 3.43681 2.43926
2.47259 2.0545 3.22136
1.95196 0.410684 4.1503
0.525272 1.20468 3.71741
-0.819336 -0.871278 4.01228
1.12594 3.42289 2.49914
-0.154746 4.06604 2.26864
1.83311 2.76506 2.78014
-0.574012 3.826 2.22675
-0.282408 3.32401 2.42828
-0.802027 2.65611 2.67345
2.43658 -0.421413 4.60303
1.93825 2.01288 3.15418
-0.445158 1.16711 3.59015
2.98955 1.12981 3.86439
2.81681 1.87794 3.10329
-0.462444 2.61753 2.72806
4.5557 -0.292813 4.55747
-0.232871 3.27393 2.45199
0.0169494 3.93062 2.23154
0.0790051 2.7114 2.53561
0.119897 -0.648219 5.05499
1.91725 3.68141 2.55044
1.95668 1.35802 3.51768
-0.213325 3.91495 2.18258
1.24344 2.17108 3.09379
1.12952 3.49089 2.48089
2.06138 2.86889 2.77771
1.75721 2.16424 3.25023
1.06597 1.2546 3.55101
1.12708 4.22904 2.30717
3.7494 0.150296 3.92199
-0.726052 1.66547 3.23211
-0.110609 3.1245 2.54096
2.34315 2.47896 2.94792
-0.342877 -1.25325 4.54965
1.62544 3.89127 2.43962
1.85085 0.290496 4.12125
1.40313 0.792888 3.99317
1.07456 0.999644 3.8379
2.17194 1.84727 3.21647
-0.214936 3.77573 2.3064
0.950774 2.53517 2.75423
1.69791 -0.116978 4.37743
-0.868389 0.0291467 4.0768
2.56833 1.76503 3.24848
0.592548 3.18166 2.436
3.67805 0.850625 3.68199
0.229281 3.92549 2.34282
2.0412 3.38731 2.66353
1.29397 2.50697 2.86068
1.16699 3.25505 2.56012
0.395959 0.897783 3.88104
1.00141 3.84466 2.41039
-0.00770155 1.7259 3.17601
0.543503 0.556365 4.22642
0.383038 2.42732 2.76575
-1.17397 -0.796044 4.31145
-0.596641 0.755063 3.78493
3.20686 1.72052 3.36459
4.72616 0.694199 4.23739
0.492312 2.38626 2.83431
3.74271 -0.703128 4.32857
1.83676 3.28221 2.673
-1.61555 -0.990058 4.55498
1.72975 2.75894 2.88032
0.435759 0.409675 4.13891
3.27859 3.6118 2.71013
1.95083 1.10206 3.75592
-0.369313 3.75432 2.29333
2.7073 1.94092 3.20799
-0.249268 3.81723 2.27719
-0.474074 3.19534 2.44741
-0.745005 2.5776 2.80634
1.84858 1.92845 3.36491
3.84239 0.951986 3.70753
-0.629016 3.89933 2.2724
2.65451 -0.272004 4.28427
0.312285 3.6058 2.43564
0.814608 4.23906 2.25187
1.66196 -0.123723 4.61433
0.1383 2.78387 2.51338
2.11535 1.46738 3.51998
1.46123 2.27208 3.09133
1.80936 4.25371 2.2141
0.348438 1.61209 3.3333
-0.012666 3.6384 2.39292
-0.266297 -0.605306 4.70928
1.57987 3.16247 2.66087
2.60601 2.40067 2.97298
2.12497 1.5507 3.48127
-0.699206 2.90783 2.53606
0.837233 3.69874 2.37134
1.80892 2.32149 3.00536
2.18436 -0.40879 4.46368
0.967176 1.53002 3.45199
1.28045 3.6713 2.48177
0.734787 4.24355 2.25625
2.84155 0.161049 4.10925
-0.383247 2.19242 2.83927
1.09963 2.99609 2.61552
1.98177 1.44085 3.45624
1.62608 3.71692 2.4476
1.38807 2.25143 3.06415
0.846813 0.304619 4.31573
0.762953 4.32014 2.25081
-0.211298 -1.29231 4.64026
-0.375203 2.85573 2.58171
-0.717568 3.20153 2.60953
-1.10038 0.0304713 4.08429
0.382018 2.37352 2.8208
1.58931 1.69602 3.31458
0.0338994 3.69106 2.36671
3.51269 0.752979 3.85803
0.377237 2.97987 2.50556
-0.998999 2.32389 2.87976
-0.464555 1.57182 3.24542
0.684544 3.85568 2.41834
3.29393 0.634143 3.84512
3.38066 -0.770341 4.76382
-0.132456 3.97083 2.25799
2.57679 2.79127 2.82163
-0.589573 -0.582149 4.55276
1.2956 3.45586 2.52566
4.35776 1.20179 3.73122
0.661323 1.98597 3.11402
-0.531638 2.10405 2.99266
0.839996 1.36187 3.52413
-0.324428 3.96918 2.21274
0.749239 3.44067 2.3862
2.21971 -1.07397 4.83807
0.45498 2.78699 2.6118
-0.843647 0.394942 3.94227
0.954548 2.12883 3.19711
0.997756 4.20876 2.29448
-0.146412 1.24279 3.51748
0.878 -0.940648 5.01449
0.264034 3.39134 2.41195
-0.606541 0.525095 3.94498
0.585918 2.70676 2.61959
-0.440451 2.799 2.58533
0.859958 -0.0655578 4.46575
0.844897 2.16254 3.03896
-0.601556 3.96596 2.193
2.67976 1.39445 3.50828
-0.867211 1.22186 3.36157
2.6112 2.129 3.13585
0.402976 2.70559 2.58782
1.32408 0.101809 4.34451
2.19552 3.67795 2.59722
-0.536435 3.55743 2.44156
2.45413 2.35865 3.01774
1.97959 4.2708 2.30646
1.96805 3.09937 2.67309
-1.38683 -0.174275 4.07511
1.77805 1.55272 3.41384
-0.482127 4.0183 2.11889
-0.312152 3.60103 2.41503
1.49306 3.02618 2.70156
2.57955 2.28543 3.05468
0.920215 3.68853 2.40825
0.499619 1.46301 3.42946
-0.521525 4.0887 2.10551
1.04196 0.47953 4.15035
0.971152 -0.98488 4.7738
-0.707034 2.63984 2.83092
3.72914 -0.786517 4.27642
-0.774615 3.36803 2.55335
-0.346966 0.592629 4.03283
1.38366 3.98758 2.3542
1.33417 1.02847 3.77725
1.96725 1.94871 3.33237
1.27835 1.21063 3.64857
-0.442678 3.88933 2.24197
0.218698 2.01167 3.10356
-0.65952 -1.38944 4.33769
4.65352 0.199646 4.18056
0.496901 2.62587 2.6011
2.57056 3.63462 2.63415
4.01742 0.319495 4.03869
-0.912265 1.06157 3.48752
3.05925 -1.05915 4.06827
1.77302 2.04021 3.31269
0.0127382 3.30079 2.44808
0.872678 2.64823 2.72062
0.721406 4.121 2.33129
-1.14036 1.0412 3.4229
1.38251 1.97829 3.21204
-0.0419546 3.89493 2.29764
-1.26459 -0.504658 4.4421
-0.707072 2.54583 2.61733
-0.331632 3.28704 2.43872
-0.915451 0.956143 3.49699
-0.668059 3.77294 2.17554
3.26934 1.94498 3.33848
2.07257 -0.358448 4.38929
-0.37566 2.58137 2.77291
2.12953 3.50687 2.66333
0.146727 -0.769892 5.21718
0.883182 2.73674 2.62391
0.593798 3.45509 2.44607
2.46001 2.12937 3.1389
-0.975548 1.21881 3.35101
0.0922654 4.02332 2.27255
-0.331463 3.36424 2.43959
-0.265071 2.6998 2.67995
3.60503 2.11834 3.28634
1.44931 4.104 2.27593
0.764816 1.21743 3.67264
3.00237 0.0807441 4.0835
0.16159 3.69391 2.34293
2.98667 0.20221 4.18622
-0.240052 2.37633 2.90535
-1.46934 -1.32242 4.13275
-0.55132 3.0881 2.57137
0.132142 0.703793 4.02532
2.18418 1.63831 3.35379
2.98028 1.7968 3.23779
1.48108 3.8935 2.42339
1.9763 0.924115 3.82778
-0.338879 3.22961 2.51403
3.76644 -0.20182 4.24675
-0.678031 2.512 2.82153
-0.862708 1.69888 3.26963
3.23176 0.810883 3.86642
-0.408236 3.75479 2.27669
1.67371 3.31789 2.66998
-0.300425 2.46714 2.86454
0.514563 -0.0681923 4.58083
1.77452 3.87996 2.46565
1.75271 0.799658 3.80516
2.0052 1.78352 3.45461
3.17111 0.468179 4.1587
1.74402 2.49641 2.90992
4.19182 -0.933648 4.39413
-0.960796 0.664249 3.77323
1.45666 3.2571 2.6207
2.102 1.65871 3.39981
-0.164656 3.77267 2.34542
-0.896833 0.571967 3.86862
-0.410627 2.34545 2.86516
2.46973 -0.875736 4.79193
2.5879 3.30509 2.75894
1.20266 3.28367 2.49187
3.01677 -1.23277 4.75046
2.25306 2.64971 2.8503
3.18541 0.323843 4.09712
0.909066 1.85522 3.17913
3.84163 0.911208 3.3726
0.824565 3.25204 2.5348
1.7287 3.99129 2.42488
1.16837 2.56737 2.89215
2.40701 1.82281 3.28528
-0.74228 0.89064 3.68028
1.63551 4.00517 2.36696
1.17975 -0.381893 4.71141
-0.747111 3.52132 2.41698
1.22856 4.19501 2.26293
2.52166 2.97921 2.76087
3.29285 -0.207302 4.20352
2.26794 1.415 3.55848
0.409431 2.16936 3.04834
-0.621382 3.92168 2.06623
0.512931 1.54274 3.38878
1.59064 3.80531 2.55833
-0.078566 -0.677737 4.59185
1.91276 3.16021 2.7256
0.683236 2.24742 2.87408
2.35137 2.28946 3.06067
1.34763 4.28271 2.20632
0.248516 1.50388 3.5241
-0.472346 2.91547 2.60275
0.189801 3.64484 2.37808
3.35784 -0.488566 4.11797
-0.757991 1.41191 3.30086
