ply
format ascii 1.0
element vertex 1908
property float x
property float y
property float z
end_header
-1.93064 2.35885 2.75096
3.45134 2.52228 2.90816
-1.32765 4.02053 2.30445
-0.840391 3.70028 2.25453
-0.466831 1.41762 3.50368
-1.57176 0.0789997 2.90138
0.463658 -0.510675 3.26535
-0.471809 3.94063 2.39304
2.55664 2.70589 2.87848
2.58655 3.56284 2.82853
1.09271 1.51791 3.36395
0.775557 4.19583 2.56579
-0.306848 1.84077 3.28026
0.314031 -2.39704 3.22936
-0.0616695 2.75226 2.48883
-0.612267 4.12226 2.32105
3.49176 1.21265 3.33758
-0.378905 -1.54234 3.15191
-0.477091 2.74313 2.52341
2.75057 2.99342 2.89231
0.634083 -1.67734 3.06759
-0.117807 4.09996 2.36089
1.63701 1.69874 3.251
-0.198296 2.86573 2.44361
-0.796102 1.24385 3.287
3.65574 1.478 3.47389
2.85925 4.70059 2.74004
3.70398 -0.150297 3.78137
-0.828616 0.281069 4.15001
0.783564 2.91883 2.65276
4.31175 1.38768 3.37397
-0.81679 3.01327 2.40384
-0.865124 -0.318322 3.34727
1.26883 -0.00197178 4.56947
3.27582 1.62084 3.19138
1.06404 4.51284 2.5053
2.13531 0.320879 3.73451
0.69805 3.08656 2.63382
2.34115 0.0223223 4.12917
3.30599 1.57881 3.31351
4.08893 2.0719 3.03699
0.378073 -0.554462 3.28753
1.93343 4.40328 2.55107
2.01278 -0.429421 4.57676
0.0802459 -2.14759 1.94251
-0.479998 0.881779 3.16002
3.49571 -0.792019 4.1975
4.03005 -0.423515 3.67285
-1.25007 -0.283811 4.11158
1.20746 3.32265 2.77158
0.766157 -1.96207 2.02928
-0.573176 2.0488 2.95898
4.95389 0.556976 3.33558
0.395913 2.04634 2.9142
2.14877 4.14631 2.66422
-0.484754 3.25632 2.47175
-0.274332 -0.8558 4.99935
1.34118 1.99727 3.11385
4.09263 0.574684 3.45654
0.421439 -0.674714 4.7872
-0.781004 3.20837 2.4594
4.21751 -0.385024 3.93614
-0.498585 -1.53673 3.15096
0.937514 2.94951 2.69151
0.81681 1.74501 3.23532
3.63276 -0.187048 3.87932
1.29416 4.13428 2.49701
3.17983 -0.411276 3.76908
4.08546 1.33335 3.49804
-0.55252 1.09021 3.40712
0.872463 4.21779 2.48167
3.82731 -0.066898 4.00549
0.249888 2.78994 2.54687
3.67553 -0.0153795 3.75524
-0.673887 3.00685 2.45515
-0.679112 1.58264 3.15598
0.335151 -0.73511 3.26846
-0.222417 4.52902 2.19145
2.97942 1.56124 3.20682
1.68053 3.17708 2.89889
3.97579 1.88896 3.29397
2.70386 -0.292573 4.3019
-1.32029 -0.724546 2.78813
1.88672 1.70822 3.314
1.34024 4.51857 2.51967
0.664264 1.93843 3.11285
1.65549 -1.93413 2.45849
-0.397812 -0.628777 4.57342
3.05991 -0.151937 3.8046
2.14429 3.30849 2.88525
1.9827 4.22003 2.56077
-0.535532 -0.385799 4.68657
4.51425 0.808113 3.41292
3.46234 2.33304 3.03509
3.69036 -0.847089 4.23572
3.31959 1.78512 3.10729
2.88038 -0.998979 5.09979
0.03039 -2.26785 2.00034
3.75455 -0.33075 3.76196
-0.990758 3.23762 2.47658
0.468711 2.01534 3.0862
3.55788 -0.787133 4.39101
2.27337 3.30041 2.82122
4.03671 -0.804258 4.07795
1.27153 3.49161 2.72213
1.62831 2.10784 3.0904
0.722398 4.72451 2.38081
-0.986075 1.2435 2.97777
1.8488 2.09733 3.22362
-1.02324 4.3586 2.15714
-1.74765 3.02881 2.41351
1.69843 3.47129 2.8028
-0.498741 0.611504 3.07036
1.7682 0.828042 3.84649
4.02987 0.272475 3.73336
0.853182 4.69892 2.52992
3.19014 -2.32944 3.59838
0.357643 2.27585 2.88172
-0.101855 3.39391 2.4879
0.329541 4.37678 2.44754
-0.472236 0.0949523 3.02385
0.269896 2.22827 2.92433
-0.862114 3.4487 2.43101
3.98899 -0.28087 3.66951
-1.26077 0.421049 3.83797
-0.378675 4.33206 2.27182
1.18476 0.967536 3.58956
1.74608 3.70867 2.73512
2.42505 2.2345 3.04236
-0.771999 -1.38578 2.86282
3.5709 0.497552 3.87124
-0.634014 0.903012 3.63934
-0.48631 2.35401 2.59659
0.371425 3.68692 2.57016
-1.15388 3.55688 2.42552
0.214556 0.251436 4.38448
-0.737204 3.59469 2.38812
4.03764 0.12901 3.96014
-0.136931 0.873787 3.85665
0.144231 0.909309 3.38503
-1.07864 2.04286 2.59839
-0.0442049 2.33473 2.72043
1.77485 -1.59227 4.66164
1.71554 0.391239 4.31625
2.21344 1.79948 3.41069
-0.34312 1.47846 3.32323
3.51306 -0.0909345 3.80615
-0.597756 3.07376 2.52399
1.22156 1.84936 3.37637
0.892901 4.64954 2.37528
0.881307 3.02705 2.68967
1.04888 0.380144 3.48548
-0.862761 -0.168471 3.32248
3.44022 -0.0539105 4.19847
0.525932 3.22986 2.62167
1.47386 4.34138 2.51383
3.5657 1.75083 3.31835
3.47531 -0.243479 3.79094
4.59 0.792605 3.39048
5.04847 0.547017 3.33093
0.355104 -1.04628 -0.96534
3.70335 0.056687 3.74023
2.84177 1.71075 3.24277
4.26979 -0.595775 4.14116
3.05648 3.43168 3.07793
-0.235378 0.791524 3.2387
-1.07125 3.33195 2.50837
1.59697 4.60939 2.53431
2.14374 5.23031 2.6669
3.43355 -0.393152 3.97964
1.11167 -0.0463317 4.51885
-0.669135 2.14331 2.86684
2.18132 3.37412 2.82663
0.993631 2.06302 3.1386
4.06525 -0.255898 4.00628
4.4988 1.10539 3.33652
-0.419472 -0.039148 3.03115
2.43414 -0.617122 4.38154
2.36651 0.215825 3.77357
0.92886 3.41778 2.65437
1.19271 -0.372361 4.66435
3.92835 1.94135 3.11061
4.1007 0.40914 3.7629
0.239822 -1.93829 1.80992
-0.285729 2.21389 2.74087
-0.634375 3.46424 2.51288
3.90166 0.0247927 3.84957
-1.07428 3.49198 2.47027
-0.0797944 2.21096 2.85241
0.661397 1.20586 3.57372
0.125538 -0.840635 3.24705
0.398664 4.6632 2.35638
0.00574602 0.190883 3.43628
-0.583462 3.53458 2.46068
-0.775791 2.38585 2.69508
2.59251 5.23331 2.68954
3.82024 0.589523 3.67841
-1.33929 2.39969 2.80865
4.09731 1.42948 3.32973
0.574948 2.2468 2.79337
0.121797 3.63224 2.51876
3.0213 3.66855 2.86214
-0.13137 2.4703 2.68018
4.49609 0.541853 3.51664
2.62898 0.955583 3.53854
-0.129557 0.759066 3.92869
-0.0721545 3.65264 2.47366
3.53589 2.24194 3.14474
1.30701 2.39878 2.86157
1.80875 3.87693 2.68676
2.66461 0.855423 3.53754
-0.714549 -0.427302 3.26077
-1.19687 2.89852 2.45741
-0.463449 3.73622 2.39712
1.64957 0.460745 4.08158
-0.944555 -0.0765633 1.57934
1.78518 2.55569 2.91337
-0.264641 0.618877 4.14987
3.5946 0.940508 3.63059
-0.149514 -0.215068 3.17483
1.29855 2.20758 3.06347
-1.05333 4.19909 2.20545
-1.15054 0.282141 2.84791
-0.887869 3.34483 2.40075
-0.357152 2.11387 2.76952
3.93114 -0.277644 3.91859
2.09194 3.49455 2.79212
3.38205 -2.43914 3.62325
-0.702241 0.900856 3.08517
0.33938 4.61496 2.33961
0.802208 2.23833 2.81955
3.3519 3.48453 2.89388
1.99494 3.65029 2.78129
-1.12948 0.784922 2.84621
-0.140854 4.18729 2.16472
2.30587 5.13929 2.67256
-0.604416 2.25004 2.72076
1.28784 3.69227 2.69272
2.72129 0.561834 4.08294
1.68083 2.38442 2.89867
-1.40603 2.73161 2.70925
1.80871 3.76022 2.71007
4.41016 0.699697 3.73689
4.06046 0.734331 3.45303
0.571699 0.860302 4.15296
0.906154 2.26244 2.7534
-1.0303 4.31921 2.17855
0.996183 0.881403 3.96012
1.83856 3.84895 2.72161
3.30074 0.925755 3.72456
1.04177 0.73899 3.54404
2.19686 2.44539 2.94584
1.25103 0.419499 4.19743
0.0553033 3.76966 2.4973
0.958378 0.962166 3.55415
4.1357 0.231987 3.98208
-0.938322 0.57112 3.24053
3.08474 1.00416 3.412
0.312095 4.12814 2.47919
2.4562 2.58587 2.91867
-0.407367 0.929374 3.4725
3.23959 3.07149 2.9758
0.534102 3.98919 2.57792
2.0224 1.24284 3.64693
-0.681655 -0.740132 3.2423
5.30008 -1.52594 3.2989
-0.646143 2.58488 2.66026
2.37981 -0.758439 4.48183
0.328533 0.553367 3.6314
4.09674 -1.16048 4.44936
1.09848 2.726 2.74075
-1.27331 -1.0838 2.83879
0.562117 1.70565 3.53712
2.19057 4.1915 2.77099
2.82404 -0.976437 4.82813
0.213032 1.67432 3.58497
0.367913 1.16409 3.69759
-1.16112 2.94611 2.41672
-0.521323 2.6574 2.58301
0.928525 4.16479 2.60923
0.207569 -0.458496 3.2879
-0.716166 -2.24369 3.13916
-0.565466 2.82782 2.51791
3.88282 1.25315 3.34808
-0.496243 3.95607 2.35151
-0.826643 2.66682 2.44693
-0.962536 -1.31885 4.42154
-0.328707 -2.11827 3.10887
2.749 1.317 3.31821
-0.250951 3.95631 2.32658
3.74737 1.48511 3.52182
0.292067 2.85583 2.55363
-1.51256 -0.136526 2.89499
-0.326257 4.0439 2.22812
-0.908917 0.33699 3.19677
2.91801 3.65408 2.93012
-1.17578 0.0462107 3.83854
2.65214 1.47101 3.26582
-0.468472 2.97778 2.60324
3.50269 -0.709308 3.73783
-0.584818 4.05054 2.20416
4.90899 0.00192615 4.55624
4.13666 0.994864 3.43561
-0.44538 1.05438 3.42067
1.89495 -0.888335 3.26709
2.6765 4.6628 2.78139
-0.0782162 1.8893 3.05145
-0.620965 3.0178 2.47952
3.82494 -0.424351 4.08409
0.211381 -0.0481847 4.32509
-0.175584 1.89623 3.14642
0.675189 4.52448 2.51449
-0.414037 1.2832 3.27808
1.85083 3.0991 2.84343
-1.01076 0.727846 3.25317
-0.509415 3.0822 2.42415
3.58803 1.99324 3.14372
3.88363 -0.827753 3.72099
2.12208 1.91999 3.28638
0.658998 -0.726135 4.9756
2.83351 2.06583 3.07914
0.416169 3.02799 2.51039
-1.54894 0.468347 3.0521
-0.16771 1.08944 3.31273
0.129235 1.9422 3.02944
3.22634 -1.02149 4.20957
1.09681 -2.07699 2.12509
0.951145 -0.448172 4.94623
3.40586 -0.869748 3.71843
0.00406017 3.2553 2.50631
3.00109 -0.583219 3.74902
1.26606 2.02427 3.06236
-1.52544 -0.162239 4.08863
2.19049 -0.676266 3.37797
0.130406 3.22872 2.55206
3.25626 -1.63224 4.29848
0.446914 -0.783656 4.64511
1.87335 1.9757 3.20563
-0.540836 2.11524 2.76985
0.55288 1.32123 3.58468
-0.737367 3.26172 2.40759
4.24731 1.25067 3.41572
2.87687 3.19885 2.92307
2.97317 3.7729 2.75387
-1.08004 1.00728 2.9137
2.94021 2.06238 3.04158
-0.249798 3.31123 2.42032
-0.0431058 0.742416 3.95157
3.8767 -0.287511 3.89033
-0.759458 2.16844 2.72498
0.291056 3.46402 2.53098
5.35052 0.366264 3.27763
4.00047 0.197181 3.67578
1.66423 3.71702 2.75239
0.846076 2.28347 2.79134
-1.19352 0.324739 3.8947
-1.46747 4.01478 2.29015
2.29354 0.931908 3.82332
-1.45167 0.861162 2.05337
3.28198 -0.298637 4.07348
-0.618341 2.36691 2.78716
1.06414 3.70263 2.63006
2.85032 0.658839 3.91437
1.55585 2.45871 2.90125
0.201722 -0.278717 3.34755
-1.34267 -0.10904 3.25562
2.52865 0.987386 3.59784
2.90254 3.84454 2.67337
-0.947567 0.370832 2.96092
-0.570089 1.1037 3.50301
1.03916 1.10592 3.58371
0.416261 2.39315 2.74213
-1.15539 0.253087 3.94247
-0.643869 3.5983 2.34685
-0.494784 0.92709 3.77135
-1.8042 3.13168 4.81892
2.13114 4.79885 2.6474
-1.94842 3.10766 2.41106
1.35204 3.39403 2.72604
-0.209816 0.539483 3.37909
4.13235 0.117013 3.81776
0.826452 2.0229 3.04221
-0.735252 0.891068 3.04183
2.0802 5.37137 2.67954
2.05292 3.43175 2.86508
-0.999772 0.582788 3.65984
2.63067 2.03604 3.06593
-1.45134 1.7145 2.82732
-1.01668 4.22896 2.20372
2.02349 -0.281399 3.48384
-0.242634 0.712579 3.98057
1.39263 3.54456 2.71874
-0.889377 0.197902 1.75841
2.28094 2.05082 3.14077
-1.4102 0.45563 3.32439
2.00278 -0.0899142 3.63053
-0.294407 3.23499 2.42084
0.152812 2.22412 2.72039
-1.51192 2.01955 3.10971
2.03917 3.62585 2.77046
-0.155009 0.282007 4.25785
-0.503154 4.35647 2.25867
-0.640062 3.55289 2.47486
0.691352 2.18819 2.83619
-0.514648 0.403324 4.2445
1.02321 1.18607 3.56383
-1.30341 3.10071 2.52542
1.08538 0.121891 4.43235
0.0862974 3.62798 2.51457
0.0637944 0.945486 3.39425
2.21959 2.27886 2.97555
3.35609 0.57792 3.64245
3.13908 0.0946446 3.75068
3.49472 -2.42324 3.6169
2.54611 -1.08363 4.29938
-1.0521 3.59983 2.38003
1.47647 1.26099 3.72082
-1.21046 -1.2714 2.81458
1.20228 2.52557 2.90897
3.73666 -0.873805 4.00673
-1.03331 2.18716 2.50816
2.53627 0.935636 3.66084
1.50525 3.83956 2.64651
0.321932 4.5578 2.49059
0.986925 2.40111 2.82701
-0.884876 0.925058 3.2234
0.880391 1.5184 3.63916
-0.590492 3.69572 2.38176
-0.975238 0.0447739 1.60009
1.37763 2.57503 2.79411
-0.935381 0.0323258 3.27044
1.09262 1.39129 3.6373
1.65343 3.94025 2.60816
3.62138 -1.4323 4.25789
-0.158444 0.860071 3.58492
0.170374 2.40983 2.57506
0.353301 0.248998 3.50876
0.370333 0.933032 3.70477
2.47819 2.72876 2.89934
1.93958 1.38748 3.4379
1.34444 3.99228 2.57768
5.38706 -1.6479 3.06131
0.183945 0.766053 3.61701
0.68559 2.60646 2.6627
1.08385 4.06539 2.56161
2.6065 3.66704 2.72031
3.91104 0.99519 3.47945
-1.34477 0.682691 3.26153
0.40611 2.80697 2.59958
2.05423 1.54909 3.41511
3.21542 3.12183 2.95922
-0.076626 3.93774 2.37447
1.21885 2.78652 2.73922
-0.456904 -1.33641 3.17072
4.48469 -2.28235 3.48028
1.03401 1.62083 3.36734
0.339143 4.13086 2.46036
-1.4321 0.650953 3.33097
-0.556049 -0.516235 2.97001
-0.997372 3.36289 2.43365
0.0519684 0.763737 3.35786
0.386115 2.22675 2.94639
1.44791 3.67963 2.7746
-0.74135 4.18397 2.10399
0.658135 2.25171 2.81894
3.08088 3.67907 2.73941
2.4501 2.14538 3.06036
-0.0799574 3.52611 2.49029
-0.597615 0.869582 3.08144
-1.20757 3.72413 2.36552
1.66906 3.75188 2.70477
1.90163 1.00881 3.61103
3.39448 0.483347 4.0032
1.76397 2.37485 2.92892
-0.269866 -1.41557 3.86212
-0.906964 0.796434 3.74347
-0.473442 3.61763 2.43068
-1.6665 3.56135 2.42505
-0.833821 0.716477 3.84346
-0.453341 2.3637 2.71354
-1.05483 2.23155 2.49703
4.28884 0.658702 3.47943
1.03402 0.886635 3.57455
2.33959 2.47983 2.91562
3.48735 0.385256 3.87633
-1.05567 2.67423 2.64073
4.03268 0.707647 3.18521
1.61289 3.85909 2.67622
-0.920328 0.159718 2.90902
1.12657 2.48647 2.87751
3.50213 3.30635 2.7913
-0.692139 1.00822 3.65589
1.50433 3.88592 2.61984
-0.780484 2.61885 2.52401
-0.725058 -0.872159 3.22721
0.205099 -2.91541 2.75998
-0.701154 1.43003 3.32178
1.88543 -0.823755 4.88732
1.83548 3.96072 2.63125
1.81299 2.6354 2.92375
1.52224 -0.566451 4.42068
0.26257 0.338069 3.46031
3.85815 0.926634 3.50612
1.70872 3.97292 2.59726
4.41292 1.14471 3.66277
-0.984381 -0.992697 4.18879
0.229607 2.60596 2.55448
-0.999655 3.69428 2.2207
1.01084 4.65191 2.4638
-1.32433 3.92138 2.30759
-1.14492 -0.892706 4.27282
4.39088 1.41154 3.24676
-0.67601 1.78527 3.16109
1.33553 4.08411 2.52864
4.12171 0.61451 3.45173
1.62818 2.93393 2.84983
-0.7134 -1.8573 3.14239
-0.0381091 1.82604 3.44606
-0.657982 3.56565 1.87756
0.535408 -0.585766 3.37928
4.13689 -1.4834 4.54219
0.808894 2.73908 2.6715
-1.0074 -1.84573 3.11622
1.2185 3.03347 2.73768
-0.225899 1.04395 3.53183
5.50511 -1.47602 2.97588
1.03687 4.18583 2.46979
2.08415 1.65536 3.30671
2.26531 2.94537 2.83615
-0.760779 1.30502 3.21159
2.59194 3.6696 2.74685
2.18898 -1.28267 4.48059
3.16083 1.35374 3.24187
0.981001 -0.980467 4.77202
5.26176 -1.7845 3.26304
-0.76961 2.63116 2.70188
3.82027 -0.839149 4.22432
-1.32149 -0.689317 2.72144
1.20723 3.8916 2.60202
1.44218 1.3208 3.63075
-0.994934 -0.0888202 3.25433
-1.95381 3.61266 2.45097
1.35998 1.42607 3.47133
-0.77175 3.71666 2.31852
-0.645975 -1.38417 4.33367
0.425515 2.53187 2.57062
-0.256603 0.643989 3.47151
0.417193 4.01555 2.55378
-0.839824 1.3956 3.44099
3.12757 -1.07475 4.028
0.813624 2.54537 2.70683
-1.26082 4.08731 2.27552
-0.553763 2.71973 2.49959
-0.940873 3.78805 2.28162
2.8901 1.351 3.42713
-0.79847 1.51481 3.28184
-0.594595 -0.0176774 3.30618
-1.16731 -1.67561 3.16053
1.27014 -0.707081 3.31904
0.31491 2.60874 2.55272
1.88473 4.13138 2.58631
1.21598 -2.08699 2.31981
-1.02769 -1.51943 3.14663
1.98485 2.96267 2.82192
4.35331 0.286139 3.43819
1.86522 1.58885 3.28963
-0.765583 3.9213 2.16118
1.43622 2.91111 2.80112
2.56984 -1.28834 3.81657
4.10325 2.06439 3.02631
0.553335 1.68686 3.26658
-0.780653 4.001 2.16119
3.32008 0.184767 3.83711
-0.553006 1.63064 3.20194
0.191186 -1.25037 4.58012
3.27414 0.339435 3.95462
2.65625 -0.0855603 3.77931
4.06699 0.655957 3.46495
-0.713745 2.97931 2.51873
2.31249 1.61202 3.27946
3.20707 1.60587 3.17184
1.07828 4.3529 2.49494
-0.526342 3.0886 2.4868
3.87711 -0.279654 4.18187
-1.19421 0.988142 3.04218
-0.814604 2.05458 3.16249
1.99015 4.15496 2.56966
1.61249 3.18323 2.83284
4.57035 1.384 3.32594
2.81972 -0.421131 3.76042
0.625966 0.0942493 4.55056
0.875363 -2.07216 2.85583
1.3955 1.9683 3.10466
1.39848 4.41179 2.51989
-1.17038 -0.378236 4.43223
-0.762864 0.690971 2.93715
-0.536851 3.13953 2.42326
4.95529 -0.106187 3.45202
3.49303 1.73042 3.28775
4.79218 0.302222 3.935
3.66122 0.0756583 3.7671
2.26315 -0.259667 4.29989
2.11278 3.34345 2.85829
0.145132 -0.767028 5.21452
3.72524 2.25923 2.98149
1.20539 0.598825 3.5246
0.394789 3.36433 2.57331
2.60029 2.01671 3.15718
1.34935 4.64668 2.53211
-0.234939 -2.15888 1.56494
4.03187 0.062166 3.74885
-0.556519 3.21374 2.44001
3.79762 1.90224 3.29108
3.54541 -0.834183 3.71274
-0.429536 2.67623 2.55497
3.8073 -1.76534 3.83907
-0.621649 -0.669278 4.5519
2.06903 1.31911 3.38188
-0.835498 3.73951 2.28313
-0.562587 2.61447 2.55757
0.608318 0.843553 3.68944
0.271944 1.68567 3.65228
-0.37195 -0.417868 4.42144
0.10827 3.98985 2.47746
3.01191 3.66578 2.98394
-0.949409 -2.03942 3.136
-1.0659 -1.21521 2.79176
0.826232 -1.03756 4.93135
-0.0593942 2.61598 2.47031
0.169046 4.09278 2.49559
3.55803 1.17254 3.30278
0.740203 -2.59881 2.77657
4.44439 -0.862917 4.50883
-0.944484 -1.01536 4.10844
0.476322 4.1727 2.495
0.0883833 1.81344 3.2415
-0.907047 -1.96861 3.10591
0.389062 2.89168 2.61411
2.48033 0.251317 3.78802
0.299142 4.17468 2.44031
4.00516 -0.572102 3.6862
2.60609 1.45156 3.39512
1.36848 2.91786 2.82271
4.1724 1.78015 3.38048
1.14361 -1.13232 3.05899
0.129102 -1.22974 4.55979
3.02736 1.48779 3.16327
-0.219627 2.99988 2.50278
-1.30611 -1.38844 4.23023
-0.872445 1.54011 3.15449
0.465287 1.76113 3.10593
1.78801 4.51377 2.54442
-0.986661 0.109614 3.02883
4.7429 -1.75101 3.208
-0.0843918 2.92089 2.51984
5.09548 0.443419 3.35129
-0.118485 3.13791 2.5098
0.865493 4.38436 2.49515
1.37156 1.96047 3.21023
-1.1868 0.39621 3.86214
-0.678043 3.05787 2.45626
4.03949 -0.527809 3.65993
4.91921 0.443609 3.37353
3.11341 1.62668 3.22144
0.297944 -2.02317 1.86064
1.00272 0.641584 4.14153
1.23582 4.47045 2.50508
1.566 0.835583 3.65588
2.77048 0.122688 3.79327
3.45759 3.22724 2.85585
1.64396 3.35485 2.78212
0.540364 0.351472 4.35451
4.04558 0.725718 3.43542
2.24453 1.91236 3.18972
-0.408791 2.12038 2.79976
3.26078 -1.64541 4.34986
0.152267 0.0653562 4.3374
-0.817627 -0.363463 2.97071
0.881635 3.47146 2.69615
0.181649 -2.38113 2.99176
1.09841 2.11682 3.13853
-0.0649687 3.25292 2.50482
3.04251 3.65138 2.73795
2.17959 5.07631 2.40738
1.37215 -0.249667 4.49763
2.11368 3.58144 2.80846
-0.40787 2.12929 2.63305
-0.573018 0.924338 3.08339
-1.33837 0.139386 3.31024
1.10661 -2.0112 3.04694
4.67108 -0.263031 4.37463
0.583728 3.5252 2.60562
-0.932989 2.33121 2.87999
-1.13306 1.53624 2.94569
0.836872 -1.31294 4.31238
3.3776 -0.114621 3.81525
-0.0100308 3.07411 2.50526
-1.06363 1.30449 3.17063
2.62641 0.403501 3.86804
2.22539 1.74441 3.18041
2.09354 4.06302 2.69604
2.90732 0.486245 3.86775
1.08465 3.10507 2.7039
4.20676 1.94066 3.10192
2.67286 -0.383727 3.74382
0.724031 1.88416 3.20603
1.94259 4.32819 2.56821
3.63806 1.68274 3.18942
2.15606 -0.292605 3.56427
-0.715148 0.100243 4.2985
-0.201729 3.10683 2.47009
1.84501 4.35262 2.53154
4.76311 1.3622 3.3507
0.908876 0.216505 4.51127
3.08935 -0.5235 3.76126
-1.14992 2.21876 2.94953
-1.99077 3.04078 2.46341
1.76666 2.0749 3.20496
-0.244546 1.53394 3.3004
0.7114 3.36968 2.65676
2.9116 1.7821 3.12711
-0.390943 1.35527 3.2365
0.684329 4.62324 2.37506
3.32636 -0.254722 4.27087
1.41367 3.35469 2.75499
2.48879 -1.43871 3.32593
-1.00681 1.42676 2.91366
1.05648 -0.413383 4.81192
4.61851 0.758447 3.38847
0.699317 2.17885 2.94545
4.03079 0.185383 3.79118
-0.000344828 2.07836 2.81543
1.15045 -0.232308 4.6054
4.23746 -0.369411 3.82454
0.611374 -2.03447 2.03899
-0.0572099 3.33543 2.51308
0.889004 3.51337 2.66602
-0.718838 2.34828 2.7628
3.77071 -0.0610263 3.73203
0.654349 -1.0927 4.30459
0.448154 0.369909 3.42492
-0.915338 3.44985 2.44509
2.78256 -1.54618 4.26804
0.616121 2.15814 2.79821
-1.03186 3.54299 2.45242
0.398552 1.1118 3.54767
2.08024 2.30302 2.99456
0.531425 3.6623 2.56937
0.508163 1.31146 3.58456
1.70071 1.01154 3.81533
-1.3475 2.74345 2.63774
1.91797 1.08224 3.56981
1.54064 3.78195 2.67259
0.594264 2.34583 2.65531
4.78225 1.24674 3.24186
-1.16123 -1.81091 3.40911
-0.265731 3.71005 2.46153
3.62314 0.615015 3.61149
-1.89684 3.65203 2.44022
-0.800568 1.22559 3.29953
1.48159 2.40621 2.9175
3.90147 0.307474 3.81803
0.14112 3.95322 2.59592
0.00272488 -0.644975 -0.562761
1.53018 2.62865 2.88123
-1.06394 0.449652 3.22127
0.797751 1.47159 3.56585
3.79359 0.768429 3.42161
-0.857935 -1.11843 2.89424
1.70649 0.794127 4.11962
2.65044 2.49 2.9579
0.0125937 0.85872 3.64519
-0.815657 3.69208 2.31073
2.48041 3.35328 2.84365
3.36077 2.05227 3.17338
2.02496 4.83509 2.62434
1.39992 0.577434 4.04742
-0.709402 2.08523 2.90288
4.24855 1.45825 3.41081
-0.416898 0.541647 3.29161
2.90927 -0.598143 3.75099
1.4162 1.89766 3.1532
-1.5203 2.74199 2.75244
3.99322 -0.42144 3.94408
1.76683 3.30789 2.81324
4.78653 0.494228 4.15398
2.78156 0.476741 3.82462
0.139226 3.38262 2.57193
4.29155 -0.633768 4.10969
-0.698073 -0.187217 2.99692
0.242262 -2.23793 1.90252
0.633241 2.07867 2.90702
0.0718844 3.24784 2.51941
3.98064 -0.0569232 3.87961
2.5159 1.9623 3.20466
1.98619 0.568472 3.73597
-1.13646 0.234061 4.31727
-0.622621 -0.87633 2.91816
0.786415 3.50465 2.65714
-0.745171 0.233532 4.09918
2.10827 -2.37676 3.60167
2.10516 2.03177 2.99717
4.85414 -1.05535 3.86659
1.71877 -2.30501 3.60611
-0.162682 3.38984 2.44753
2.64867 2.16987 3.0345
2.5067 -0.158408 4.40197
-0.324834 0.0758395 4.31437
0.0829989 2.21237 2.81402
-0.705093 3.51878 2.45075
-0.0180244 4.55077 2.25847
1.87024 -1.63808 4.26647
3.90032 1.9696 3.13936
0.0127839 3.6366 2.53536
1.42311 2.37535 2.89117
-1.37296 3.17145 2.37867
1.14894 1.07377 3.73147
-1.12235 -1.53928 2.80877
4.59489 0.516327 3.52066
2.59731 2.25085 3.01409
1.16443 3.74901 2.63816
-1.12616 -1.36204 4.22576
1.72388 2.51915 2.9109
-0.370839 -0.10121 0.678015
-0.863972 0.888381 3.24627
3.78979 0.784347 3.422
0.778683 3.85889 2.63294
0.37137 0.441284 3.40797
0.229648 0.298575 3.50036
-0.511502 0.469771 3.36969
1.7541 2.44992 2.9456
-0.756342 3.61729 2.31323
3.92892 0.717103 3.55377
-0.832198 -0.960147 3.24573
3.562 2.7889 3.0226
0.583439 3.97738 2.59113
1.2751 2.56044 2.77946
0.515639 -2.67799 2.7071
3.95796 0.89877 3.51911
3.37085 1.12383 3.41267
1.06246 3.97315 2.55894
-0.0832536 -0.378932 3.24005
-0.701847 0.783536 3.76886
1.03225 2.70069 2.73679
1.70196 4.02797 2.59237
4.23886 1.00469 3.44625
0.343394 0.074835 3.37624
-0.155827 2.56291 2.55634
4.22825 -2.21289 3.56428
3.68927 -1.51975 4.06707
0.501816 2.31846 2.78741
0.0869686 -0.786141 -0.710742
0.512267 3.60107 2.59486
-0.49163 2.33871 2.78156
-1.26159 2.3588 2.81779
0.848915 0.0297914 3.53466
1.18617 3.68251 2.64063
-0.297688 2.41248 2.63263
-1.18699 0.202086 3.27628
-0.3719 3.62994 2.45253
0.810207 1.12432 3.96069
0.664755 0.659118 3.5087
1.02779 2.37166 2.81886
-0.897214 1.2777 3.29654
1.69624 1.15179 3.83426
0.682508 3.81306 2.59533
0.0632994 1.04158 3.40604
1.79695 1.18934 3.55396
0.65268 -2.6342 2.74266
0.548144 2.42693 2.63486
4.16342 1.2311 3.40673
1.5335 3.8697 2.61713
-0.560311 0.185024 3.32366
3.12067 0.710323 3.93828
-0.553768 1.44983 3.3568
0.821071 4.05834 2.65934
2.14434 2.66811 2.90509
-0.122843 0.683918 3.4509
-1.11971 -1.54605 2.80792
1.49257 0.913779 4.0833
0.278024 4.06072 2.58004
0.0163957 1.49654 3.40135
-0.738214 2.53227 2.5418
0.372792 -0.00965768 3.43187
0.38266 0.189944 3.52461
-0.760262 2.79187 2.56898
4.69866 -0.511088 4.09004
1.14547 1.59391 3.38792
-0.382888 3.80615 2.32122
1.55831 -1.31953 2.95903
-0.290384 -2.3437 3.17097
2.31523 2.75471 2.92702
1.79561 4.06386 2.54319
1.77021 -0.302309 4.50502
-1.07242 1.45093 3.44258
0.729493 -2.58594 2.27653
-0.367447 -1.23549 3.1476
0.325968 2.86201 2.58689
-0.503774 1.89394 3.2197
2.64931 3.63721 2.7428
1.78857 4.09169 2.50853
0.522624 2.78236 2.60304
2.21858 -2.44856 3.61552
0.0174408 -2.89292 2.76621
0.699379 1.63541 3.22389
2.72111 -0.674156 4.46547
-0.318351 1.91073 3.15769
-1.14156 -0.760677 4.00704
1.63162 4.16622 2.49753
1.22386 0.0991571 3.4442
0.706404 2.99588 2.65579
3.9743 -0.890242 4.72013
0.628498 -0.820539 4.744
3.32724 -0.535102 3.75454
-0.863875 1.47771 3.1577
1.5033 4.56494 2.52733
1.78137 0.255616 3.65562
0.33886 1.92223 3.07721
-1.6862 1.46166 2.87289
-1.10598 -1.43365 4.33299
-0.0952167 3.07999 2.50976
2.85401 1.58631 3.24346
3.38341 -1.12072 4.19458
1.12513 4.5224 2.50834
1.82055 3.14875 2.81492
4.3792 -2.08174 3.71956
-0.35186 1.21171 3.62588
0.880236 3.79917 2.6548
1.05865 2.435 2.82236
-1.30818 0.874714 3.27542
4.66949 1.25035 3.17111
2.20148 3.86804 2.71728
1.3178 1.0942 3.87244
-0.478929 -0.0331897 3.37243
-1.12533 -1.53753 2.80902
-0.761718 -1.05798 4.31561
1.53132 2.40593 2.93997
1.37768 -1.391 0.0956932
-0.330297 2.5472 2.58536
-0.792747 0.756344 3.25187
2.70726 1.07763 3.4796
0.675596 3.92706 2.6178
3.95726 -1.53654 4.34665
1.11752 2.55706 2.86572
-0.112676 -0.00358763 3.28406
-0.956413 -1.32061 2.88017
-0.254481 1.31027 3.56721
0.491904 3.98364 2.59687
-0.793961 2.71831 2.5701
2.39174 4.12283 2.74021
0.217853 -0.63115 3.29132
0.777562 1.5706 3.44698
0.0909999 4.04848 2.56736
0.194572 2.52218 2.56283
0.208671 -0.130802 3.2794
0.418478 4.03514 2.52804
3.41648 0.963868 3.32305
0.745339 1.59549 3.313
2.09644 2.80615 2.88042
0.672769 4.06625 2.51453
3.78838 2.42363 3.02441
-1.01553 -2.17462 3.12265
1.07836 -2.60252 2.91734
0.137771 1.85329 3.29675
1.16576 4.14118 2.52103
-0.596059 0.0569576 4.17395
1.75109 0.103302 3.57435
-1.08475 3.07683 2.43439
1.31885 2.96473 2.78892
-2.38571 2.69493 6.39351
0.163381 4.11741 2.40044
1.42024 0.0323341 3.39539
0.481186 2.75747 2.58841
-0.270181 0.933436 3.49935
1.89289 3.15544 2.84281
1.55706 -0.287938 4.6601
0.892674 -0.849414 4.75542
0.0233951 1.9108 3.13655
1.23327 -0.770265 3.31287
2.44087 5.40382 2.69579
1.53812 -1.50547 2.93065
4.2361 1.59502 3.28242
3.98097 -0.320072 4.17163
0.991243 1.81962 3.29468
2.0373 4.67969 2.6434
-0.384142 2.9383 2.52329
0.480119 -2.13305 1.94356
2.40303 3.27472 2.83398
2.04767 -0.708467 4.99775
2.00084 4.1306 2.60486
2.4914 1.81673 3.25088
2.92354 -1.95089 3.74234
-1.03883 -0.417775 4.21638
-0.610389 3.10034 2.50838
4.4705 1.67023 3.31385
1.61629 0.54964 3.61813
-0.463561 1.95167 2.98661
0.70874 4.51192 2.51388
3.75436 -0.249826 3.73253
1.2283 3.32395 2.73523
4.57084 -1.05874 4.80964
3.9925 -0.734662 3.90177
0.0395444 -0.818103 4.72031
0.331542 2.06145 3.04166
2.87562 0.207788 3.80446
3.21311 1.31358 3.32501
1.08016 4.05719 2.51402
-1.28354 -0.303557 4.08882
-0.0941825 -2.37623 3.23557
-0.135643 2.74674 2.51577
-1.41094 0.981024 3.203
3.27859 1.2237 3.34789
-0.703798 -0.125702 3.00592
-0.687262 3.90509 2.18493
0.741343 -0.573428 3.38408
-1.21211 -0.037957 4.12774
0.704748 2.72127 2.64116
-0.315148 0.982499 3.50449
1.81554 3.0626 2.83601
2.79275 -0.531285 4.23958
0.99034 4.16702 2.46587
2.8246 1.50766 3.25271
5.40284 -1.40585 2.98329
-0.140817 2.868 2.54084
4.31606 1.52576 3.33787
3.03359 3.59516 2.98962
0.769196 -0.854063 4.7187
3.52432 1.41367 3.43771
3.98785 2.27174 2.9902
1.6438 -0.767596 4.50048
2.67022 4.46359 2.53727
2.06166 0.197213 3.71722
2.40984 -0.754849 3.44704
2.82567 -0.686432 4.40888
1.24904 3.13948 2.76403
1.21753 1.8671 3.30486
-0.855742 2.08998 3.0017
1.86294 4.48133 2.54768
0.674952 3.2326 2.65579
3.31975 -1.23355 4.74638
-1.53412 0.409505 3.01437
2.87678 1.63344 3.18693
4.63072 0.661628 3.76546
1.17327 -0.997957 4.84551
-0.576658 3.13415 2.52986
2.91812 -1.94933 3.74362
2.71541 0.0779593 3.7867
-0.189115 2.03866 2.83148
-1.32926 1.30843 3.39037
2.80882 4.2071 2.7328
0.833716 3.34237 2.65655
-0.653775 1.25315 3.13812
1.04227 -1.66998 4.65776
0.612408 2.0034 3.00966
2.15644 4.61566 2.63056
2.83097 0.758575 3.70007
-0.319681 1.54786 3.27808
-0.0255877 3.2075 2.53086
-1.03727 1.87103 3.045
4.12147 -0.446678 4.0012
2.51191 0.616146 3.77951
-0.720977 2.15871 2.73235
3.96947 -1.04409 3.65124
1.65153 -1.89697 1.62081
-0.389318 3.32141 2.49471
3.55577 0.541503 3.80892
-1.30717 3.54494 2.27808
4.77185 0.878581 3.3058
2.03975 2.01437 3.10541
-0.485996 3.41506 2.50492
-1.27584 2.86427 2.47423
1.71805 0.31926 4.14287
2.13169 2.16303 2.97023
-1.73603 2.92327 2.72446
-0.535614 3.42425 2.45002
-0.398355 0.458907 4.13447
0.382137 4.38117 2.25718
-0.870585 1.3432 3.07548
1.0506 3.64299 2.65852
1.13633 2.17488 2.91699
0.338793 0.0448816 4.43541
-0.598398 2.35359 2.70083
0.899241 3.68326 2.63053
-0.250835 -0.199201 3.03035
-1.30984 3.04898 2.53487
3.54976 0.0295216 3.97582
-0.828965 4.05957 2.20425
-0.581134 1.94393 3.18476
1.99847 0.124279 4.16218
0.928001 0.0286715 3.44207
-1.68002 1.43871 2.97752
1.48649 3.05722 2.80227
-0.384749 -0.825883 4.49106
1.17403 0.391331 4.33815
-0.9227 1.87375 3.26499
0.519036 2.85632 2.61344
-1.56648 2.06172 2.82964
1.91948 0.0812722 3.66936
3.99157 -0.352978 4.09799
4.65964 0.923182 3.31231
3.80464 1.58306 3.24214
2.50151 4.83861 2.73706
-0.699061 3.03174 2.44095
3.96473 2.16108 3.02587
0.22447 0.0326108 4.42799
-0.519408 1.94415 3.08094
1.10129 4.3493 2.49423
1.09538 -0.763961 3.31697
-0.0624628 3.00068 2.53007
-1.49483 0.233474 3.00285
0.953829 3.32518 2.70799
4.37774 0.572292 3.40433
-0.0882182 2.02074 2.92896
1.90468 4.26277 2.54094
2.27063 -0.53171 4.38371
1.17033 3.21565 2.69192
2.3257 0.290248 3.75266
-0.337023 2.06891 3.04683
4.0044 -0.801486 3.92701
-1.06099 1.73507 2.95383
-1.03331 -0.275145 4.19247
0.527629 3.41318 2.62157
-1.11704 -0.470645 2.85892
2.38899 1.97983 3.11042
-1.21128 -0.6801 4.24701
3.89907 -1.17457 4.06276
0.97184 4.74115 2.37957
-0.0990807 -2.16975 1.75327
2.31736 3.39153 2.80895
3.10596 -0.716229 3.73595
2.10449 -0.719095 4.86617
3.32389 1.8333 3.18885
0.0346128 1.14433 3.34559
2.74549 1.98107 3.03904
0.501499 1.18248 3.57431
1.23457 3.52806 2.71686
-1.29769 4.03734 2.15696
1.51716 3.65666 2.77245
0.344004 0.856029 4.18557
-0.101255 1.21453 3.39248
3.9406 -0.0267822 3.83332
0.718439 2.25532 2.84893
3.32332 3.47206 2.8937
3.98427 2.09143 3.17486
1.13502 3.6768 2.69972
-0.678301 0.0760876 3.0271
0.126981 4.26282 2.2311
1.88366 5.06614 2.62719
-1.48477 1.8056 3.22432
-0.838538 2.41899 2.65538
3.60792 0.424849 3.85402
-1.48069 0.0059041 2.69816
1.34543 3.71252 2.68393
2.91484 0.789149 3.61279
-0.215817 2.40701 2.81096
-1.36219 0.209353 3.25915
-0.0797384 -0.171013 0.80248
1.22593 0.69093 4.03403
-0.254052 3.64976 2.48136
1.40623 2.56819 2.92156
3.72192 2.15257 3.18834
1.91246 1.16148 3.58689
0.213749 3.76189 2.53805
0.0253453 -0.014581 3.36422
-0.91172 2.59123 2.76516
-0.673042 0.62392 3.36818
4.4572 0.835596 3.60155
1.30533 0.480501 4.15914
0.0340178 3.85927 2.5365
-0.225988 -0.666041 2.93607
4.95582 -0.731557 4.05753
-0.921509 2.17537 2.82123
-0.843589 -1.59618 2.85236
1.41312 3.4781 2.74476
0.469686 2.01694 2.9234
-0.298493 0.603624 3.32789
-0.188207 3.24121 2.49052
4.24163 -0.635575 4.0133
3.07021 3.70307 2.86487
1.62546 0.756932 4.08947
0.690258 3.48437 2.64273
-0.419902 0.688272 3.16749
1.97399 5.28026 2.66641
-0.224833 2.19348 2.75509
4.20411 2.19972 3.2832
0.945635 2.17608 2.99193
-0.0413325 0.855617 4.02666
-1.15121 2.71442 2.66883
-0.87093 -1.13863 2.24357
-1.08647 3.43696 2.43842
1.5197 0.166094 3.49422
0.143785 2.28887 2.71357
0.660593 -1.02392 4.19431
4.23043 0.167627 3.83319
-0.54093 3.52318 2.47693
2.18231 0.605683 3.84846
3.64251 2.5413 3.01268
0.546092 2.23176 2.79323
0.280835 3.61695 2.54639
0.43262 0.582905 3.4615
-1.4609 0.857214 3.26617
0.301923 0.197685 4.38216
1.4102 3.78417 2.67751
0.660561 -0.00373001 3.48196
2.11452 2.32091 2.93884
0.711173 0.957382 3.83188
-0.994943 -0.181477 2.88777
-1.81035 0.218531 4.89709
1.72704 -0.926913 4.66112
2.9901 0.986076 3.58852
1.74918 3.81552 2.66105
1.50257 5.0107 2.5863
2.10227 2.49567 2.93712
-0.807088 -0.210709 3.27493
2.86465 0.889504 3.57237
0.336815 3.85684 2.54722
4.52282 1.11126 3.33182
0.181289 2.41028 2.7022
-0.677086 1.09045 3.35504
0.999139 1.41921 3.37359
0.249223 3.88048 2.51268
2.89226 -1.59021 4.33348
-1.4147 3.35724 2.41399
3.48878 2.52692 2.93167
-0.204596 0.432395 3.43767
2.36823 1.22263 3.61721
-1.28842 2.01318 2.94157
1.94465 -1.19587 4.43359
-0.0701703 -0.147605 0.856444
2.36002 2.5505 2.91074
-0.517944 3.84087 2.38842
-0.159023 2.7511 2.58927
0.293157 -0.167406 3.2964
-0.478251 1.66963 3.28521
0.213272 3.99175 2.49271
0.617858 2.63406 2.62201
0.0616674 -2.30535 3.23858
0.598152 4.13625 2.55362
-0.15191 1.64447 3.33609
3.90174 -2.54522 3.36906
2.0431 -1.48156 3.64923
3.15753 3.5035 2.98618
1.86625 4.14634 2.55352
2.91288 2.85896 2.9366
3.55982 1.28893 3.38535
3.88774 2.19462 3.0243
4.35133 0.0663808 3.73466
1.13572 0.825473 3.57404
0.0537294 3.49342 2.5461
-0.443678 -2.56444 2.78426
1.45581 2.23299 3.05419
-0.287162 3.50088 2.48492
4.11158 0.371941 3.5648
2.75102 2.21119 3.0086
0.626534 3.61081 2.56538
0.390759 1.29064 3.57028
1.83016 2.21802 2.98853
3.26711 -1.4793 4.10682
0.772756 3.74874 2.61338
0.492282 1.21974 3.77906
-1.23386 0.571246 3.27951
0.66718 0.785702 4.1244
0.315025 2.40909 2.71605
-1.52689 3.72054 2.42225
-0.542884 0.872353 3.76271
-0.845242 1.09046 3.28935
4.73626 0.667092 4.235
0.444478 2.36247 2.7691
-1.80431 3.64366 2.44998
-0.68035 3.57864 2.3582
1.70946 2.63727 2.93548
0.525936 0.554246 4.10739
-1.02203 1.51456 3.2634
2.07524 1.26409 3.61267
-0.583509 3.65964 2.37935
1.32451 -1.40928 0.00948721
0.884036 0.498182 3.47532
-0.265844 -0.020998 3.29782
-0.804303 2.58217 2.67025
-0.959833 3.72264 2.34146
4.06067 0.795411 3.60546
2.57816 3.78654 2.70893
3.50076 -0.794701 4.69842
-0.475891 3.82858 2.39379
-0.482668 -0.904874 3.23171
2.70644 2.58137 2.915
-1.87158 1.30531 2.77915
-0.539715 -0.52291 4.54116
4.43753 1.07167 3.71383
0.904751 1.58161 3.34304
-0.666385 3.80786 2.32436
0.120674 0.224254 3.48017
2.42386 -0.944405 4.7142
0.356927 2.68321 2.5923
0.724672 4.0989 2.53205
-0.0603026 1.63832 3.37687
0.909852 -0.890878 4.99369
-0.0363058 -2.44362 3.25123
0.501049 2.61639 2.60899
1.02437 1.74095 3.36527
-1.13789 -1.60554 2.8023
0.417921 4.12981 2.48148
3.27443 -0.532785 3.75164
-1.11122 -0.442696 3.17478
1.01294 2.9094 2.70834
2.0909 1.48035 3.34443
0.439689 4.2059 2.4896
3.82267 -0.760735 3.7183
-0.211298 -1.29231 4.64026
-0.50225 2.77999 2.52131
4.46514 -1.94662 3.71057
-0.88725 3.08374 2.54944
-0.819151 1.61197 3.16724
0.942989 -0.704749 3.32652
0.226574 -0.790083 4.54418
1.65385 1.72825 3.20196
0.24387 2.89296 2.54533
-1.09212 0.958756 3.19499
0.436002 -2.22048 1.89097
-0.407606 1.8846 3.13676
0.630966 -0.406509 4.70214
-0.654077 -0.646658 4.00338
2.53891 1.09462 3.46919
2.51104 2.93565 2.86573
-0.000469155 2.46382 2.55521
-1.24115 -0.748132 4.88449
0.93379 -2.7251 2.80964
0.470073 4.11562 2.63224
-0.393198 -0.312297 3.23941
-0.404654 4.15095 2.35709
1.29368 1.48501 3.44201
0.0538555 3.99875 2.53291
4.09457 -1.2346 4.42825
2.19154 2.69838 2.86951
0.703965 -1.82651 3.33731
-0.524141 3.92055 2.40468
0.597004 1.58027 3.58911
-0.783132 -0.835352 4.00047
1.8503 2.63294 2.86765
0.192413 0.0986716 3.35665
0.761662 2.79807 2.65844
1.23511 4.05525 2.52756
1.69595 0.6955 3.67634
5.0746 1.56692 4.13672
-0.760183 1.64279 3.3172
-0.902431 -2.1286 3.1271
-1.35987 2.90788 2.48185
0.551235 2.68446 2.60393
0.76556 4.17456 2.52884
0.203307 -0.882071 3.08161
-0.35638 -0.436199 3.26533
-0.233994 2.80869 2.41482
0.702115 -2.0379 1.91671
2.55224 1.51254 3.23847
1.22651 4.2224 2.52729
-0.502852 2.96603 2.61704
-0.797419 1.18401 3.19618
2.26373 4.5108 2.62826
2.39991 1.47805 3.30015
0.439052 -1.08204 4.66655
3.88739 0.0333889 3.85268
-0.681509 1.99482 3.11842
-0.281138 2.99525 2.51085
4.56814 0.702821 3.37734
3.56527 0.0769617 3.81199
1.24767 -1.56265 4.77499
2.01224 0.488568 3.96297
-0.975772 1.53521 3.14442
1.80056 4.56122 2.54649
3.01897 -0.219581 3.7989
2.28739 1.78159 3.17569
0.615521 -2.36265 3.05972
1.86371 0.0184249 4.3014
-0.782606 0.179 4.06141
2.73366 1.63505 3.18088
0.43136 3.09595 2.52949
0.846184 4.53582 2.50581
2.0274 3.22928 2.84272
4.63993 1.18138 3.37131
-0.499023 3.18286 2.44052
-1.51685 -0.42121 4.28467
-1.93547 3.24497 2.41994
3.17291 -2.50278 3.57966
2.57577 -0.380436 4.5354
2.01338 1.94342 3.10875
2.98971 1.72357 3.0809
1.66059 5.01568 2.60421
4.6418 0.27998 3.76603
4.6514 -0.379605 4.50544
-0.438004 3.13965 2.45774
-0.334299 0.508117 3.30497
2.40004 0.0475291 3.7525
0.127114 -0.638806 5.05008
1.85125 3.54152 2.77146
1.3238 4.72937 2.38173
-1.62375 2.86147 2.71942
1.2391 2.14996 3.02085
0.981423 3.40924 2.65957
-1.33216 0.0800003 3.31243
0.235841 -1.9086 1.72135
1.78225 2.13526 3.21453
3.97315 -0.114373 3.64224
-0.791402 2.775 2.58066
-0.226979 -1.46953 2.95117
0.109535 0.259531 3.38034
-1.1225 -0.448984 4.38619
-0.278725 1.75232 3.35244
0.732146 4.04957 2.56432
-0.759825 -0.297382 4.64653
-0.406095 2.67317 2.57858
-0.453405 -2.21087 3.18357
0.411078 1.64839 3.50528
-0.0285149 4.07456 2.48461
3.69584 1.25674 3.38676
1.8455 2.90461 2.88268
-0.538581 -0.718274 4.31094
2.69535 3.66637 2.88102
-0.0343056 4.04002 2.40823
-0.463712 0.182729 3.36478
3.17406 -0.7446 4.41889
-2.00534 1.68465 2.81809
3.34041 -0.98542 4.33001
0.13236 4.07703 2.38713
1.73178 1.65783 3.25318
-0.586834 -0.0944967 3.27618
0.857733 2.95685 2.67416
1.00119 0.0214311 3.43573
4.23068 1.41702 3.57914
0.360265 -0.54536 4.59395
4.33169 1.01952 3.40317
1.59786 2.96966 2.82463
3.84727 2.27866 2.9945
0.649323 3.11094 2.62387
0.631017 -1.49251 4.72158
1.29275 -0.707895 3.31739
2.17679 1.75079 3.22764
-0.623878 1.15353 3.24156
1.06703 -0.733678 3.32179
2.84212 -1.15642 4.12503
-1.20718 -1.10882 3.00057
0.899077 1.8971 3.2833
4.19248 -1.31813 4.37646
1.74292 3.1312 2.81531
3.83196 2.03178 3.0929
1.73999 3.34646 2.80535
3.98409 1.69434 3.32309
1.25702 2.04967 3.22585
1.85233 0.593681 3.90349
-1.0063 3.16445 2.49579
3.77354 -0.488352 3.74313
3.51737 1.78154 3.39766
3.81484 0.357317 3.73723
-1.61027 -0.31248 4.29843
-1.11092 0.602352 2.71297
3.99863 -0.72217 3.68631
0.29183 -1.99978 1.79708
-1.0839 0.205697 4.07711
-0.940402 4.33225 2.17037
0.34611 3.21628 2.52861
1.9906 0.340609 3.73425
4.34869 0.152797 3.92783
1.92952 2.02591 3.20581
1.71789 2.13703 3.09408
1.40165 0.156467 4.25042
1.44171 3.52804 2.7304
4.15501 -0.238258 3.93394
-0.974235 -0.877137 2.92042
0.158712 2.10695 2.91058
-0.941222 -0.550748 2.95209
1.55604 3.49676 2.77912
-1.24035 3.58108 2.4019
1.91375 3.5993 2.75778
0.709076 -0.122286 4.67927
-0.612169 0.103669 3.02022
1.28661 2.2588 2.96449
-1.47323 1.20396 3.28987
-1.28515 2.94013 2.4651
2.70147 -0.0243271 3.98289
2.30971 2.07037 3.00038
-1.38958 3.86923 2.30816
-0.143906 1.18619 3.34313
-0.319595 3.50892 2.48947
2.69714 -1.46788 3.40119
-0.281762 0.438752 4.2782
0.860654 3.23164 2.68326
1.11904 -2.23357 3.15397
0.239993 -2.18902 1.79683
0.0703657 1.97645 3.01523
3.4898 0.276714 3.72503
4.31953 2.03868 3.3186
0.737798 3.14558 2.65231
1.35266 0.268039 3.48067
-0.340385 1.95322 3.00343
1.60585 4.38068 2.51791
2.68746 1.78828 3.14736
-0.794888 -1.07587 2.84699
2.48098 0.142027 4.13958
1.29237 3.28221 2.71059
4.79884 0.387643 3.37086
-1.56177 -0.585422 4.18002
1.87974 0.260333 4.06125
1.0532 -1.73261 3.02441
2.48293 2.00729 3.17111
3.20239 -1.61945 4.30666
-0.204804 3.29977 2.49432
0.579434 1.15081 3.56052
0.160734 2.09737 2.98258
-1.24113 -0.110855 4.28722
3.48408 -1.49609 4.14246
-0.0857316 0.781378 3.3225
1.08733 3.36942 2.70757
0.5338 0.819372 3.50734
-0.105031 0.686891 3.44654
1.95804 -0.33892 4.60559
0.506897 -2.09675 4.43745
1.35114 2.23111 3.03676
2.00706 4.57232 2.57503
-1.19268 1.51681 2.85011
0.343318 3.42896 2.57964
1.77547 -0.195595 4.29567
0.850897 -1.39054 4.46237
-1.0977 2.4704 3.06422
3.87146 -0.0262062 3.71474
0.754139 3.56491 2.6568
3.99469 0.266209 3.67384
1.88253 2.30304 3.01069
-1.03505 0.261474 2.8693
1.49248 3.74214 2.77885
1.98324 2.17666 2.97099
-0.635367 4.27534 2.20142
-0.826683 3.5704 2.44978
1.04405 0.942563 3.96805
0.237956 0.0662821 3.47905
-0.21662 2.46432 2.8019
0.223885 3.6964 2.54481
-0.72653 -0.741225 2.93838
3.33025 2.17613 3.1205
2.30621 1.15348 3.71498
1.14608 3.80722 2.63151
2.61325 2.49584 2.99735
-1.05408 -1.84044 2.77095
-0.622922 0.754015 3.44894
1.80005 3.9266 2.69684
4.17356 0.707132 3.67121
-1.79924 3.13249 2.50073
-0.827436 0.64275 3.2617
0.11535 2.43957 2.72573
0.964405 3.90643 2.57422
-1.64403 1.82719 2.82944
3.9137 0.382961 3.8345
-0.492873 2.64018 2.61902
-0.0601208 0.925503 3.60328
3.57148 0.996153 3.42409
0.937377 1.47972 3.65594
3.11988 0.686659 3.75241
0.614811 -1.57252 3.33401
2.85295 2.57704 3.01195
-0.43965 0.0580506 1.19706
2.56694 4.15472 2.77639
0.120385 2.51738 2.55534
-0.294373 -0.00550948 3.29404
1.97882 -0.827157 4.78959
0.781636 1.54483 3.57649
-0.0646545 3.86368 2.48898
-1.39525 2.35692 2.67387
1.1713 4.78355 2.53938
0.0800033 2.4427 2.55015
-1.47924 -0.617307 4.63184
4.20384 0.888283 3.49215
-0.116159 3.86806 2.44363
0.932804 2.72487 2.69549
-1.56462 2.93601 2.64061
0.264319 0.0374432 3.3864
2.67013 1.3615 3.46367
1.10051 4.0464 2.57936
-1.09405 -1.68568 2.79594
-0.123332 2.61091 2.54387
-1.4463 4.12269 2.3209
-1.45713 -0.140346 2.69477
2.41843 1.25852 3.42881
3.31031 -0.987642 4.05139
1.17999 4.03594 2.52214
0.156334 1.78566 3.37323
0.341937 2.73938 2.56664
0.207563 -0.732485 3.14724
3.82622 -1.32897 4.56997
1.09987 4.11775 2.50593
0.418186 -0.559148 3.32924
-1.42414 1.06702 3.22575
0.963646 4.14993 2.47403
2.49794 1.64059 3.41779
-0.223029 -1.66198 2.92683
4.32128 -1.97486 3.73081
-0.514324 2.98344 2.5726
3.81743 1.39326 3.51936
1.57283 4.16236 2.45507
1.9638 2.94585 2.84962
-1.27125 1.49694 2.97446
-0.4753 3.00953 2.44546
2.88841 -0.443529 3.76908
2.72952 4.9432 2.58858
-0.445507 0.207174 4.13529
1.98683 1.8383 3.33382
-1.66951 1.41673 2.89266
-1.42928 0.419003 3.03986
-1.31406 -0.619541 2.98072
1.89411 0.460617 3.72672
2.80755 1.59104 3.27518
0.73001 4.36751 2.52613
4.17355 0.160004 3.94606
1.02932 3.02543 2.65517
0.848551 3.25527 2.65287
3.91258 2.01061 3.08015
1.37977 0.752181 3.59032
-0.35946 2.06155 2.95984
1.81322 4.33536 2.52942
-0.774927 3.03913 2.41033
-1.8694 0.026027 5.43603
-0.938547 2.11642 3.04928
0.41209 -1.85113 4.6688
3.4809 -0.464869 3.76716
-0.463833 0.221289 3.02347
0.932188 -0.149086 4.6198
3.18388 1.7842 3.12049
-1.44764 2.90374 2.44525
1.72987 3.38875 2.7888
1.16626 -1.73265 4.73478
2.84323 -0.0600504 3.95623
-0.595679 0.482278 2.9106
5.25504 -0.129403 3.22554
-1.35832 1.48467 2.94015
-0.012459 2.13286 2.81845
3.24282 -0.560023 3.97153
2.32067 0.375659 3.76303
2.16605 3.55007 2.8073
-0.944764 -0.35079 4.43798
3.38957 1.8839 3.18256
-1.23686 4.13993 2.13732
-0.120553 3.36285 2.55812
4.04712 -0.262352 3.90121
-1.55428 2.25676 2.83132
0.0770688 2.9282 2.49656
-0.26264 -0.68954 4.4528
0.22461 0.148948 4.39909
0.527805 1.83839 3.1135
0.0956952 2.84738 2.50483
-0.629699 1.51763 3.15374
2.95241 1.45098 3.21508
1.77858 0.270566 4.11531
0.961391 -1.51806 4.78893
0.395474 -0.159501 3.38491
4.32271 0.6292 3.45525
0.563411 -0.170192 4.75328
1.34974 4.45267 2.51817
2.14186 0.524403 3.74232
0.0974118 3.00534 2.48138
1.1842 -0.564382 3.34134
1.40779 0.0155483 4.32401
0.985184 1.97437 3.26784
0.94033 2.00311 3.09414
2.26675 4.16636 2.75163
3.56339 -0.462991 4.03954
1.69563 3.33749 2.79008
4.25201 1.06811 3.43468
-1.31341 1.40993 2.88705
2.0036 5.17125 2.65605
2.46079 1.81663 3.27001
3.6092 3.04208 2.92212
-1.37928 1.61874 2.86941
1.10155 0.111188 3.44325
2.02919 3.30244 2.85252
2.09917 1.98869 3.09988
2.90049 -0.736632 4.50076
4.56555 0.289542 3.73794
4.16025 -0.266077 3.71699
1.34767 3.45574 2.73455
-0.227462 -0.432511 3.09515
4.36322 -0.678939 4.55511
-1.91011 3.46029 5.44392
4.13448 -0.235224 3.95726
4.35566 0.732295 3.40732
0.487029 3.27005 2.57881
-1.24704 3.5418 2.42785
0.750487 2.1732 2.87589
0.937251 3.47348 2.65459
4.21921 0.309252 3.73722
0.52953 0.773108 3.55342
1.41059 2.14053 3.03996
0.657557 3.5591 2.65029
4.19427 0.167875 3.58893
-0.0563568 2.25395 2.68442
-0.650272 3.51806 2.47997
2.18297 -2.52557 3.58596
-0.73556 2.29457 2.73531
-2.04693 3.26558 2.42603
-0.0825347 3.53425 2.46406
-0.208777 0.988468 3.29498
1.02304 4.76583 2.50498
2.85642 0.696158 3.58254
3.81017 0.545372 3.96623
2.50012 2.29348 2.9812
-0.577716 4.32772 2.25853
-0.0103697 -0.231405 0.868641
3.16554 0.646683 3.68401
-0.0142038 3.63164 2.49041
-1.28273 0.572288 3.27993
0.760387 0.41897 4.21055
0.484162 1.3357 3.69783
-0.166803 3.70355 2.4839
-1.02464 0.0730628 2.78277
0.656489 2.41824 2.67068
1.02932 -1.01958 3.86999
1.72103 0.516768 4.10176
0.257507 3.78632 2.50748
-0.958153 1.00696 3.63943
3.08706 2.30658 2.9689
3.31203 2.28422 3.0184
0.331846 0.0297726 3.47073
2.67993 0.189135 3.79667
1.01529 1.9454 3.17025
4.67407 0.0691037 4.0284
1.73484 3.27963 2.81785
-1.14997 2.74258 2.56797
-1.43845 1.32064 2.7726
-0.629852 2.00438 3.06503
4.28498 1.9666 3.44002
1.31706 0.498071 3.51722
0.463201 0.528426 4.16577
1.2738 3.16113 2.73179
5.01169 -0.145219 3.44306
-0.677696 3.19448 2.44622
2.88898 2.74218 2.95174
1.56031 0.288984 4.19539
1.44273 1.96522 3.05365
0.819465 -1.78456 4.72027
4.11913 -0.399585 3.60126
-0.563862 3.08676 2.40917
2.13365 0.417684 3.90423
5.05504 0.358031 3.31872
1.14045 1.97477 3.11293
4.66911 0.20147 3.72896
-0.902155 -0.0826187 4.17757
0.834891 4.76332 2.38535
1.06075 3.48461 2.68553
-0.383022 0.473434 3.30229
-0.626213 2.09977 2.70316
2.51901 0.125833 4.07381
-0.36223 1.36378 3.30344
2.35744 3.47006 2.82243
0.0471954 0.79139 3.36263
1.29675 2.04842 3.03888
-0.164695 2.18716 2.77569
3.32415 -0.450329 4.06018
-1.1047 2.53484 2.69105
1.8291 4.9559 2.61807
1.7612 3.57286 2.73754
-0.577066 0.246001 3.04875
-0.162172 -0.141132 4.46272
-1.48777 1.00178 3.39118
-0.234667 3.49044 2.48665
4.03915 0.216134 3.78074
2.49128 2.29746 3.09622
-0.371832 0.0798511 1.28333
-0.552805 3.55244 2.45272
0.448038 2.18514 2.77461
0.21463 4.2856 2.19384
0.945462 -0.771785 3.44307
1.2854 1.08733 3.61891
2.47404 2.35005 2.93373
-1.32183 0.0376477 3.27456
-1.02424 3.65663 2.45268
2.94696 0.841539 3.52745
-1.00165 1.06103 2.98855
1.69905 2.32671 2.91991
-1.14959 1.57106 3.21287
3.62768 0.688052 3.71355
0.519214 3.79295 2.59338
-0.275082 2.53743 2.61406
-0.934497 0.871231 3.22734
-1.17349 -1.4962 2.8223
4.3534 0.939815 3.80257
0.216767 3.84437 2.55062
-0.695465 2.59245 2.70332
-0.498032 -0.648802 3.259
-0.0579664 1.2166 3.81638
0.751051 3.91273 2.57734
2.69579 1.21131 3.60593
0.424695 0.697722 4.23322
0.651115 2.55054 2.64623
-1.64809 0.522895 2.68836
-0.226188 3.8958 2.46143
-1.38587 2.10539 2.95011
4.57969 -2.17537 3.64987
1.8422 0.841495 3.79262
-0.775303 3.42886 2.45148
0.867355 2.16873 2.82433
4.81306 0.402002 3.62382
-0.417616 -0.872862 2.90077
1.73371 2.11335 2.99533
4.01869 0.42283 3.56025
0.886993 3.58691 2.63249
0.70562 0.102001 3.53005
-0.724242 2.38275 2.65196
-0.678568 4.17347 2.18011
5.027 0.695035 4.32707
0.138833 3.58533 2.52973
0.455543 1.28139 3.57586
-1.38704 0.516481 3.28087
-0.753089 -0.0535069 2.98834
-0.641791 2.3688 2.74042
0.610445 3.68071 2.57136
4.02663 0.546018 3.76477
4.57571 1.12942 3.48234
-1.52571 0.0670957 2.72128
-0.994407 3.5862 2.35744
1.03048 2.42593 2.8175
4.59881 -0.968218 3.64091
1.41627 1.23116 3.74268
2.15966 1.25014 3.64679
-0.294149 3.80032 2.49603
3.5076 0.271706 3.80704
1.1671 2.52327 2.75799
-0.759386 -0.125557 3.30586
3.03661 0.560003 4.07283
4.52359 1.02627 4.0681
1.26473 3.94285 2.62225
2.03055 1.38058 1.06383
-0.304026 -0.0442452 3.23846
-0.21089 2.51854 2.69005
-0.437352 1.57305 3.48614
1.25052 3.97926 2.59211
-0.576156 2.61882 2.51413
4.27328 -0.768036 4.56615
-1.39613 2.13859 2.73477
-0.289919 1.46019 3.51143
0.315223 0.870948 3.69028
5.66957 -1.51551 3.0449
2.37013 2.648 2.94016
3.16782 -0.602117 4.05008
-0.225832 3.90739 2.42064
3.21445 -0.797857 3.98684
-0.210029 2.74974 2.52172
0.308223 -1.05665 3.27187
2.2982 4.39191 2.63084
4.29023 -2.43035 3.54765
3.89053 1.22358 3.39432
-1.01143 3.81784 2.20211
2.28487 2.81506 2.93903
-0.61495 -0.155634 3.29897
-1.25557 -0.106745 2.80485
-0.853483 1.58386 3.26305
1.48111 4.08374 2.51132
0.987552 -1.53513 3.13396
4.63903 -1.39831 4.72443
-0.928393 0.312326 3.2631
0.732708 4.17745 2.48901
-0.539118 -1.09236 4.80127
0.832954 -0.709474 3.36108
2.0068 2.91391 2.82371
1.9493 1.55473 3.32809
-0.230643 4.13048 2.10404
3.81222 1.50433 3.27375
0.12389 2.93376 2.50529
-1.02502 0.264185 3.08374
3.23306 1.40198 3.23577
1.13094 -1.56715 4.79268
1.94002 2.96202 2.78054
-0.461068 1.50343 3.28595
0.353438 -0.996103 3.08275
-0.96172 3.48937 2.38909
1.74829 1.04713 3.74858
-0.33014 4.37671 2.27658
-0.348351 2.4144 2.75079
-0.291765 0.433115 1.27819
4.46272 -1.96558 3.584
2.16639 3.78218 2.73822
-1.13014 3.66319 2.17108
2.09421 2.22936 2.98497
-0.594257 3.5988 2.39114
4.22111 0.765332 3.54722
1.0125 2.44727 2.75276
0.735794 0.550211 3.48359
-1.2379 1.77959 3.10971
1.16237 1.15358 3.7322
0.320385 0.209687 3.47949
-0.806897 0.0156636 3.28401
1.35967 2.42741 2.88015
-0.834932 3.59278 2.31474
0.281562 2.48708 2.57969
-0.702034 -0.326089 3.26499
2.17971 1.35999 3.68972
-0.148373 3.87204 2.50078
0.216008 2.52034 2.64283
-0.0148892 0.571982 3.5292
-0.421425 3.79474 2.39529
0.99677 1.44276 3.64341
-1.84709 2.79782 2.77781
0.590994 0.917839 3.69095
1.38756 4.00277 2.56884
-1.01874 0.77285 3.71772
-1.29999 -0.111836 2.80634
0.573621 2.59935 2.61418
3.27257 1.13793 3.45997
-1.48842 3.28707 2.39518
2.33782 4.14978 2.6612
-0.835369 -0.191032 4.08211
1.4224 1.60313 3.40512
0.699669 -0.0309567 3.41296
