ply
format ascii 1.0
element vertex 1924
property float x
property float y
property float z
end_header
1.48482 2.92209 2.7992
1.81074 0.12003 4.3232
1.11009 0.872251 3.93734
1.95304 3.75255 2.62232
1.93687 1.67403 3.3654
1.16806 4.23933 2.33544
1.54211 2.42234 2.99997
4.12089 0.0897874 3.76126
-0.332855 3.0712 2.54803
3.84806 -1.55661 4.06401
2.39569 0.239723 4.16688
1.65586 1.60763 3.3525
0.783995 3.70213 2.46874
-0.547732 2.36817 2.85035
0.262158 -1.37493 4.63748
2.36067 3.08719 2.81538
3.03902 -0.679567 3.86539
-0.843649 3.38622 2.46014
2.0098 2.74388 2.83911
-0.167339 0.446333 3.49543
3.03956 1.95978 3.1883
1.36494 -0.755597 5.00407
0.124994 1.47281 3.57223
2.64598 0.584315 3.69302
1.23566 3.99696 2.4579
0.612856 3.34615 2.56108
-1.62162 -1.19739 4.22466
2.0874 2.68114 2.88397
1.49335 -0.544928 4.79468
2.32655 2.00164 3.28636
0.268952 1.33822 3.74197
1.21752 4.04275 2.44392
1.59819 4.75381 2.39276
-0.136277 4.36831 2.19912
0.315584 1.63214 3.47324
-0.436587 3.99968 2.28504
-0.457671 2.76021 2.57773
-0.633227 3.40442 2.41657
1.54719 0.645528 4.1926
1.22803 1.44174 3.50165
1.5164 -0.902937 4.8137
0.786181 2.11294 2.9819
2.7472 1.95462 3.14961
4.71701 -0.271782 4.5065
4.78196 1.22107 3.86068
1.75632 3.50655 2.69367
1.82927 2.76304 2.84551
1.61372 0.159443 4.4457
0.786828 4.15445 2.50339
1.69887 -1.54876 4.6193
-0.0474709 -0.344573 4.48677
2.28628 1.45616 3.53414
2.52858 4.11989 2.48536
0.499165 2.17236 2.92728
1.12829 2.85757 2.71002
-1.16203 3.8239 2.2493
2.63447 2.07262 3.15032
3.16555 -0.370383 4.25688
-0.645458 1.4653 3.2224
0.150543 3.50319 2.47933
2.00705 3.56882 2.6814
-0.609467 3.93328 2.18055
-0.841491 2.79263 2.59407
4.30452 -0.056066 3.83525
2.21031 3.32434 2.76155
0.845796 2.52438 2.81178
-1.39818 0.370976 4.21173
1.35598 1.92901 3.3227
1.68881 -1.29417 4.4376
1.70603 1.01857 3.64503
-0.464511 3.15253 2.53095
-0.594988 3.70585 2.35094
-0.0831469 2.44932 2.75157
1.05283 4.47406 2.35279
2.19888 1.66021 3.21116
1.96913 -1.03802 4.43791
3.35005 0.727676 3.62003
1.50281 0.481763 4.04856
2.02333 2.72038 2.92038
0.822814 3.98626 2.55077
0.333205 3.31712 2.52652
1.54946 4.5584 2.37941
3.81146 2.81706 2.94588
3.27459 1.06403 3.63809
-1.70214 2.89765 4.64554
1.44226 3.94598 2.48495
3.66425 -1.02302 4.2884
0.426271 2.48275 2.63917
-0.934753 0.244317 3.23634
-0.667073 3.19717 2.43084
0.689011 0.251802 4.26488
0.302105 1.26866 3.81886
1.69027 1.87011 3.15709
1.07666 4.05994 2.49366
0.716897 1.50795 3.51592
-0.490286 3.86506 2.25115
1.31043 2.1562 3.09378
4.20526 -0.711555 4.09961
2.97057 -0.11801 3.94498
0.188322 2.72153 2.5811
-0.385665 3.46655 2.47735
4.15227 -0.456878 4.05475
-0.625252 0.393796 3.35382
3.56735 1.10201 3.52933
0.00432727 0.942325 3.68412
1.66865 2.06623 3.15861
1.19038 4.06857 2.3994
2.58142 0.0684571 4.01035
-0.84266 2.73329 2.60584
0.680045 3.39401 2.53099
-1.26749 4.12712 2.15746
0.0970572 2.84979 2.52364
1.10802 -1.56204 4.49768
2.09301 -0.205104 4.33418
1.5057 2.28149 3.04717
-0.572064 3.95456 2.19166
2.48202 1.46789 3.41443
0.605384 3.4688 2.46699
1.41533 2.94152 2.81335
-0.0396459 -1.28371 4.07659
0.0332313 2.25563 2.96374
0.623656 4.2082 2.34897
0.198815 1.58115 3.42861
-0.0284782 3.52718 2.41151
0.687021 0.51619 4.20109
3.42655 2.36273 3.11284
2.12105 -1.01041 4.23363
-0.335432 3.77392 2.3464
1.61312 4.55106 2.37713
1.78469 0.646673 3.88506
0.177681 2.49379 2.69659
-0.411105 -0.84977 4.64935
1.92464 3.29113 2.71563
1.64 1.06631 3.71914
-0.732693 1.966 3.09429
1.03856 2.0406 3.16565
-1.22772 -0.21018 4.15363
3.7754 0.972105 3.5163
-0.0445332 3.34053 2.52213
2.53161 4.10502 2.62857
1.91523 2.68502 2.85906
1.88814 0.265769 4.23674
0.716418 1.93665 3.09329
-0.927866 4.03889 2.18616
3.01878 1.04037 3.73879
0.109649 3.99784 2.40869
3.80535 -1.26378 4.18683
0.654174 3.25404 2.54348
2.72803 0.333876 4.10617
2.47759 2.62877 2.94668
-0.330099 0.930347 3.57296
3.76378 0.875077 3.53429
0.872824 3.9745 2.53922
1.77132 1.94178 3.26462
2.07494 2.62148 2.91109
4.48996 1.21111 3.5569
0.328325 3.24789 2.51263
-0.773843 0.883587 3.30198
0.28744 1.23781 3.86742
1.61318 4.02807 2.53711
3.41983 1.70456 3.25624
4.00466 -0.779356 4.12489
3.64151 -0.508792 4.0734
0.231248 2.50405 2.71151
-1.0037 -0.277978 3.26712
1.41232 3.32221 2.70194
0.0468938 3.34822 2.46261
2.75343 -0.757553 4.70371
1.57964 2.77343 2.82947
0.967448 0.79946 4.04406
0.779052 2.05726 3.04199
4.87338 -0.781205 3.95219
3.38343 1.08432 3.4494
-0.3954 3.81625 2.2698
1.74837 -0.583633 4.78766
-0.17354 3.27308 2.45852
-0.580168 -1.01005 3.2449
1.07138 2.67687 2.78911
4.11334 -0.0997578 3.82387
-0.230938 2.01543 2.9729
4.27912 0.978015 3.61215
2.52364 4.24443 2.62457
0.897269 0.129365 4.43867
-0.9289 3.15765 2.05866
2.21319 3.79497 2.65926
0.357579 1.03605 4.1651
-0.866138 1.81231 3.15883
1.11946 0.371602 4.34608
1.9228 2.30532 3.00795
0.562673 2.98149 2.58908
1.25122 4.21509 2.32282
-1.39871 2.09561 2.8114
-0.868806 1.75484 3.19784
1.01058 -1.37163 4.78846
1.59185 1.75919 3.2651
-0.755108 3.7362 2.42558
0.432258 1.07834 3.89146
1.46478 3.23651 2.712
3.01834 -0.344941 4.2898
3.99503 2.55207 3.25052
4.15124 -1.15521 4.39661
2.48737 4.42501 2.60091
1.51725 3.84288 2.5383
2.33515 3.16023 2.78314
0.0922761 2.3756 2.7776
1.36336 0.0545546 4.53681
0.186012 0.95383 3.88751
0.710054 4.29135 2.34721
1.3878 1.72913 3.34988
1.26675 3.74853 2.58689
1.08099 2.39471 2.8967
-1.10607 0.721521 3.25653
-0.0959804 3.05427 2.54007
-0.0348183 4.17849 2.17866
0.372228 3.74235 2.46969
4.19872 1.53088 3.61597
2.83816 4.83595 2.67949
-0.728798 0.662716 4.00932
1.43162 3.07361 2.73836
3.5416 -0.918726 4.66577
1.09654 2.32548 2.93597
1.77295 -1.24864 4.37352
0.577227 2.46231 2.69969
1.76536 0.361772 4.05762
2.88094 1.73392 3.23253
1.28374 3.26753 2.65806
0.073553 1.24312 3.815
1.27269 3.83841 2.52349
0.220907 -1.15519 4.88955
0.363821 1.14587 3.90198
-1.94764 0.47251 5.26552
1.16854 1.84587 3.34327
3.98731 -0.92516 4.36451
2.33478 2.4473 2.96813
0.0859597 3.79654 2.38525
1.06837 3.17575 2.62968
0.308854 2.78442 2.57624
4.16945 -0.95115 4.26156
3.84472 -0.560863 4.04273
2.87945 2.33543 3.03804
-0.88879 1.64791 3.30995
-1.09766 2.25622 2.74076
3.64945 2.12996 3.21277
3.76846 -0.517961 4.09516
0.329868 -0.214696 4.6914
-0.209551 2.77385 2.60676
-0.670376 3.86883 2.19991
2.19955 3.59324 2.70519
-1.48408 0.898996 3.41221
0.217113 1.609 3.64041
0.481921 3.53947 2.51996
1.09678 2.15363 3.07482
-0.785953 3.84586 2.11628
1.05088 2.23247 2.93114
-0.906219 0.572334 3.25592
0.855515 1.6542 3.44047
0.635037 0.893039 4.25051
-0.184243 2.92219 2.57213
-0.805747 -0.640713 4.10965
1.10956 4.17169 2.34825
-0.686178 3.63583 2.46776
3.89671 -0.62617 4.21482
2.94653 -1.46524 4.10673
2.89299 1.35152 3.43396
0.746148 4.14215 2.43355
3.40637 2.06068 3.08916
0.246373 2.78029 2.56624
2.17132 5.08199 2.5522
0.0436103 2.1502 2.94518
1.63238 3.56509 2.60075
4.15201 1.1114 3.39499
-0.824698 3.87788 2.13688
-0.234914 0.181127 4.32763
1.56088 3.58241 2.66752
-0.35847 2.85432 2.67589
4.10184 -0.732255 3.90976
-0.594959 2.98438 2.52917
-0.257621 -0.0127598 4.29839
0.979095 2.2983 2.88903
0.90465 3.61762 2.53081
3.31086 1.49676 3.41662
0.219062 4.16545 2.30804
-0.880661 4.09631 2.17078
0.766055 1.62071 3.37238
-0.716466 2.25066 2.78663
0.51837 0.146655 4.43167
-0.204422 4.17279 2.24668
-0.394503 4.27246 2.26977
0.151241 3.64757 2.45687
2.1598 2.98574 2.79725
0.916967 2.63845 2.72966
-0.620577 0.164086 3.33022
-0.572948 3.28465 2.45001
3.37158 -0.922804 4.5631
4.22595 0.989635 3.66102
1.95714 0.671997 4.0636
3.30846 1.88486 3.23704
0.808554 3.9936 2.48869
0.278387 0.786885 4.1491
2.16226 2.62508 2.92404
2.8231 -0.734832 4.22331
3.4498 0.886753 3.48974
0.284438 3.18009 2.45885
0.792839 1.91227 3.08026
1.49352 4.00345 2.4727
1.92854 4.64458 2.42138
0.568324 2.00994 2.94975
4.48905 0.0513342 3.85069
3.15115 1.16021 3.55058
-0.883014 0.281672 3.88181
2.15702 3.52268 2.71852
-1.16784 -1.38389 4.7925
0.37717 2.65429 2.61081
-0.220953 0.554025 3.504
0.129522 4.08463 2.42171
2.26107 -1.06732 4.64166
1.42735 4.74824 2.38949
3.76268 0.220502 3.80542
2.72129 0.561834 4.08294
1.68456 2.4461 2.91278
2.83729 -0.900513 4.376
0.274396 3.16088 2.58855
4.41016 0.699697 3.73689
1.82312 3.81332 2.59463
3.00128 1.56823 3.20181
0.571699 0.860302 4.15296
0.925376 2.33534 2.82622
-0.351314 -0.791539 4.60727
1.57141 3.15968 2.74529
0.996183 0.881403 3.96012
1.85193 3.90181 2.60299
1.57457 1.71562 3.3778
0.74143 -1.10887 4.76058
3.13986 1.77489 3.34742
1.23627 4.40438 2.35259
3.20456 0.899422 3.79697
-1.39887 2.72362 2.73355
-1.0303 4.31921 2.17855
-0.319735 -1.35611 4.38201
2.16999 2.5176 2.9384
1.25103 0.419499 4.19743
-0.786833 3.12052 2.41724
1.38688 4.47997 2.36899
0.173537 3.82739 2.40934
3.71308 -1.07629 4.17537
4.1357 0.231987 3.98208
-0.946626 0.544886 3.24854
2.84617 1.36419 3.47261
1.31365 2.23496 3.11414
1.83564 4.06558 2.42568
-0.653464 2.89859 2.62922
-1.05333 4.19909 2.20545
1.87173 1.36533 3.52739
-0.805045 3.44565 2.3869
-0.367763 2.12304 2.8813
3.95032 -0.371678 3.99045
1.88019 2.81439 2.8151
-0.727596 3.86023 2.13228
2.07951 3.55599 2.68713
3.9151 -0.274725 3.94206
4.02259 -0.6439 4.13518
0.635375 2.97609 2.60135
0.821238 2.29755 2.89333
0.969869 4.1912 2.36347
2.06512 1.60074 3.42841
1.9938 3.71199 2.67157
0.33938 4.61496 2.33961
-0.375975 2.93161 2.57821
1.36169 -0.3789 4.67127
-0.140854 4.18729 2.16472
-0.617383 2.2569 2.8035
-0.0658317 4.07162 2.19106
-0.773818 1.65258 3.21472
1.33627 3.73111 2.58077
-1.50683 1.84686 3.2322
-0.526076 2.90845 2.55102
3.73696 1.33486 3.40335
0.0700514 3.47679 2.45886
2.53554 2.18005 3.0374
3.81892 0.0121891 3.99017
-0.357922 4.03453 2.26595
4.07138 0.108846 3.87578
-0.826643 2.66682 2.44693
-0.962536 -1.31885 4.42154
-0.789848 4.15748 2.16503
2.66625 1.31266 3.34574
1.86536 3.68521 2.64056
0.349261 2.2119 2.96728
3.64395 1.53836 3.57819
-0.113041 4.02267 2.22587
0.344433 2.92329 2.54428
-0.0520912 -0.030858 4.28023
0.920569 2.2814 2.88558
-0.265525 4.07053 2.19077
0.496793 3.6664 2.49907
3.47044 -0.0598488 4.13281
2.526 5.2667 2.61873
2.9912 1.01377 3.48215
4.48479 -0.28312 4.1276
0.312095 4.12814 2.47919
1.09358 2.01249 3.15965
2.40949 2.66439 2.88882
-0.429172 0.805332 3.51854
2.24716 3.4167 2.71741
-0.824329 2.05485 3.11774
0.645798 4.04167 2.4685
2.0015 1.15555 3.75501
0.942187 3.3023 2.61064
3.59965 0.492552 3.76921
-0.635479 2.64258 2.73486
2.37981 -0.758439 4.48183
1.79401 3.55025 2.66293
4.09674 -1.16048 4.44936
1.12426 2.7882 2.72967
3.67064 0.206126 3.76524
-0.607658 2.08966 2.82329
4.5376 -1.11563 4.11837
0.55824 1.55728 3.62483
2.19344 4.26138 2.63433
2.82404 -0.976437 4.82813
0.197321 1.48196 3.64968
0.0236709 0.646368 4.06419
-0.458979 2.05093 2.92002
-0.496721 2.72646 2.63889
0.282696 3.3561 2.50479
1.02182 4.20657 2.48491
2.06914 4.90151 2.48056
-1.05715 4.14193 2.20057
1.63442 2.77096 2.85291
-0.624419 -0.188013 3.30405
-0.992147 3.44172 2.51147
1.654 4.65896 2.38967
-0.49073 1.42754 3.3885
0.32911 3.94989 2.39568
3.43355 -0.393152 3.97964
1.11167 -0.0463317 4.51885
-0.691319 2.10502 2.95926
0.989798 2.65064 2.76563
2.16628 3.43873 2.73324
1.00678 2.04814 3.20196
1.62464 4.00328 2.43562
1.52847 1.23248 3.61636
4.06525 -0.255898 4.00628
2.43414 -0.617122 4.38154
0.911703 4.12985 2.43695
-0.0154601 2.63651 2.50639
0.986418 3.46082 2.56175
1.33567 1.42835 3.54109
-0.701172 -0.778972 3.25335
1.19271 -0.372361 4.66435
3.92763 1.94044 3.11271
-1.29798 -1.19616 4.22994
2.67635 0.801447 3.66339
1.71554 0.391239 4.31625
2.19077 1.79214 3.45182
1.63759 2.45943 2.92441
1.77609 3.79674 2.58497
-0.542569 3.16914 2.54717
1.77485 -1.59227 4.66164
0.771098 3.78747 2.47117
1.22407 1.77957 3.4263
4.1007 0.40914 3.7629
0.970102 0.911929 4.05447
0.892901 4.64954 2.37528
0.923259 3.07972 2.64316
3.07327 -0.821069 3.82757
0.589362 2.36145 2.83049
1.04833 3.91742 2.51662
3.44022 -0.0539105 4.19847
0.593131 3.28091 2.56803
2.04796 2.62697 2.94081
3.45896 1.83696 3.35236
1.52538 4.38531 2.3672
-0.562214 1.34075 3.61771
4.67417 0.454494 3.51274
-0.829899 0.315446 3.27331
2.65288 0.910065 3.66139
3.55962 0.0428856 3.82206
2.77415 1.76027 3.28033
-0.931944 -0.642915 3.25409
1.42262 2.56815 2.93257
2.98733 3.53128 2.99612
-0.123926 3.89621 2.3953
-0.11133 2.52275 2.74339
4.26979 -0.595775 4.14116
1.65359 3.27775 2.69369
4.49078 0.545025 3.52131
3.2336 -0.807915 4.17295
2.53864 0.894908 3.57808
-0.129557 0.759066 3.92869
1.68785 1.7917 3.16954
0.0420552 3.71483 2.39355
2.10331 3.23101 2.75687
1.23422 4.4661 2.35561
2.15392 -0.60956 4.31644
1.32258 2.45014 2.88137
1.79485 1.75071 3.31744
1.82416 3.92582 2.5626
2.57834 0.791729 3.60111
2.77688 -1.34133 4.54447
3.41949 2.36274 3.14387
-0.730818 -0.464752 3.26855
-0.334964 3.82179 2.33059
1.64957 0.460745 4.08158
-0.670903 0.00912105 4.18389
3.85996 -1.11832 4.30589
1.78378 2.61708 2.9026
-0.232489 3.19336 2.4549
-0.264641 0.618877 4.14987
3.47986 0.950578 3.69786
1.87729 -0.924566 4.76614
2.48126 1.82736 3.22108
-0.634555 3.90084 2.16541
-0.0648109 1.70555 3.42328
0.794298 -0.0271789 4.52457
-0.290108 2.24554 2.83904
-0.54971 3.56438 2.49566
2.24906 2.93136 2.76378
3.90166 0.0247927 3.84957
-0.981177 3.5968 2.44655
-0.0782358 2.22917 2.95066
-0.562194 4.04086 2.21686
2.46299 1.39666 3.46868
0.398664 4.6632 2.35638
2.49682 2.84679 2.80115
-0.255558 3.03655 2.52323
1.58996 -0.400448 4.63188
-0.776561 2.3737 2.73488
-0.477735 3.62647 2.41918
0.578055 1.72166 3.21466
-0.664965 4.05349 2.1669
3.68923 0.589803 3.77094
2.59094 5.26318 2.64725
2.76277 1.50663 3.38157
0.0508581 -0.20037 4.30929
-1.36714 2.34751 2.86698
5.02534 -0.611473 4.26357
0.590786 2.27881 2.84765
0.222537 3.69169 2.43548
-0.784032 2.96344 2.51393
0.664241 1.87468 3.1457
-0.397812 -0.628777 4.57342
0.00926338 1.21967 3.93995
2.13012 3.37889 2.80294
-0.374867 2.49477 2.67835
1.99042 4.27207 2.42691
-0.535532 -0.385799 4.68657
0.525912 3.93198 2.50138
4.2466 1.71249 3.2388
0.646285 1.34137 3.65443
3.69036 -0.847089 4.23572
2.19051 4.0737 2.61058
3.30459 1.79767 3.11015
2.88038 -0.998979 5.09979
-0.564415 2.63522 2.63341
4.77777 0.382097 4.09112
-0.91796 3.34652 2.48907
-0.666006 -1.14184 3.2835
2.58592 0.598469 3.71407
0.472235 1.97022 3.14275
3.55788 -0.787133 4.39101
0.0906275 1.29531 3.66643
2.24892 3.36517 2.73263
-0.0374746 2.56156 2.67967
-0.738712 3.81188 2.25394
4.03671 -0.804258 4.07795
0.975418 3.00256 2.65077
1.11999 -1.47751 4.32931
0.28469 2.30064 2.84326
0.811229 1.67613 3.31271
3.56843 -0.201872 3.92502
-0.00146129 3.53443 2.43381
1.35326 4.17124 2.36191
4.04346 1.35974 3.511
3.16704 2.62429 3.04984
0.813294 2.21893 2.89842
-0.432308 4.39222 2.26749
0.967364 4.26005 2.34665
3.76613 -0.0813838 4.0486
0.297894 2.86071 2.55271
1.86464 3.73678 2.60435
-0.113724 2.44726 2.75227
3.38103 -0.601957 4.084
-0.620187 3.10236 2.47867
0.562122 3.76291 2.501
2.28714 0.908523 3.76234
-0.222417 4.52902 2.19145
2.8946 1.61466 3.2474
1.00908 2.38972 2.90164
-1.12193 4.06191 2.18857
1.69617 3.23774 2.83038
2.70386 -0.292573 4.3019
0.785742 0.901533 3.88644
1.87136 1.69497 3.37775
0.240735 3.78456 2.44338
-1.26077 0.421049 3.83797
1.41532 4.56435 2.3746
-0.621301 -1.09413 4.77999
-0.378675 4.33206 2.27182
1.76189 3.76096 2.6206
0.188345 4.25439 2.30922
4.03782 -1.00684 4.88073
2.38784 2.29882 3.04871
3.44389 0.442541 3.95111
0.693452 2.99645 2.62577
-0.690437 1.7616 3.25706
0.14003 1.80849 3.14389
0.541668 -1.39672 4.67053
-0.634014 0.903012 3.63934
-0.48566 2.41569 2.68922
0.470343 3.73968 2.47873
1.14561 3.13701 2.61806
0.214556 0.251436 4.38448
3.69707 1.52144 3.36965
4.03764 0.12901 3.96014
-0.136931 0.873787 3.85665
-0.642069 -1.22285 4.27316
0.721364 3.0656 2.60692
-0.626331 3.6946 2.3464
-0.0338354 2.39131 2.80845
1.74489 4.47996 2.38223
-0.52943 3.84902 2.24737
1.31585 3.53357 2.62199
-1.05774 3.65812 2.39684
-0.590912 2.7457 2.56045
-1.121 2.024 2.69095
1.62452 2.13273 3.12334
0.722398 4.72451 2.38081
4.01186 -0.627378 4.0455
0.900271 1.34446 3.47486
3.0294 1.26202 3.54009
1.84621 2.11663 3.26294
-1.02324 4.3586 2.15714
0.667459 2.68415 2.66836
3.1632 -0.504641 4.21896
1.71631 3.52697 2.70767
0.390279 4.05477 2.36294
2.25934 -0.780847 4.88782
1.74543 0.745538 3.88532
0.163751 2.82877 2.51996
3.927 0.296947 3.74599
3.08899 1.48667 3.58292
-0.757401 3.84895 2.12156
0.373714 2.3016 2.95427
-0.0100085 3.46863 2.44313
0.465348 4.42858 2.31491
0.593221 2.78474 2.59914
0.280384 2.22358 2.97726
-0.765657 3.54883 2.40902
3.72258 1.3 3.51833
-0.272191 4.07118 2.24615
3.07541 0.00378969 4.08972
4.20843 0.219273 3.81663
-0.33519 4.01999 2.31157
2.49733 2.79132 2.8349
-0.64788 0.294973 4.04336
-0.534977 3.49026 2.50401
1.08338 1.44076 3.48406
0.505526 2.08028 2.92983
-0.141884 2.34614 2.95624
0.880324 4.24037 2.43877
-0.322954 1.67272 3.31509
-0.0521982 3.40443 2.39177
-0.0146946 2.84225 2.51481
0.861144 -0.196679 4.61936
-1.19164 3.22992 2.45254
2.50963 -0.111327 4.16057
-0.255847 2.24757 2.9575
-0.542656 4.16148 2.28813
3.37205 1.27462 3.39715
0.474246 3.62258 2.51828
-0.442202 2.81664 2.56009
-0.0275143 3.8117 2.39419
2.00629 3.41598 2.76449
1.27006 4.55642 2.36469
-0.133048 2.59928 2.7149
0.000303919 1.96198 3.07162
6.04612 0.262256 4.8376
4.15608 0.873221 3.62245
-0.822285 -0.910058 3.99847
0.470401 4.24902 2.11987
3.6691 0.785003 3.61754
3.36652 2.36004 3.14471
-0.0377169 1.85459 3.02063
3.42774 0.469827 4.02417
1.95349 2.56588 2.97067
3.10457 -0.913088 4.41522
1.35991 3.27045 2.66711
3.9242 -1.38511 4.37746
3.33405 2.71211 2.91558
3.81508 0.118898 3.91005
-0.16678 3.34954 2.46891
1.17747 3.93659 2.47582
-0.650697 1.41834 3.3369
1.47148 4.03946 2.50004
1.51509 2.0521 3.12765
0.375491 3.25261 2.48461
3.637 -0.916866 4.22946
3.38132 2.59285 2.90341
4.13016 -0.718735 4.09623
2.4597 1.93309 3.21048
-0.716344 3.80174 2.2033
2.43946 5.12541 2.60046
-0.473036 1.3776 3.51635
2.01278 -0.429421 4.57676
-0.40257 0.92032 3.55512
-0.911086 -0.766968 3.24467
-0.567306 -0.304927 3.29386
0.165173 4.04715 2.5058
3.49571 -0.792019 4.1975
-0.517641 2.56455 2.66095
-1.25007 -0.283811 4.11158
1.24886 3.37077 2.68858
3.16969 0.958749 3.61496
-0.598852 1.98943 3.05113
0.403263 2.05217 2.99787
2.1487 4.20921 2.52661
0.502577 1.43701 3.59454
1.00235 3.99822 2.4527
-0.403908 3.35368 2.46084
-0.274332 -0.8558 4.99935
1.22837 2.71055 2.74803
1.55379 0.82748 4.08395
-0.498199 -0.52145 3.27716
1.34604 2.01016 3.17631
3.50243 0.982088 3.52255
-0.822055 3.79749 2.20286
0.421439 -0.674714 4.7872
-0.709406 3.30903 2.4656
2.60467 2.66342 2.90628
0.558031 3.73778 2.5542
-1.09308 0.768024 3.77132
0.0162247 4.1634 2.25267
1.62578 1.67728 3.3194
4.21751 -0.385024 3.93614
1.7969 2.38027 2.97665
-0.946612 2.94111 2.5099
-0.14453 2.96158 2.46642
1.96709 3.8114 2.60083
3.54864 1.53604 3.52724
2.84103 4.76588 2.67403
0.885318 2.29 2.89316
-0.828616 0.281069 4.15001
0.825574 2.96771 2.61437
-1.48151 1.80944 3.18985
-0.759643 3.12102 2.42338
1.26883 -0.00197178 4.56947
1.69096 2.58934 2.97703
-1.19464 1.86472 2.79604
3.17806 1.70188 3.2369
2.20509 3.92532 2.63273
3.29243 0.817908 3.59367
0.753239 3.13552 2.5848
1.15924 4.55611 2.36195
-0.539624 2.43379 2.69932
2.34115 0.0223223 4.12917
3.20935 1.64313 3.35883
-0.910261 0.951635 3.23261
-0.777228 0.910447 3.61305
-0.699745 3.70118 2.28562
3.88082 0.543187 3.8534
1.95312 4.45496 2.40929
4.33952 -0.762446 4.38093
4.53725 1.15393 3.49455
-0.891379 3.68838 2.31564
3.67385 1.70893 3.33915
2.84886 -0.572186 4.08354
1.05487 2.48206 2.85723
0.528173 3.04759 2.46907
1.3897 1.04968 3.79012
1.44864 1.85809 3.3451
3.04756 1.78108 3.14453
1.33264 4.57041 2.37006
2.12668 1.16664 3.73029
1.99935 -1.03469 4.76691
0.559506 3.24302 2.51407
3.5076 0.271706 3.80704
1.19012 2.59473 2.7802
1.23249 1.9219 3.25906
3.03661 0.560003 4.07283
4.52359 1.02627 4.0681
0.682538 -0.850816 4.50236
-0.168001 3.87828 2.41991
2.16015 3.34398 2.76595
-0.187962 2.58045 2.74968
1.32234 3.98115 2.49494
-0.671522 2.9514 2.56922
-0.680967 3.52805 2.43479
0.879852 2.23056 2.89397
-0.542094 4.08862 2.27331
0.223244 -0.15674 4.58265
-1.04234 -1.16737 4.14783
4.81306 0.402002 3.62382
2.22959 1.41289 3.24485
-0.238081 1.63936 3.34828
-0.775002 -0.164193 3.32372
1.73272 2.17797 3.04003
3.84709 0.450549 3.64356
0.31745 4.11014 2.27114
1.96812 -0.069315 4.1646
0.950838 3.62677 2.52685
-0.0439606 2.78571 2.52416
-0.731545 2.4212 2.7402
-0.365214 -0.213787 3.31744
0.966927 3.115 2.63981
3.69148 -0.412764 3.84058
4.99462 0.70543 4.34275
0.114344 4.26627 2.2941
-0.967469 1.88041 3.19834
0.236646 3.64208 2.44529
-0.678568 4.17347 2.18011
-0.495703 2.99049 2.52573
-1.38704 0.516481 3.28087
-0.647129 2.38113 2.81769
0.698784 3.7205 2.46385
-0.937107 1.79217 3.21366
2.86076 4.7564 2.55207
2.93193 0.322198 4.02729
-1.37548 3.65367 2.34143
4.63903 -1.39831 4.72443
0.541556 3.4392 2.36627
0.836168 4.21998 2.36139
-0.539118 -1.09236 4.80127
0.764476 2.24696 2.89692
3.53886 0.324286 3.89542
1.92655 1.53204 3.39969
1.98733 2.97061 2.75847
-0.230643 4.13048 2.10404
3.81222 1.50433 3.27375
-0.293354 3.67024 2.43999
3.52184 0.633944 3.66711
0.176736 3.00508 2.49359
3.95141 -0.0825659 4.21137
2.33055 2.43331 3.05641
3.13577 1.47142 3.29211
1.13094 -1.56715 4.79268
1.7908 5.00166 2.42721
0.420613 3.79284 2.49694
1.9238 3.022 2.71196
2.81111 0.192531 3.94517
-0.870704 2.32879 2.73381
-0.4426 1.52116 3.50778
-0.731564 3.38662 2.44427
1.31024 4.01574 2.46317
-0.550945 2.6933 2.56979
4.91002 -0.714791 4.06399
1.18465 0.788707 3.94301
2.76879 1.96453 3.12085
4.27328 -0.768036 4.56615
-1.14106 -0.409642 3.21806
-0.292822 1.42049 3.52163
2.47752 5.04117 2.60484
2.6242 1.94391 3.20613
-1.4409 2.0761 2.80991
2.3322 2.72221 2.91044
3.16782 -0.602117 4.05008
1.69445 3.46375 2.70539
3.21445 -0.797857 3.98684
-0.168794 2.8337 2.55968
2.06081 0.636452 3.93274
-0.0927851 3.97272 2.32708
-1.42722 0.6106 3.32998
3.74055 1.29591 3.44103
-0.927894 3.87132 2.17914
0.16981 2.28717 3.00023
1.9575 3.5881 2.67411
-1.13095 3.04846 2.45812
2.25233 2.88506 2.88887
-0.124184 2.15916 2.92694
1.88037 3.68137 2.6779
-0.858244 1.54165 3.27422
1.52318 4.12635 2.37632
-0.902155 -0.0826187 4.17757
1.95603 2.83803 2.82292
1.11148 3.52692 2.58456
0.834891 4.76332 2.38535
-1.66346 1.70861 4.45343
-0.797907 3.84538 2.21362
-0.652423 2.10283 2.8026
2.4963 0.111446 4.09326
1.50822 2.80921 2.84048
2.32968 3.54851 2.73182
2.47925 1.20412 3.46345
1.31415 2.08288 3.11724
-0.165898 2.20843 2.87338
1.54515 4.06969 2.40227
3.16054 1.29385 3.33266
3.32415 -0.450329 4.06018
2.15653 2.98119 2.87284
-1.11195 2.54954 2.75331
1.10852 4.15121 2.37568
1.77027 3.62492 2.62931
-0.162172 -0.141132 4.46272
-1.48777 1.00178 3.39118
1.57234 1.09866 3.7453
1.13628 3.84243 2.51271
1.02168 1.9184 3.22929
4.67407 0.0691037 4.0284
-0.226617 2.50505 2.66879
1.74199 3.33868 2.73444
-1.17039 4.1441 2.1936
3.62313 0.732747 3.64728
1.14749 3.87947 2.47895
-0.657953 1.91812 3.15882
4.28498 1.9666 3.44002
-0.429738 2.43783 2.68917
0.463201 0.528426 4.16577
1.30458 3.20671 2.65774
3.72433 -1.02584 4.29636
-0.606404 3.2958 2.44719
3.25992 2.37864 2.92426
1.21819 2.68738 2.79062
1.56031 0.288984 4.19539
1.44895 1.99267 3.12445
0.819465 -1.78456 4.72027
-0.79373 -0.887279 3.24013
-1.2066 1.28638 3.57022
2.89943 -1.30798 4.45075
-0.500682 3.19116 2.41839
2.11209 0.383113 3.92702
0.998731 2.58732 2.75331
1.15046 1.9782 3.19542
0.984365 3.94119 2.45481
0.351346 1.31836 3.69587
1.09379 3.97173 2.42679
-0.253005 2.60078 2.6735
4.61844 0.217677 3.71699
0.486441 3.20965 2.4876
3.08726 -0.613393 4.51891
-0.944418 0.8188 3.22979
4.3534 0.939815 3.80257
0.330907 3.89806 2.45333
0.668928 1.95532 3.09484
-0.685999 2.63433 2.77292
2.65506 -0.413897 4.54984
1.64634 4.50546 2.3791
1.57317 3.3317 2.71577
-0.0579664 1.2166 3.81638
0.847567 3.95405 2.46558
0.889083 1.85535 3.11004
-1.46542 -0.969235 4.17919
-0.517717 -0.685566 3.26832
0.554398 1.9886 3.00169
2.63536 1.1721 3.66775
-1.35495 1.82448 3.07812
1.97312 3.4957 2.75207
2.84893 -0.837311 4.23794
0.424695 0.697722 4.23322
0.681151 2.62683 2.67959
5.01234 -0.807626 4.05729
-0.0934502 3.96402 2.37276
3.75381 -0.715652 4.04974
-1.42929 1.99684 3.01597
1.81669 0.761566 3.83113
-0.132615 3.57039 2.43455
1.82432 4.13481 2.34136
-0.241589 1.77126 3.26455
4.01486 0.220825 3.79104
2.45004 2.36499 3.09624
1.06457 3.02246 2.65134
1.7088 1.5798 3.46097
-0.447771 3.64102 2.40737
-0.746514 4.03843 2.13569
0.802481 0.161916 4.41998
0.462484 2.22519 2.84488
1.25213 2.97563 2.71136
0.21463 4.2856 2.19384
0.873621 3.15506 2.58475
-0.415262 -0.248709 4.43597
2.43222 2.4241 2.9257
2.83833 5.10936 2.55443
0.298124 1.83363 3.15211
-0.922142 3.75601 2.41612
2.8521 0.805873 3.59702
1.2247 3.12787 2.67133
-1.32183 0.0376477 3.27456
1.702 2.39322 2.94709
-0.971005 -0.0344092 4.06438
0.287908 1.74103 3.13624
1.01178 4.44182 2.36436
3.50952 0.68003 3.81294
0.620821 3.83629 2.48862
-1.15473 1.52729 3.22503
0.946315 1.98797 3.16244
2.26148 4.23447 2.62188
3.56339 -0.462991 4.03954
-1.02469 1.11235 3.37903
1.70924 3.3939 2.70448
0.769925 2.58294 2.72563
-0.425073 3.76607 2.32956
2.42691 1.85067 3.31946
3.58751 3.06189 2.9103
1.23629 1.17628 3.80674
0.432628 4.06883 2.51238
2.76278 2.63169 2.86116
2.02117 3.36605 2.76626
0.745693 2.51164 2.74768
-0.624361 -0.631071 3.26524
4.15248 1.15462 3.7086
-0.484036 0.757432 3.82127
2.07237 2.02691 3.12503
2.90049 -0.736632 4.50076
0.163283 2.64004 2.55791
1.52127 3.98814 2.44997
1.38641 3.49693 2.63474
4.57271 0.272976 3.71854
1.50057 4.06442 2.44986
4.36322 -0.678939 4.55511
1.29182 1.27305 3.50826
-1.91011 3.46029 5.44392
-0.74685 -1.32928 3.21671
0.426362 2.57805 2.61281
4.1273 -0.244248 3.96541
0.556548 3.32102 2.51752
2.51131 2.35214 2.95681
0.132567 3.0022 2.48516
-0.607923 4.24619 2.20233
3.27961 0.685094 3.70866
-0.26264 -0.68954 4.4528
0.22461 0.148948 4.39909
0.527909 1.77903 3.19087
0.334546 3.62446 2.42774
0.144807 2.92203 2.50322
-1.23441 0.0530771 3.26939
0.374345 2.30306 2.80434
0.125038 3.71562 2.42819
2.87247 1.49872 3.26741
1.77858 0.270566 4.11531
0.961391 -1.51806 4.78893
3.02569 2.29422 2.99627
0.563411 -0.170192 4.75328
0.471217 3.87445 2.502
1.42253 4.49993 2.37248
3.03147 2.40529 2.95252
0.154449 3.07392 2.46095
1.40779 0.0155483 4.32401
-0.152812 1.15285 3.63913
0.989941 1.90316 3.31116
3.62899 1.57736 3.36154
2.93977 -0.860065 4.40974
2.85307 0.689924 3.58546
3.68985 0.489852 4.0459
-0.147272 -1.23236 4.64971
-0.585594 3.02739 2.46423
2.44382 2.36449 2.96632
-0.577716 4.32772 2.25853
-0.804943 -0.553865 4.00237
1.38637 -1.46168 4.70636
3.05912 0.601025 3.76493
0.0942284 3.69619 2.4153
-1.28273 0.572288 3.27993
0.760387 0.41897 4.21055
0.469375 1.2178 3.72834
-0.754196 -1.27467 4.48755
1.19341 1.94129 3.27548
0.685366 2.51038 2.74127
-0.190967 3.27942 2.56472
-0.0462162 3.7727 2.40728
1.72103 0.516768 4.10176
0.366616 3.83505 2.41037
-0.60566 -1.10536 5.02982
-0.958153 1.00696 3.63943
2.3349 1.73587 3.28051
2.99153 2.41202 2.95596
0.0188086 3.14319 2.51728
2.07415 4.33565 2.4616
1.32992 4.42663 2.35996
0.45915 2.8202 2.58679
-1.15439 3.64759 2.40406
1.00913 -1.05627 3.87497
0.761384 2.19822 2.93237
3.03815 -0.428968 4.39495
1.18815 1.57574 3.49412
1.69857 4.10584 2.42325
3.2076 2.40309 3.01727
0.999095 3.51497 2.56134
-0.692772 2.84318 2.62712
4.21921 0.309252 3.73722
1.42188 2.16894 3.08865
0.407354 4.15609 2.34963
2.11616 -0.228583 4.76168
3.69034 1.17478 3.37327
-0.0506551 2.30592 2.77252
0.737251 3.60373 2.56191
-0.109933 2.98697 2.54507
-0.543591 3.61556 2.44218
4.19427 0.167875 3.58893
0.361129 4.16284 2.2968
3.38394 1.51744 3.40709
-0.752292 2.29328 2.80962
0.0568068 2.87687 2.53431
1.6239 1.58266 3.43506
0.0224183 3.59825 2.39652
3.7476 -0.632173 4.23763
-0.830436 2.15863 2.74561
0.0313902 0.288483 4.29754
0.144752 1.6316 3.40888
0.386 2.80559 2.57127
3.82622 -1.32897 4.56997
1.17518 4.15551 2.37291
0.633008 0.433957 4.25357
-0.38121 3.52658 2.44182
3.65625 3.19943 2.87663
3.87163 -0.224334 3.87714
1.04577 4.1847 2.33902
2.45663 1.63527 3.46114
1.31005 3.70046 2.59749
-0.0801647 2.29489 2.76456
-0.465012 3.06592 2.59821
4.22356 0.0734527 3.70735
1.55626 3.73752 2.57517
-0.538583 0.176547 4.21441
3.70718 1.45888 3.5785
1.60551 4.20419 2.31395
-0.589213 4.3724 2.25053
1.94921 3.00331 2.78462
1.728 2.26254 3.01923
2.38487 3.46555 2.74546
0.14924 2.60727 2.61374
-0.325444 -0.0958258 3.32695
3.23456 0.533234 4.03494
2.18412 1.99151 3.20907
1.97882 -0.827157 4.78959
0.766379 1.3696 3.62409
0.0627658 3.92208 2.39819
1.10064 3.40163 2.67459
-1.20479 1.41589 3.37378
0.100078 2.54084 2.62417
0.242199 2.03133 3.14587
-1.47924 -0.617307 4.63184
4.20384 0.888283 3.49215
0.476721 0.892993 4.02333
0.962698 2.78507 2.68302
0.0140648 3.92806 2.34942
0.921541 3.53321 2.57813
4.66 0.157035 3.94199
2.59866 1.33463 3.50006
1.17493 4.08452 2.44748
1.1315 2.12757 3.01562
2.37961 5.09478 2.59847
-1.42684 2.3203 2.72268
-0.0888809 2.6855 2.5822
-1.17649 3.68973 2.32619
1.30187 3.49125 2.63187
-0.0568806 0.533087 4.15332
2.36401 1.23116 3.49125
3.31031 -0.987642 4.05139
0.105465 2.12334 3.02201
0.932188 -0.149086 4.6198
3.09015 1.86921 3.14736
0.34196 1.43893 3.68903
1.24193 4.06981 2.38601
1.74173 3.44437 2.69528
-0.668518 2.61169 2.57058
1.16547 -1.7391 4.73807
2.80655 -0.0806186 3.98512
-0.049125 3.96349 2.37261
3.48546 3.31603 2.78572
1.64149 1.50636 3.64493
0.608028 4.08066 2.42751
-0.0112149 2.14967 2.91802
3.24282 -0.560023 3.97153
-0.266292 2.84672 2.66367
2.14938 3.61836 2.70551
-0.944764 -0.35079 4.43798
3.28818 1.97749 3.21062
1.49478 1.38552 3.60897
0.621673 4.14716 2.40869
-0.0311473 3.43962 2.52309
-1.23686 4.13993 2.13732
1.26227 2.74292 2.74441
3.92786 -0.25596 3.89908
-0.417781 3.1084 2.46607
2.00958 3.84364 2.60821
1.49095 2.51544 2.94085
2.72952 4.9432 2.58858
-0.445507 0.207174 4.13529
1.97152 1.82884 3.37892
2.50455 0.848229 3.60859
-1.26093 0.724952 3.29217
2.43712 0.773155 3.72771
4.44425 1.65915 3.2595
2.74648 1.6354 3.32893
0.845924 4.41545 2.38563
2.99262 -1.22354 4.13555
1.97427 2.42053 2.98238
4.17355 0.160004 3.94606
-0.873702 2.59077 2.6221
1.06533 3.0675 2.59675
0.903057 3.29936 2.58234
-0.0845691 3.76964 2.40571
2.76269 1.03922 3.58646
0.265943 3.97564 2.50235
4.33479 1.17199 3.58426
-0.372809 1.98768 3.01549
1.84043 4.38191 2.38788
1.43371 -1.04002 3.9564
0.138546 2.48632 2.67343
-1.8694 0.026027 5.43603
-0.964788 2.00595 3.11391
-0.714811 3.14461 2.42687
-0.363976 1.27511 3.66946
1.75437 3.94316 2.48435
3.05632 2.96043 2.82589
0.41209 -1.85113 4.6688
2.18373 2.20575 3.00706
-0.260766 3.99781 2.23785
4.05716 -0.455856 3.91052
0.0302916 1.64155 3.28486
3.75098 0.0157837 3.82473
-0.236915 3.46516 2.41543
2.05606 2.9311 2.82089
-1.11768 -1.21993 4.22988
2.01109 2.14848 3.0394
3.84604 0.134752 3.86526
-0.659589 1.6162 3.27716
3.06984 3.75467 2.72956
-0.950163 2.43136 2.74707
0.694641 4.24192 2.36937
1.95945 3.16419 2.75445
1.02797 3.74706 2.5688
3.02432 0.684113 3.69976
-0.15996 4.14699 2.22571
0.821214 1.79101 3.32606
1.54142 2.35749 3.00663
-1.53973 1.85226 3.24297
-0.836463 2.93911 2.46694
-0.218351 4.31697 2.24865
2.1684 0.0622942 4.04071
-0.976862 3.62486 2.31913
1.21706 1.74567 3.47821
2.54683 5.06161 2.47345
1.63405 1.98485 3.14626
-0.650402 -0.619829 4.25298
-1.84966 1.55797 4.94554
3.79451 0.576412 3.97484
0.277593 3.28198 2.48414
-0.384496 3.75995 2.27442
2.18281 2.66229 2.85653
-1.63367 -1.33355 4.15927
3.4765 -0.649424 4.6434
1.66932 -1.58678 4.70308
-0.585292 3.73615 2.20361
-1.47369 1.05846 3.28673
-1.11459 2.94928 2.55587
-0.867898 3.27564 2.47414
0.691278 -1.73667 3.36777
2.1669 1.3689 3.5031
3.82184 0.246345 3.82487
2.00588 2.09978 3.10457
3.47709 -1.0749 4.4306
0.53923 2.73981 2.61455
-0.745302 3.79492 2.18905
1.16267 3.49706 2.57467
0.684118 4.74476 2.37766
3.78744 0.354546 3.74586
1.8681 1.34053 3.63146
1.11204 -0.947959 4.95123
-0.0598452 2.09314 2.99101
-0.365369 3.92831 2.24886
-0.440384 2.69707 2.59055
4.10419 0.115154 3.65499
-0.959604 3.45559 2.4924
1.89371 3.49531 2.67639
-0.783324 3.83598 2.26126
-1.42436 2.04605 2.85187
0.961455 2.68448 2.68099
3.39698 -0.363937 4.43108
-0.737754 2.13038 2.95596
1.79077 1.37066 3.67098
-1.19797 0.21001 3.50228
2.69225 1.11759 3.58091
0.115146 2.09631 3.1185
4.28316 -0.0515519 3.83089
1.12132 2.67078 2.77914
3.51542 -0.139148 4.28347
0.0717805 3.31848 2.50607
-0.353507 2.88951 2.61853
0.911733 4.12858 2.48154
-1.13071 3.8546 2.23358
3.92109 1.26526 3.42381
0.970233 2.21505 3.00153
-0.851144 3.83505 2.17218
2.32185 2.79425 2.80716
3.91384 0.214755 3.82731
0.306961 3.45002 2.49582
3.04279 -0.456331 4.26086
0.535275 3.58184 2.54971
3.65308 1.16339 3.40849
-0.494729 2.18476 2.92848
3.7083 0.191826 3.94845
-0.168811 1.84214 3.12141
-1.19844 -1.12226 4.02658
-1.18852 0.842664 3.64079
-0.853782 3.07965 2.43705
0.997745 4.13536 2.3672
0.0587353 2.45223 2.74949
2.66421 -0.89605 3.72119
3.09596 0.367836 3.8892
1.6965 3.84015 2.53901
2.02325 4.13591 2.52097
-1.2366 1.51931 3.16151
-0.42407 1.32391 3.56053
1.7146 4.41693 2.38078
2.705 1.82414 3.19063
1.08485 3.87355 2.47795
1.06 2.58776 2.77642
-0.787456 0.418619 3.27917
3.65245 -0.0854942 4.23922
0.106345 3.20384 2.46794
3.85288 0.052844 4.09241
1.63737 1.88568 3.27454
3.79421 0.766045 3.545
-0.987698 3.24152 2.50214
-0.414 3.75912 2.27607
3.84878 2.65078 3.09083
-0.916243 2.62776 2.75783
0.916384 3.85248 2.51457
2.32768 3.29744 2.74326
1.62279 2.63452 2.97329
4.04242 -1.17894 4.53147
3.40793 0.550813 3.78415
1.09295 1.92643 3.25912
-1.25824 -0.602748 4.2106
3.4761 0.863291 3.7352
-1.27982 0.74404 3.28877
3.58421 0.672402 3.51438
-1.00495 -0.0250295 3.28504
-0.416985 1.84688 3.10608
-0.743302 -0.144825 3.32503
2.96964 -0.597082 4.10716
-0.240537 2.54744 2.83263
0.51652 3.11422 2.5464
0.721441 3.92569 2.4956
-0.37567 2.66222 2.65546
2.02221 4.08206 2.52866
-0.00632504 3.30709 2.49739
1.75372 1.24882 3.63379
3.82906 -1.08392 4.31968
-0.58011 3.82911 2.31506
2.88244 1.8994 3.17282
0.769825 3.24251 2.53861
-0.586754 0.299635 3.3499
-0.836347 2.63484 2.68863
-0.76613 -1.48035 3.20337
3.66368 0.493913 4.12595
0.989559 1.97695 3.18828
-1.16417 -0.923471 4.97042
3.63157 0.882584 3.50581
2.5724 -0.105914 4.12017
0.826244 4.10172 2.50906
-0.11057 1.73401 3.40394
2.09936 3.01359 2.81702
-0.962881 4.03206 2.18621
1.37042 2.30266 3.0456
1.21343 4.11552 2.31878
2.68362 0.044139 3.93336
1.71331 3.68914 2.61706
-1.38426 0.407295 3.31623
0.563224 0.950529 3.91755
-0.0116873 4.16253 2.24104
3.57056 1.55356 3.39016
0.103882 3.63936 2.44166
1.30384 2.39894 2.91999
-0.383875 3.07564 2.53289
-0.686655 -0.458358 4.84411
2.51877 -0.23761 4.43632
0.242994 1.72492 3.30764
2.3488 3.88026 2.65381
1.34961 -1.36824 4.68769
2.57579 5.30347 2.63725
1.47921 3.07423 2.7357
4.28433 0.739127 3.59009
1.32837 2.34056 2.9706
1.16518 3.01771 2.66098
0.786271 3.6244 2.52756
0.732928 2.30083 2.86093
0.895798 4.25979 2.39485
-0.0106559 1.71262 3.22827
3.92787 0.268246 4.6941
-1.38818 4.21643 2.22021
4.36187 -1.37387 4.6157
4.18299 1.53416 3.82423
-0.0780915 4.19024 2.1765
1.05578 0.550953 4.09655
0.308221 2.26508 2.88953
2.90322 -1.03933 4.18531
2.05304 3.00762 2.80742
1.21054 2.51586 2.9343
-0.846418 3.69397 2.4444
2.71206 0.20536 4.03944
-0.949447 3.07516 2.43288
1.04256 1.05002 3.98574
-0.711455 4.0974 2.18485
2.27092 1.67041 3.23827
2.11018 3.835 2.61763
1.38402 -1.68502 4.6893
2.26197 3.12846 2.74377
1.70747 -1.32382 4.20354
0.170897 2.39949 2.8096
-1.15809 3.61273 2.0599
3.4289 1.53072 3.30386
-0.80949 3.69969 2.33865
-0.319736 0.891581 4.06527
0.88087 4.45189 2.37262
1.78413 4.82995 2.42127
2.66593 -0.610446 4.66747
0.0931828 4.0841 2.41955
0.106627 2.67112 2.59785
-0.888676 -0.314263 3.95632
0.716102 3.44965 2.57668
1.67471 1.31451 3.53536
2.2734 2.04048 3.20462
0.637056 2.15073 2.89075
1.40109 4.05463 2.39952
0.635419 1.59966 3.46324
0.922509 -0.948309 4.92296
-0.410164 2.85396 2.57735
2.1464 0.615109 3.89458
0.795117 3.6097 2.58728
3.81205 0.462919 3.74569
3.00252 2.07816 3.19566
2.44673 1.30388 3.47892
3.14257 -0.740352 4.18865
0.164584 3.43113 2.47238
-0.206467 4.01465 2.24785
0.783171 2.73595 2.63358
-1.13891 4.33031 2.17516
0.786916 2.35493 2.81045
4.21453 0.190606 3.76019
0.0675111 3.10241 2.57753
3.35996 -1.0946 4.6594
3.14816 0.708029 3.78439
-0.645196 0.516935 3.92703
1.74117 1.74384 3.36211
-0.216067 3.65352 2.43133
0.138938 0.687756 4.09996
0.234286 2.95203 2.54115
2.47594 -0.879012 4.81376
-0.93091 2.30155 2.71305
-1.14512 1.85059 3.31131
2.20644 3.82151 2.60143
1.41866 4.23134 2.32325
1.898 1.80542 3.35548
0.276978 -1.49778 4.63411
1.27239 1.05339 3.79687
2.59041 5.39234 2.63457
1.39795 0.329824 4.27868
1.81783 3.26805 2.74951
2.25372 2.47633 2.97308
2.67572 2.44057 2.95574
1.11504 4.49494 2.35734
-0.222421 3.77096 2.40146
2.7 -1.35011 4.60358
-0.02555 0.411383 4.29002
-1.01612 -0.792929 3.2396
0.438261 1.56551 3.52305
1.81668 4.0108 2.4296
-1.58459 2.94899 4.22882
1.92579 2.85207 2.82998
0.713718 3.5074 2.55449
0.277724 2.08837 2.99875
4.06402 0.0674783 3.78301
2.21496 1.26151 3.53786
-0.0841658 4.03748 2.32047
0.58492 -0.496385 5.32682
2.25168 3.54859 2.7256
-0.237577 2.73436 2.63723
-1.1668 3.61159 2.42094
-0.36021 0.739386 3.89859
0.704228 2.91458 2.61198
3.87201 -0.76496 4.2071
-0.984118 2.33057 2.85113
1.3426 3.64295 2.62833
-0.308898 4.14252 2.32166
4.23754 -0.660836 3.88376
1.23986 1.64945 3.49637
1.94011 1.50824 3.53459
1.97761 -0.552445 4.85495
-1.00255 2.32088 2.94001
3.88732 0.335944 3.67859
1.91912 2.90282 2.78002
1.77476 4.16556 2.35962
-0.339047 3.60357 2.4501
0.96859 2.83731 2.646
3.57668 2.70667 2.96813
1.6147 1.55059 3.53573
-0.693107 3.859 2.17933
3.22043 -0.0348154 4.35238
2.47316 2.14277 3.07602
0.918603 0.274452 4.22692
1.4032 2.87473 2.82169
0.0185137 3.46888 2.48802
2.25727 2.04067 3.04531
0.381754 3.49092 2.46486
4.02472 1.16139 3.46715
1.48403 4.12099 2.37784
4.88994 -0.83912 3.80578
-1.42974 4.17983 2.21347
-0.616415 -0.239659 4.36538
-0.252273 3.53263 2.40712
-0.419035 4.19477 2.29855
1.94946 2.24048 3.02326
0.653719 2.88978 2.5879
1.08369 1.61046 3.39103
-1.02917 -0.0796649 3.7917
2.06409 -0.869049 4.71166
1.62548 1.16757 3.62474
-0.447538 0.628003 3.91738
-0.45197 1.99349 3.02469
0.195206 3.93645 2.47862
0.638272 2.57074 2.71894
1.23452 4.6389 2.3673
0.246833 3.21677 2.48453
-0.808635 0.174507 3.32699
-0.605929 1.91684 3.03136
0.108336 3.92461 2.40595
-0.820344 1.03443 3.578
0.240126 3.16353 2.5018
-1.34022 -0.8544 4.23598
-0.281306 0.213621 3.39506
1.4795 2.60003 2.91711
-0.670865 0.31462 4.08652
1.95948 3.50948 2.68661
1.94837 -1.15016 3.94158
1.44839 2.77862 2.81546
-0.117986 3.93009 2.34879
-0.926955 2.13724 2.95792
2.4221 -1.42385 4.64713
1.63039 1.36925 3.6352
-0.218365 -0.552685 3.28553
1.25141 -1.082 4.84066
-0.0213151 2.07062 3.05446
4.23176 0.253429 3.89182
-0.413515 1.39773 3.46289
-0.34357 2.66826 2.65233
-0.277515 3.2552 2.43678
1.32356 4.0847 2.45639
1.47597 4.79587 2.39126
0.310658 2.56703 2.61308
-0.71716 -0.364759 3.27637
2.07396 3.39012 2.67633
2.15349 1.27708 3.7659
3.91183 -1.15886 4.26669
0.589723 -0.456423 4.77492
1.69037 1.99904 3.17109
-0.824647 3.24595 2.4528
-0.017689 3.93913 2.41336
0.245192 2.58517 2.691
-0.0217356 0.548841 3.53852
-1.02214 2.10424 3.12192
-0.293056 3.87315 2.31522
2.723 -0.247655 4.48515
0.975429 1.27493 3.70679
-0.899517 4.35643 2.12965
2.36257 5.21936 2.48313
1.43752 4.0437 2.43848
-1.01874 0.77285 3.71772
4.56587 -0.825062 4.81013
0.606229 2.66686 2.63155
1.51134 3.4864 2.63852
3.17107 1.15359 3.51954
-0.700179 -0.582112 4.45167
1.22753 2.11518 3.16714
0.281494 4.26103 2.29789
3.81319 1.44626 3.15601
-0.405945 0.203463 4.30015
1.71115 0.885444 3.80853
-0.865628 3.59164 2.35941
-0.926466 2.94018 2.3892
-0.33014 4.37671 2.27658
-0.340908 2.45163 2.8334
3.54284 1.41864 3.28108
1.52577 -1.55135 4.71527
2.15025 3.85047 2.62344
0.175455 2.91008 2.49761
-1.02916 3.73154 2.14502
2.07746 2.30541 3.00635
-0.480941 3.70982 2.3515
4.03099 -0.236323 4.18856
4.22111 0.765332 3.54722
1.03955 2.5262 2.79691
-0.775504 1.97506 3.08908
-0.237793 3.16574 2.47528
3.56072 1.78013 3.2439
-1.25386 1.69038 3.14117
1.14651 1.06204 3.78111
2.23859 0.0631772 4.07059
1.51075 1.82598 3.3265
1.37571 2.48658 2.90273
0.952099 4.51827 2.36793
-0.821073 -0.0172025 3.29113
1.51694 3.26462 2.72874
-0.723334 3.69919 2.2731
1.19729 3.2052 2.65834
0.573766 2.44105 2.7779
0.24574 -1.26427 4.57735
1.35217 -0.972972 5.05818
0.85186 1.8925 3.31566
4.12383 0.356159 3.73453
0.210876 1.15051 3.83054
2.42321 3.09824 2.72215
-0.910086 2.42465 2.74525
-0.207273 3.68992 2.40029
2.21147 -0.717591 4.43314
2.03943 1.74895 3.4689
-1.16935 0.791805 3.92949
0.477061 0.981677 3.95755
1.94126 2.60658 2.87598
2.80048 4.0051 2.70472
2.28445 4.02341 2.62721
-1.49075 1.28096 3.24676
-1.20426 4.24069 2.19676
3.44247 0.191809 4.0148
4.39766 0.947061 3.65158
-0.31943 -1.20147 4.41515
0.067077 2.52087 2.70756
0.165003 2.01402 3.14194
1.45797 3.90195 2.5125
2.65283 3.32349 2.77097
2.24062 0.481331 3.9243
4.01681 0.754629 3.58718
-1.07385 -0.77768 3.72333
2.6555 1.72736 3.17994
2.23336 2.12675 3.0353
2.31228 4.21531 2.52651
-0.835369 -0.191032 4.08211
1.39655 1.50051 3.41056
2.13724 4.40728 2.50918
-0.74131 1.15172 3.34509
0.0157 2.7696 2.52206
-1.18006 3.78823 2.29744
0.543103 2.12296 2.9461
-1.66788e-05 4.09477 2.3002
3.42601 -0.15832 4.00046
2.23403 1.37486 3.53642
2.33928 3.62129 2.73328
0.272826 3.55998 2.51207
0.677274 2.74634 2.6318
-0.92107 3.59388 2.41703
4.42411 -0.391566 3.86397
0.792671 4.20829 2.36048
-0.737412 -0.484994 3.92886
1.48606 1.6588 3.37329
1.74877 2.38249 3.0581
-1.3615 4.31358 2.21064
-0.643456 2.99479 2.52791
0.152912 -0.299987 4.4942
0.348568 1.68576 3.39202
2.04339 3.81862 2.66318
-0.558462 2.30267 2.85156
0.76564 4.24316 2.31634
0.221783 2.85534 2.53517
-0.964245 2.91323 2.54952
0.160103 2.33815 2.79055
2.83254 3.12547 2.83992
0.660593 -1.02392 4.19431
3.48611 -1.09531 3.79687
1.50533 4.21579 2.36037
4.23043 0.167627 3.83319
-0.393026 1.78469 3.21293
-0.435621 3.61412 2.43346
2.1507 0.528135 3.89133
1.10057 2.97123 2.6758
3.51383 -0.952619 4.28271
0.562103 2.26685 2.85337
0.375013 3.67053 2.45577
-0.170157 1.74719 3.35494
3.15586 -1.54218 4.2195
3.6286 2.55774 3.0099
-1.4609 0.857214 3.26617
0.301923 0.197685 4.38216
1.45103 3.82948 2.55981
3.03991 4.85471 2.50592
2.09268 2.39377 2.94484
1.70888 3.20417 2.74574
3.28888 -1.59551 4.4713
0.711173 0.957382 3.83188
-1.81035 0.218531 4.89709
-0.463147 1.84886 3.16899
0.454576 1.52696 3.62932
-0.0209308 3.98124 2.37057
0.225255 -0.605987 4.97677
-0.954236 2.12522 2.89646
1.16597 2.75959 2.73951
4.94423 -0.733913 4.06423
1.44967 3.52409 2.64656
0.472519 2.01819 3.0063
-0.600758 3.88938 2.23751
2.87736 1.11986 3.52059
-1.36882 2.55714 2.73065
-0.107242 3.32177 2.47044
4.24163 -0.635575 4.0133
0.857515 2.67705 2.72541
1.62284 0.748826 4.09228
-0.72275 2.883 2.56099
-0.98438 -0.6444 4.03817
0.763061 3.53029 2.5558
0.175398 4.01177 2.28446
-0.231234 2.22068 2.85385
4.20411 2.19972 3.2832
5.13731 1.63149 4.12554
-0.239422 1.56542 3.34267
0.962456 -0.7751 5.04113
0.958835 2.18495 3.04492
-0.0413325 0.855617 4.02666
1.46287 2.89025 2.81193
0.366934 4.12505 2.31828
-0.998191 3.5408 2.42032
-1.14573 2.73744 2.71024
-0.114107 2.82684 2.62519
2.38466 5.15365 2.60311
-0.49146 1.57206 3.31499
2.06739 -0.0195065 4.16548
0.667063 2.14786 2.96088
0.631848 3.34474 2.46385
0.333709 4.04424 2.3814
0.650093 2.70059 2.63748
-1.17272 3.64494 2.36357
-0.774208 3.45555 2.42252
3.17609 2.00278 3.19302
0.710613 4.18756 2.43289
2.17125 0.116264 4.2124
-0.181607 1.47375 3.416
0.819774 -1.34774 4.33443
-0.756804 -0.259139 4.07495
1.66519 3.6419 2.61808
1.8777 4.19244 2.41612
2.83374 2.96355 2.88654
3.44586 1.34627 3.44189
3.54355 -0.322919 4.0133
-0.580562 2.21023 2.8047
1.72704 -0.926913 4.66112
0.428361 1.96017 3.17477
0.312932 0.589507 4.22767
2.89514 0.943434 3.64039
1.31597 3.3063 2.6614
1.76405 3.86578 2.53991
1.37201 4.52429 2.37077
2.08146 2.56835 2.92319
2.15887 1.9264 3.51665
1.56907 4.45648 2.372
2.77364 0.850887 3.63683
0.448025 3.90591 2.44551
0.291928 3.14997 2.5252
-0.82137 -0.24525 3.28089
0.201663 2.4516 2.7421
-0.687776 1.04016 3.36753
0.991903 1.30434 3.465
2.43195 0.259228 3.96425
2.89226 -1.59021 4.33348
-0.412904 2.02658 2.92406
3.37776 2.6542 2.91046
0.364764 3.93103 2.40177
3.30075 3.60708 2.72896
-0.990562 0.310494 3.88663
3.24223 0.299544 3.9365
2.33011 1.1598 3.69573
1.94465 -1.19587 4.43359
-0.664941 1.99361 2.96913
-0.215617 0.400856 3.44849
2.31692 2.62344 2.88115
4.62116 -1.15145 4.11959
1.8136 3.40918 2.71231
1.00879 3.37256 2.63668
-0.390154 3.92518 2.31342
1.61766 2.70265 2.91396
-1.03828 1.29099 3.26494
-0.092349 1.98755 3.0188
1.92037 4.31257 2.40392
2.27063 -0.53171 4.38371
-0.608205 1.34698 3.47735
-0.587879 3.7296 2.28716
1.20571 3.25841 2.6125
1.92295 2.59386 2.94016
-0.990538 2.81555 2.32414
-0.347384 1.9941 3.12555
4.0044 -0.801486 3.92701
2.70537 0.928404 3.56198
-1.03331 -0.275145 4.19247
-0.16441 2.70068 2.58098
1.96049 4.01684 2.53419
0.604 3.46412 2.55022
-0.0168771 0.482578 3.53112
2.83702 1.18348 3.44962
2.25718 0.636746 3.93754
2.34181 2.02333 3.12534
-1.21128 -0.6801 4.24701
0.723651 4.13799 2.50932
2.54239 2.72571 2.91764
3.89907 -1.17457 4.06276
2.28668 3.46378 2.71508
-0.417229 0.796622 3.93865
2.44684 1.14111 3.48675
2.10449 -0.719095 4.86617
3.22569 1.92144 3.21474
1.07433 4.05917 2.42542
-0.605464 1.80293 3.23947
1.99847 0.124279 4.16218
1.81538 3.73743 2.63315
-0.81116 4.07415 2.19536
1.50853 3.11456 2.7421
0.97184 4.74115 2.37957
0.021031 2.35954 2.81712
4.21983 0.29164 3.5937
-0.384749 -0.825883 4.49106
1.17403 0.391331 4.33815
-0.947377 1.75829 3.3006
0.566348 2.92013 2.59573
-0.492559 3.67905 2.41857
1.15249 2.27593 2.93505
3.29944 -1.45644 4.08877
3.99157 -0.352978 4.09799
0.535057 1.17006 3.81138
1.10597 3.79478 2.52054
3.7878 1.5995 3.24492
2.50999 4.93346 2.62622
-0.167352 2.48624 2.7565
-1.33559 0.263561 3.26197
-0.64344 3.12675 2.45939
3.57346 0.656075 3.67165
0.22447 0.0326108 4.42799
-0.543056 1.8361 3.15396
1.57747 3.85919 2.52744
-0.660438 2.40009 2.7066
1.18862 4.3868 2.35496
0.000467467 3.08276 2.53397
-0.974695 1.26442 3.29158
0.637814 3.06101 2.55141
-1.48477 1.8056 3.22432
-0.846136 2.43592 2.72417
3.47473 0.366495 3.93339
-0.587867 1.85373 3.17576
0.572898 -1.08094 5.01778
2.8192 0.737577 3.68165
0.643246 3.04568 2.61374
1.38828 3.75816 2.57207
-0.198943 2.42957 2.87956
1.01891 -0.810317 4.76109
3.5201 1.56894 3.46297
2.76159 -0.824036 4.35595
0.456065 -1.55018 4.66491
1.22593 0.69093 4.03403
-0.13773 3.72708 2.41684
1.4264 2.62722 2.9302
0.537253 3.18025 2.50473
-1.36219 0.209353 3.25915
3.59839 2.28355 3.19755
1.88396 1.07623 3.69793
0.324873 3.81594 2.44354
2.85923 1.80637 3.2931
-0.909453 2.59986 2.82264
2.82343 -1.48029 4.55976
-0.686027 3.06012 2.40104
-0.680697 0.601405 3.37724
4.4572 0.835596 3.60155
1.30533 0.480501 4.15914
3.35206 1.67603 3.30807
-0.86853 -1.11914 4.30284
0.156174 3.91902 2.44819
2.67892 2.0515 3.05697
-1.41423 -0.327367 4.26894
1.88517 1.42976 3.49183
4.35435 0.470011 3.80978
-1.33638 1.89947 3.00758
1.77189 2.8827 2.82705
1.77665 4.14573 2.4395
1.28233 3.57076 2.61558
0.431211 -0.144742 4.80823
-1.29769 4.03734 2.15696
1.50819 1.60908 3.42025
0.344004 0.856029 4.18557
1.55189 3.70202 2.66142
1.05943 -0.771105 4.93505
1.69334 4.14535 2.38305
0.734814 2.28851 2.9054
3.7818 -0.0315282 3.91729
0.505795 2.92401 2.59608
3.95976 2.11224 3.17602
0.811311 -0.498581 4.75811
-0.392029 1.69767 3.41538
1.19418 3.71918 2.59123
-0.580216 4.09536 2.20915
0.156169 4.27215 2.21346
1.73428 2.97788 2.8235
-1.34596 0.0482819 3.26797
2.54546 0.631494 3.98379
1.6438 -0.767596 4.50048
1.04501 3.77425 2.503
2.67022 4.46359 2.53727
4.99545 0.586011 4.08299
0.0324021 2.40019 2.75026
2.82567 -0.686432 4.40888
1.28371 3.18916 2.69818
-1.06635 0.894855 3.6951
1.22363 1.82104 3.37234
-0.878995 1.99972 3.0763
1.88958 4.53292 2.40367
2.0459 1.07829 3.68878
0.735894 3.28129 2.59658
3.30909 -1.26128 4.74959
0.106555 3.73595 2.37564
-0.109209 0.452765 4.19657
2.79768 1.68503 3.21966
1.668 2.64985 2.97004
1.54193 1.07442 3.81281
1.21536 3.88275 2.46282
1.17327 -0.997957 4.84551
-0.516095 3.22642 2.54028
0.139692 0.582716 4.01639
2.84332 2.45253 2.96743
3.12451 1.36165 3.39415
-0.0964109 3.34429 2.3619
0.51544 2.17531 2.85406
1.14855 4.09595 2.38118
-1.28354 -0.303557 4.08882
4.63072 0.661628 3.76546
-1.40953 0.427116 3.32549
-0.0913633 2.83984 2.55433
-0.87802 -0.348909 3.27235
3.17149 1.26605 3.40668
-0.352272 3.51467 2.41973
-0.713311 2.15513 2.83065
-0.62741 3.94219 2.15824
