ply
format ascii 1.0
element vertex 1916
property float x
property float y
property float z
end_header
2.38564 2.05478 3.06939
0.14158 -0.410818 4.56807
-0.50979 3.45584 2.45863
2.65891 -0.378932 4.18383
3.92842 -0.366454 3.96851
-0.668332 3.55451 2.46697
1.64461 2.36415 3.10097
0.482363 4.30287 2.30279
-0.938442 2.28686 2.83249
-0.436562 3.58862 2.43892
3.94137 0.335655 3.6356
0.853124 3.69884 2.53831
0.913564 2.37653 2.80454
3.25151 -0.275582 4.05625
1.21061 1.0329 3.75809
-1.15468 -0.373816 3.22607
1.61489 2.35332 2.98334
0.868814 3.80646 2.55901
-0.500485 2.59611 2.71372
-0.568731 0.849112 3.44553
0.663594 1.32605 3.81074
2.24318 0.864461 3.99745
1.39745 3.88445 2.58566
-0.70712 0.691738 3.31391
0.727718 2.46512 2.79703
-0.316584 3.74854 2.34387
3.83118 0.7179 3.6095
2.36759 0.559972 3.95614
3.49408 2.60002 3.02251
0.764575 4.02463 2.5275
2.40775 1.04476 3.45379
2.92725 0.595416 3.89654
-0.129597 3.32172 2.37404
-0.307413 0.112463 3.27839
0.509587 2.17288 2.84106
-1.40953 0.427116 3.32549
-0.393149 3.48864 2.42878
0.50354 4.11917 2.15089
-0.71409 2.16826 2.80306
-0.551135 2.44317 2.8293
-1.23619 3.89035 2.29861
1.58901 3.64565 2.60623
-1.10198 3.4373 2.43724
2.22262 2.19362 2.97738
-0.696695 3.61121 2.39563
-1.34596 0.0482819 3.26797
2.56924 0.67286 3.95802
1.02244 3.75404 2.53565
5.04723 0.569266 4.07187
0.0214165 2.39788 2.73906
-1.06635 0.894855 3.6951
2.05909 1.10089 3.66026
0.0647346 3.71675 2.40043
-0.109209 0.452765 4.19657
1.66573 2.62454 2.97217
-0.863411 -0.313556 3.26737
1.54721 1.11781 3.77389
1.19622 3.86289 2.49875
0.139692 0.582716 4.01639
2.87855 2.41013 2.97805
-1.07352 0.303036 3.21677
3.96941 1.01311 3.56285
1.16532 3.92621 2.48014
1.51461 2.73807 2.87468
-0.254409 -0.175484 3.2643
2.9086 1.0599 3.58703
0.378598 4.03017 2.46141
-0.71685 2.65396 2.66145
2.73179 -0.677243 4.36136
-0.029593 -0.285918 3.28246
-0.704245 -0.878204 4.12185
-0.91697 2.86995 2.61977
0.189222 0.665336 3.58649
1.83457 1.46965 3.50484
1.51909 4.04217 2.47542
0.577485 -0.877422 4.82556
-0.996829 4.00013 2.17513
-0.734485 2.77156 2.613
-0.266436 3.92955 2.26226
2.30731 1.25418 3.45123
-0.846658 -1.4168 4.3704
-0.734261 2.96424 2.55929
1.7677 1.53564 3.30586
-1.5391 1.10698 3.20782
1.73082 4.1391 2.4306
2.83097 -1.21268 4.53711
1.775 2.93376 2.8157
-0.137182 1.16307 3.49445
-1.02631 1.74652 3.31075
0.690536 4.28483 2.41948
2.74455 1.5455 3.32657
0.408989 2.92502 2.52308
0.625912 -0.963943 4.75311
-0.854568 1.27456 3.1723
1.81182 3.70942 2.66464
4.21983 0.29164 3.5937
0.0118756 2.3559 2.7986
-0.536787 3.6536 2.42967
1.14862 2.26156 2.92355
3.29944 -1.45644 4.08877
1.08417 3.77439 2.5529
0.538649 1.18993 3.80147
-0.179572 2.48175 2.74421
-1.33559 0.263561 3.26197
3.6242 0.641273 3.64283
1.56701 3.8335 2.56146
-0.668293 2.40178 2.68747
-0.968376 1.28722 3.28672
1.61545 2.67681 2.91875
-1.03284 1.31328 3.26016
-0.596026 1.41992 3.46175
-0.633436 3.70197 2.30041
1.93026 2.56556 2.94683
-1.01012 2.79812 2.31694
2.74146 0.9277 3.54373
1.95928 3.98606 2.56893
-0.182011 2.68596 2.57438
-0.0093625 0.506382 3.52173
2.87284 1.17124 3.4336
2.27932 0.679877 3.91008
0.684045 4.11537 2.54381
2.56533 2.68557 2.92811
-0.417229 0.796622 3.93865
2.47179 1.13951 3.46422
1.04709 4.0381 2.46196
-1.41423 -0.327367 4.26894
1.89316 1.44095 3.46765
0.17299 0.340599 3.50713
1.77459 2.85341 2.84142
1.77194 4.11782 2.47609
0.431211 -0.144742 4.80823
-0.785464 -1.91965 3.1393
1.51238 1.62427 3.40422
1.68666 4.11937 2.42096
1.05943 -0.771105 4.93505
-0.492432 0.0465764 3.28824
0.486547 2.90626 2.60202
0.811311 -0.498581 4.75811
-0.392463 1.76312 3.39469
-0.635008 4.06724 2.23009
1.73343 2.94867 2.83753
1.96584 5.005 2.51581
0.619605 3.04111 2.56343
-1.64021 2.45005 2.79099
1.01891 -0.810317 4.76109
-0.587454 1.9016 3.15544
0.572898 -1.08094 5.01778
0.623363 3.02689 2.62192
4.11744 1.69357 3.27786
3.56351 1.53178 3.44816
2.76159 -0.824036 4.35595
0.456065 -1.55018 4.66491
0.51437 3.16119 2.51905
2.88988 1.77675 3.28577
2.82343 -1.48029 4.55976
-0.713639 3.0374 2.39822
3.39691 1.63601 3.29652
-0.86853 -1.11914 4.30284
4.35435 0.470011 3.80978
0.450594 1.58697 3.59714
-0.0709875 3.95998 2.39679
0.225255 -0.605987 4.97677
1.15854 2.73725 2.7466
-1.37686 2.57253 2.72038
-0.650988 3.86064 2.25382
2.91024 1.1077 3.49803
0.847452 2.6562 2.72567
-0.0146468 0.272434 3.39952
-0.741513 2.86587 2.54962
-0.98438 -0.6444 4.03817
0.128372 3.99147 2.31283
5.13731 1.63149 4.12554
-0.235774 1.62809 3.32221
0.962456 -0.7751 5.04113
-1.09953 -2.01628 3.13896
-0.574485 0.0411826 3.2995
1.45662 2.86397 2.82332
0.322611 4.10614 2.3497
-0.376823 1.20704 3.41946
2.86518 3.08089 2.85867
3.48611 -1.09531 3.79687
1.49095 4.19027 2.39707
-0.392807 1.83662 3.19571
1.08917 2.95105 2.68942
3.51383 -0.952619 4.28271
4.33938 1.43022 3.40832
-0.170282 1.80587 3.33876
3.15586 -1.54218 4.2195
-1.5469 3.19384 2.33968
3.03991 4.85471 2.50592
1.70752 3.17425 2.7676
3.28888 -1.59551 4.4713
-0.461965 1.89356 3.14523
0.423634 1.98437 3.16077
0.312932 0.589507 4.22767
1.34573 4.50003 2.40978
1.30507 3.2843 2.68792
2.16301 1.92566 3.50604
1.5525 4.43056 2.41033
0.266452 3.12852 2.53659
2.46025 0.291092 3.93402
-0.414163 2.04494 2.90032
-0.990562 0.310494 3.88663
3.30075 3.60708 2.72896
3.28591 0.310665 3.90607
-0.663688 2.02538 2.9485
4.62116 -1.15145 4.11959
1.81242 3.38008 2.73821
2.37455 5.11778 2.64683
2.06739 -0.0195065 4.16548
0.662247 2.14953 2.94824
0.608259 3.32377 2.48391
-1.21354 3.6213 2.36934
-0.814177 3.43047 2.42759
3.21671 1.96207 3.19087
2.17125 0.116264 4.2124
0.819774 -1.34774 4.33443
-0.756804 -0.259139 4.07495
1.66016 3.61492 2.64876
3.54355 -0.322919 4.0133
-0.585972 2.22199 2.78226
2.79313 -0.282291 4.20905
-1.32777 3.10292 2.42976
0.58316 4.15524 2.39305
1.77908 -0.0239361 4.56396
0.0498016 2.75077 2.50804
2.21447 1.47078 3.45895
1.71007 4.14742 2.3913
0.382212 1.76767 3.22102
-0.66385 0.673351 3.34192
-0.210975 -0.551268 4.69725
1.53291 3.07363 2.75505
0.378806 -0.702302 4.60973
2.22142 1.54895 3.43161
-0.814963 2.87322 2.47864
3.50587 -2.25015 3.9243
2.32238 -0.363915 4.39416
1.08376 3.1963 2.65722
0.0213765 1.85728 3.06173
1.63187 -1.54817 4.67327
-0.57414 1.16784 3.27741
-1.10518 -0.697864 4.29822
3.37866 1.54959 3.31976
-1.30956 0.797455 3.74778
3.79507 -0.715912 4.30107
1.80698 3.17266 2.78283
-1.57233 -0.950426 4.54831
3.37753 3.37439 2.83622
1.76167 4.34393 2.4236
2.83386 1.81225 3.18841
-0.608556 3.16402 2.4374
1.89569 1.93395 3.34435
5.12597 -0.762016 4.2326
3.53238 0.543061 3.70107
4.71416 0.130597 3.93418
1.20367 3.37683 2.64137
0.665353 2.05931 3.06395
-0.54345 2.21359 2.88589
0.614049 3.38112 2.47465
2.8146 5.29068 2.56735
-0.802155 0.480205 3.91875
0.952765 2.18211 3.165
0.103565 3.32984 2.46301
-0.538459 0.662611 3.92075
-1.37258 2.79774 2.6663
1.16332 3.59083 2.61513
4.25481 -0.367155 3.82855
3.07678 0.220922 3.94944
-0.411905 2.25846 2.75645
1.54858 3.61937 2.59612
1.39423 2.24285 3.06584
0.973472 0.529312 4.26983
-1.29257 3.84534 2.33623
-0.985122 3.02411 2.47469
-1.08304 0.053524 4.07743
0.344426 2.39113 2.78605
-0.187882 3.6128 2.42381
3.75026 0.646075 3.73272
-1.02246 2.41737 2.77952
-1.42677 0.595682 3.28227
0.483412 3.77636 2.52686
1.04151 0.716405 4.06396
-0.151176 1.99111 2.96915
0.120192 3.19766 2.46724
4.29976 -0.271679 3.9524
0.0459937 0.842649 4.06679
-1.23564 0.932727 3.47936
1.3918 2.07303 3.0796
0.284021 0.461288 4.21601
-0.452776 3.36296 2.4524
2.57125 1.95395 3.21577
2.09917 0.59788 4.01286
1.02112 3.35924 2.60784
4.24579 -0.356574 3.92346
-0.615607 0.189531 4.23826
2.1374 2.09528 2.99418
4.08884 -0.718211 3.92093
1.46886 2.16276 3.08599
4.46735 -1.15544 3.83718
0.487622 3.51356 2.57065
-1.65909 0.205988 4.5989
0.312716 2.31584 2.78585
0.31395 3.52728 2.50934
4.75438 0.680798 3.52206
1.44762 3.70988 2.65436
3.69759 -0.187157 3.98665
-0.193775 2.34915 2.86694
4.17097 -0.210059 4.05086
1.17702 3.73237 2.59134
2.42193 2.35909 2.99054
-0.27615 -1.20025 4.54172
1.52184 3.79219 2.59454
1.50578 1.01396 3.8586
-1.32459 -0.119928 3.2616
1.16143 1.24261 3.72174
-0.455771 3.69038 2.35838
0.920365 2.49436 2.7496
4.65417 1.16048 3.57479
-0.015298 3.84734 2.43028
3.92519 0.69171 3.5517
3.97021 2.09162 3.26996
1.28067 2.46754 2.88147
-0.831415 3.72628 2.25543
-0.871941 2.66656 2.58859
-0.257813 -0.154475 3.32273
-0.370546 1.47771 3.48993
0.573933 -1.832 3.33051
3.12316 1.09425 3.79382
-0.533136 2.62427 2.6481
-0.23588 3.85242 2.31464
-0.00277143 2.67827 2.50958
0.279581 0.708505 3.64433
2.05782 1.38389 3.43722
-0.469948 3.83137 2.25214
2.08608 2.75005 2.85023
-0.384218 -2.34935 3.17016
1.14487 1.40695 3.44509
0.927993 4.1433 2.46506
1.01799 4.71007 2.37399
-0.282545 3.37759 2.42075
2.32738 2.03504 3.05093
-0.828224 3.38795 2.45694
-1.35875 0.0409227 3.30674
1.03097 2.15006 3.14382
0.561439 2.15538 2.84568
3.67247 0.403258 3.70803
-0.324785 3.45278 2.42054
4.31416 0.10207 3.73764
1.6311 0.925705 4.03194
0.82236 3.59648 2.53392
0.467174 2.30823 2.82136
-1.40276 3.95384 2.31583
2.11307 3.74954 2.66263
-0.540105 4.3908 2.19651
3.03535 0.443546 3.93276
2.30271 2.18114 2.99793
0.35857 0.343293 4.36138
-0.94327 3.78949 2.46215
-0.667991 2.48588 2.68833
-1.34589 0.294623 3.26386
4.0706 0.688288 3.60095
-0.0452732 1.07924 3.93173
-0.380149 0.349812 4.19671
-0.837103 -0.426293 3.25043
-0.603188 2.36804 2.66703
2.04412 3.8533 2.6166
2.28857 2.59455 2.89878
-0.901156 0.756628 3.20721
0.480521 1.4417 3.75623
1.5982 -0.978354 4.61012
1.24046 3.85613 2.50755
-0.502099 -0.295208 3.28679
1.26711 2.56274 2.86912
3.29248 -0.887124 4.58769
0.713132 3.98108 2.51837
1.27574 1.18312 3.6809
-0.800345 -1.24328 3.19031
0.580117 4.33332 2.56423
1.55485 2.72633 2.88762
1.41921 1.33602 3.57866
3.25198 -1.25404 4.21607
3.95837 1.12767 3.38736
-0.26281 3.88087 2.29633
0.560037 0.892634 3.69264
1.68764 2.86091 2.85973
-0.158447 4.0028 2.32843
-0.0112825 1.55957 3.47822
-0.386337 -2.22196 3.18241
0.462412 2.64758 2.61394
3.92339 1.47616 3.67666
1.40601 2.98314 2.76184
-0.110014 3.95944 2.24668
-0.555017 0.123377 3.28594
4.02841 -0.905173 3.82263
1.50273 1.57309 3.48426
-0.321848 4.19386 2.26081
1.16215 2.88171 2.72259
-0.863359 2.62361 2.72596
-0.741401 0.400319 3.28457
-1.29402 -1.06169 4.20621
0.241283 1.29549 3.89628
-0.709504 3.64333 2.31385
0.264971 2.42919 2.72063
3.96176 -1.0952 4.7978
-0.196113 1.16987 3.60753
2.09618 3.96508 2.63037
1.77885 1.20908 3.60523
0.172581 2.52624 2.61515
-0.612224 1.18389 3.44366
1.06316 4.00423 2.54064
-0.154679 0.736559 3.56752
-0.740804 1.49372 3.30375
-1.00881 3.79535 2.24621
-0.308426 2.75715 2.64835
0.622356 -1.91275 3.33943
2.48054 4.1912 2.62767
4.17967 1.04765 3.70424
1.37897 2.67582 2.81425
0.25 1.0197 3.68061
-0.576866 -2.21123 3.18384
3.01721 2.90459 2.89937
0.285541 4.11986 2.42662
1.78975 1.53956 3.48326
-1.28467 0.423917 3.18901
-0.328048 2.82131 2.63122
-0.407813 4.07874 2.31017
0.777913 1.50124 3.35409
-0.702425 0.748154 3.31459
0.474519 2.94842 2.56112
0.470192 4.24865 2.40347
4.1454 -0.22073 3.92811
1.71021 0.175856 4.33602
1.77567 1.64916 3.32163
2.31996 2.95472 2.80006
-1.65088 2.59524 2.80591
-0.262359 1.79217 3.33141
0.293345 -1.01719 4.59607
0.955049 1.84807 3.31028
2.01047 3.16362 2.79203
-0.661113 -0.305352 4.40139
2.40907 4.83034 2.65279
-0.773964 1.51059 3.20235
1.45369 -0.137775 4.26969
0.715811 4.46962 2.4061
-0.14395 1.90757 2.98401
0.836135 3.26766 2.6512
2.61627 1.68349 3.25561
4.13995 -1.24079 4.42548
-0.251274 3.08887 2.47194
-0.957393 -0.469247 4.36566
-0.488197 -0.736838 4.37116
0.618005 3.35653 2.58191
-0.671557 0.32291 3.94506
-0.637433 2.10576 2.93959
-0.491702 -0.718514 4.59238
1.57981 1.87833 3.0944
1.69299 -1.57774 4.69719
0.437987 3.24143 2.54097
2.40099 3.42788 2.77391
3.26906 0.554952 4.00435
2.19872 1.97421 3.20403
-1.20479 1.41589 3.37378
1.08102 3.38015 2.69846
0.236315 2.05458 3.12999
4.66 0.157035 3.94199
0.476721 0.892993 4.02333
2.37239 5.05827 2.64212
0.897883 3.51278 2.60317
1.12892 2.11992 3.00314
-1.22091 3.66919 2.33668
1.2887 3.46945 2.66081
-0.0568806 0.533087 4.15332
0.0993269 2.13393 2.99711
-0.82996 2.16937 2.72175
0.0313902 0.288483 4.29754
0.633008 0.433957 4.25357
-0.422373 3.50098 2.45063
3.65625 3.19943 2.87663
3.87163 -0.224334 3.87714
1.2926 3.68015 2.63017
-0.0870231 2.29116 2.74561
4.23112 0.0831684 3.70087
1.54811 3.71172 2.60891
-0.538583 0.176547 4.21441
-0.589213 4.3724 2.25053
1.73206 2.24079 3.01453
2.01193 3.81471 2.64175
1.48779 2.49418 2.93932
-1.26093 0.724952 3.29217
2.53646 0.858594 3.59178
2.46374 0.793106 3.70388
4.44425 1.65915 3.2595
3.02404 -1.21603 4.11385
1.9831 2.39232 2.98159
-0.130443 3.74719 2.42569
-0.8842 2.58828 2.60732
4.38471 1.14348 3.57561
2.79717 1.04054 3.57134
0.218823 3.95442 2.52811
1.47994 -0.943323 3.91999
0.1277 2.47273 2.66411
1.75191 3.91562 2.51933
-0.357569 1.30191 3.66369
0.34133 1.50705 3.67399
-0.68164 2.60185 2.55548
-0.0984163 3.94148 2.39697
3.48546 3.31603 2.78572
1.6453 1.53628 3.6312
0.56698 4.05987 2.46012
-0.286859 2.83387 2.65885
0.26836 0.372428 3.54699
1.49849 1.41505 3.58386
0.580474 4.12655 2.44145
1.25578 2.71984 2.75119
0.51645 -0.00401289 3.42279
2.53998 2.31545 2.96445
-0.607923 4.24619 2.20233
3.32455 0.679289 3.68084
0.300295 3.60498 2.45138
-1.23496 0.0557211 3.26801
0.365492 2.29816 2.79033
0.0829178 3.69568 2.45013
3.06578 2.24605 2.99776
0.430267 3.85422 2.52974
3.07343 2.35386 2.95726
-0.153126 1.15614 3.6387
-1.02469 1.11235 3.37903
-0.474263 3.74065 2.34729
0.759039 2.56273 2.72216
2.79502 2.58543 2.87025
1.23908 1.23222 3.78037
0.38607 4.04845 2.54302
0.734228 2.48749 2.73422
-0.607101 -0.592388 3.25471
4.21175 1.1216 3.68892
-0.484036 0.757432 3.82127
1.51041 3.96315 2.48662
0.149106 2.62227 2.55382
-0.724054 -1.27483 3.20582
1.4865 4.03805 2.48607
1.29721 1.30546 3.48005
0.416243 2.55675 2.60811
0.0222173 -0.504985 3.23569
-1.39678 4.04676 2.31261
0.442924 2.80171 2.59059
1.6919 4.07872 2.46017
3.03815 -0.428968 4.39495
1.18916 1.60746 3.47771
-1.11928 1.03097 3.26548
-0.713253 2.83175 2.61924
0.362969 4.13564 2.38155
2.11616 -0.228583 4.76168
3.71606 1.15688 3.36752
-0.134018 2.96448 2.54221
0.31758 4.36059 2.33543
0.315871 4.14395 2.32961
3.42707 1.4806 3.39158
0.0350248 2.85513 2.53272
1.63014 1.59843 3.42073
3.7476 -0.632173 4.23763
3.67715 1.53171 3.34502
2.93977 -0.860065 4.40974
-0.147272 -1.23236 4.64971
-0.611457 3.00756 2.45983
-1.04188 0.432093 3.16967
-0.804943 -0.553865 4.00237
1.38637 -1.46168 4.70636
-1.12204 1.5653 3.13462
-0.754196 -1.27467 4.48755
1.18896 1.94611 3.25463
2.07448 4.30516 2.49809
-0.222686 3.25827 2.56995
-0.60566 -1.10536 5.02982
2.35497 1.71877 3.27088
1.30355 4.40357 2.39885
-0.00943913 3.12138 2.52172
1.57438 1.13393 3.70081
1.11449 3.82205 2.54655
-0.238072 2.49659 2.65639
-1.17039 4.1441 2.1936
3.67518 0.715014 3.6221
1.12629 3.85938 2.5143
-0.43856 2.4308 2.66902
3.30941 2.32117 2.92709
3.72433 -1.02584 4.29636
1.21039 2.66182 2.79046
-0.776767 -0.847844 3.22471
-1.2066 1.28638 3.57022
2.89943 -1.30798 4.45075
0.957614 3.92148 2.48905
-1.34574 1.88147 3.05893
0.9899 2.56546 2.75088
0.353224 1.38712 3.68585
1.06996 3.95084 2.46235
1.96347 2.8054 2.83688
0.257563 -0.0439289 3.36841
-1.66346 1.70861 4.45343
-0.848629 3.81803 2.22758
1.50475 2.78252 2.84681
2.50771 1.2023 3.44722
1.53488 4.04491 2.43894
3.20562 1.26095 3.3162
-1.35262 4.0543 2.29086
2.16576 2.94789 2.88945
1.08227 4.1308 2.41312
-0.408937 0.226721 3.38004
1.82287 4.10963 2.37912
-0.242545 1.82372 3.24804
-0.676756 0.884232 3.34632
1.05186 3.0021 2.66515
1.71502 1.5914 3.44394
-0.746514 4.03843 2.13569
0.802481 0.161916 4.41998
1.24378 2.95357 2.72544
-1.54735 2.33763 2.78132
0.857114 3.13591 2.60409
-0.415262 -0.248709 4.43597
4.32825 -1.94212 3.7656
2.83833 5.10936 2.55443
0.296386 1.85492 3.12462
1.21369 3.10556 2.69039
-0.971005 -0.0344092 4.06438
0.287561 1.76248 3.10546
0.976423 4.42046 2.40239
0.462331 3.19033 2.50322
3.08726 -0.613393 4.51891
0.664688 1.96321 3.07147
1.6288 4.47971 2.41843
2.65506 -0.413897 4.54984
1.56685 3.30445 2.73954
0.886689 1.86386 3.09071
-1.46542 -0.969235 4.17919
0.55111 1.99712 2.98397
1.97582 3.46516 2.7805
2.84893 -0.837311 4.23794
5.01234 -0.807626 4.05729
3.75381 -0.715652 4.04974
-0.694142 2.93398 2.56246
-0.597146 4.0605 2.29489
0.223244 -0.15674 4.58265
2.25552 1.40033 3.23453
-0.236923 1.70376 3.32969
-0.465931 -0.01072 3.34991
-0.770501 0.945873 3.32321
0.27235 4.09148 2.30318
1.96812 -0.069315 4.1646
-0.0633861 2.76498 2.51919
-1.01914 0.539295 3.19891
0.951428 3.09495 2.65809
3.69148 -0.412764 3.84058
0.0608616 4.24458 2.32449
-0.961604 1.93236 3.17354
-0.518876 2.97289 2.52336
-0.434343 1.36227 3.31206
-0.928261 1.84744 3.18621
2.86076 4.7564 2.55207
4.33952 -0.762446 4.38093
3.72389 1.66222 3.32802
2.84886 -0.572186 4.08354
0.507193 3.02895 2.48278
1.44904 1.86693 3.33116
3.0879 1.74005 3.13546
1.30362 4.54678 2.4094
1.99935 -1.03469 4.76691
0.536043 3.22303 2.5303
1.22902 1.92695 3.23998
-1.04234 -1.16737 4.14783
0.682538 -0.850816 4.50236
2.1707 3.30982 2.79266
-0.768795 3.36193 2.44689
4.93487 -0.708404 4.05001
1.18465 0.788707 3.94301
2.7994 1.93021 3.11755
2.47737 5.03733 2.61132
2.64978 1.91573 3.20104
1.69094 3.43547 2.73189
2.07739 0.682938 3.90036
-1.42722 0.6106 3.32998
0.160282 2.29751 2.98345
1.96229 3.55657 2.70491
-1.15669 3.03289 2.45428
-0.129328 2.16953 2.90463
1.87855 3.65255 2.70948
2.96856 0.353063 3.99789
-1.38405 3.64816 2.3439
0.514148 3.41655 2.38813
0.757129 2.23939 2.88636
3.58583 0.33196 3.87273
-0.336862 3.64396 2.45455
3.57309 0.617256 3.63854
3.95141 -0.0825659 4.21137
2.34599 2.40283 3.05896
1.7908 5.00166 2.42721
0.384073 3.77162 2.52123
2.85143 0.222847 3.91398
-0.874152 2.33899 2.71642
-1.14145 -0.399818 3.21869
0.23232 4.24152 2.33084
3.84187 1.42374 3.14969
-0.405945 0.203463 4.30015
1.9565 5.02307 2.51828
-0.950627 2.91971 2.38307
3.55907 1.4054 3.2774
1.52577 -1.55135 4.71527
0.154219 2.89248 2.50357
-1.35819 0.866322 2.84136
4.03099 -0.236323 4.18856
-0.266356 3.14318 2.47742
3.611 1.73372 3.23516
-0.774279 2.01978 3.07029
2.23859 0.0631772 4.07059
1.51258 1.83324 3.31296
0.91238 4.49542 2.40478
1.50972 3.23849 2.75001
2.08418 3.35659 2.70395
3.91183 -1.15886 4.26669
0.589723 -0.456423 4.77492
1.69413 1.98906 3.15988
-0.854603 3.22227 2.45016
-1.02243 2.15328 3.10373
2.723 -0.247655 4.48515
-0.899517 4.35643 2.12965
2.36257 5.21936 2.48313
4.56587 -0.825062 4.81013
1.5032 3.46237 2.66624
-0.700179 -0.582112 4.45167
1.22158 2.11282 3.15299
2.25095 2.09483 3.03039
-1.18006 3.78823 2.29744
0.539428 2.13075 2.93799
0.236298 3.53698 2.53019
2.35377 3.58322 2.76422
4.48667 -0.421365 3.89025
-0.962265 3.56873 2.42295
-1.3615 4.31358 2.21064
1.74944 2.36193 3.05595
2.04557 3.78729 2.69618
-0.565463 2.31474 2.83263
-0.98559 2.89907 2.54048
0.561871 2.41064 2.74981
-1.49075 1.28096 3.24676
-0.251662 3.66719 2.4171
4.12383 0.356159 3.73453
0.210876 1.15051 3.83054
-0.916312 2.43433 2.72811
-1.20426 4.24069 2.19676
-1.16935 0.791805 3.92949
0.477061 0.981677 3.95755
1.95104 2.57549 2.8838
2.81868 3.95638 2.73241
-0.733729 1.17494 3.33569
3.44247 0.191809 4.0148
4.39766 0.947061 3.65158
1.44478 3.8777 2.54818
0.0545323 2.50794 2.69532
2.26584 0.526658 3.89411
4.01681 0.754629 3.58718
-1.58459 2.94899 4.22882
0.687366 3.48657 2.57733
0.27184 2.09636 2.97525
4.06402 0.0674783 3.78301
2.26411 3.51284 2.75473
-1.20754 3.58769 2.425
-0.36021 0.739386 3.89859
1.32651 3.62121 2.65887
-0.985237 2.34773 2.83422
4.23754 -0.660836 3.88376
-1.00475 2.34964 2.9231
3.94462 0.320014 3.65113
-0.380053 3.57787 2.46181
2.59041 5.39234 2.63457
0.779195 2.33296 2.79167
-0.259579 3.62861 2.44538
3.18507 0.705476 3.75523
-0.645196 0.516935 3.92703
2.70723 2.40386 2.96574
0.138938 0.687756 4.09996
-0.933501 2.31234 2.6959
2.21544 3.78675 2.63348
1.27704 1.11049 3.76938
1.39795 0.329824 4.27868
2.26865 2.44223 2.97476
-0.268671 3.74781 2.41965
-0.02555 0.411383 4.29002
-1.01612 -0.792929 3.2396
2.06409 -0.869049 4.71166
1.63014 1.19368 3.5847
0.148759 3.91369 2.50396
0.625391 2.54512 2.70386
-0.795484 0.204526 3.31337
0.0618592 3.90327 2.43125
-0.820344 1.03443 3.578
-0.274124 0.237182 3.3827
1.47626 2.57916 2.91996
-0.167397 3.90885 2.37253
1.98352 -1.13153 3.9434
1.44507 2.7516 2.8222
1.63511 1.39693 3.61406
-0.179128 -0.462917 3.23204
1.25141 -1.082 4.84066
-0.407065 1.43642 3.44847
0.206394 1.02056 3.63205
-0.358775 2.65588 2.64039
1.3034 4.06251 2.49226
0.958671 2.81828 2.65653
0.650505 -0.0153995 3.4643
1.62088 1.5771 3.52496
-0.742891 3.83196 2.19487
1.39583 2.84809 2.83017
-1.16634 -0.746567 3.15921
4.0479 1.14606 3.46295
1.47102 4.0955 2.41538
3.73278 2.30209 3.12196
-0.419035 4.19477 2.29855
0.638541 2.87116 2.59459
1.08523 1.64143 3.37837
1.36698 2.29191 3.04021
1.71026 3.6616 2.64975
-1.38426 0.407295 3.31623
0.563224 0.950529 3.91755
0.0643433 3.61823 2.45994
1.29876 2.38047 2.9141
2.5743 5.28878 2.66158
2.35941 3.84324 2.68544
4.34613 0.739312 3.63277
1.32279 2.31667 2.95635
0.888125 3.83306 2.5465
1.61954 2.61028 2.97451
3.45103 0.540904 3.74934
-1.27982 0.74404 3.28877
3.51982 0.848871 3.70978
3.63534 0.649181 3.493
-0.744008 -0.139154 3.31553
-0.253688 2.54792 2.81862
0.686129 3.90474 2.52415
-0.391192 2.65051 2.64282
-0.557875 0.387036 3.32802
1.76155 1.2763 3.6105
-0.629127 3.80195 2.32828
-0.848123 2.63209 2.67268
-0.738568 -1.41526 3.18694
3.70246 0.513196 4.09727
0.789492 4.08141 2.54234
3.68764 0.84897 3.48112
2.66593 -0.610446 4.66747
0.217101 1.16748 3.6282
0.0421151 4.062 2.44651
0.0915765 2.65433 2.59061
-0.888676 -0.314263 3.95632
1.68503 1.33963 3.51907
1.38556 4.03182 2.43592
0.634997 1.63719 3.43142
0.922509 -0.948309 4.92296
-0.430706 2.84179 2.57304
0.334545 -0.802053 3.23698
-0.259308 3.99356 2.27381
2.47242 1.30219 3.46634
3.14257 -0.740352 4.18865
-1.34021 0.44369 3.19603
0.772251 2.71786 2.6379
1.15543 2.99616 2.67732
0.858715 4.23827 2.43032
-0.0108535 1.75797 3.21067
4.36187 -1.37387 4.6157
-1.01713 -1.37916 3.15845
4.22804 1.51 3.80277
-1.0887 1.22484 3.19572
-0.719054 4.09142 2.19034
2.90322 -1.03933 4.18531
2.06188 2.97579 2.82642
-0.388443 1.42114 3.33811
-0.975118 3.05507 2.4277
1.38402 -1.68502 4.6893
2.29154 1.6533 3.22747
2.27511 3.09407 2.76464
-1.13399 0.510974 3.08921
3.47483 1.49174 3.28645
0.839421 4.42878 2.41184
-0.650402 -0.619829 4.25298
-1.84966 1.55797 4.94554
-0.433811 3.73653 2.29222
2.19968 2.62829 2.86922
-1.13626 2.93679 2.54715
3.4765 -0.649424 4.6434
-0.633697 3.70952 2.21709
0.712707 -1.70492 3.35758
2.18168 1.37204 3.47944
-0.794991 3.76778 2.20269
3.47709 -1.0749 4.4306
0.525237 2.72001 2.61414
0.305553 0.0600999 3.38839
1.87721 1.36369 3.61401
1.11204 -0.947959 4.95123
-0.4183 3.90465 2.27096
-0.456312 2.68437 2.57939
0.021705 -0.690399 3.22073
-1.4248 3.13868 2.42946
3.09448 2.90493 2.83847
-0.313324 3.97624 2.26294
0.0314677 1.69156 3.27058
-1.1239 3.27988 2.46231
2.06453 2.89804 2.837
-1.11768 -1.21993 4.22988
0.653289 4.21948 2.4028
-0.651929 1.67906 3.25424
1.96519 3.13246 2.77599
-1.1115 1.15732 2.9519
-0.21304 4.12721 2.25229
0.8185 1.81412 3.3053
-0.858944 2.91894 2.45933
-0.70634 1.20198 3.24376
1.21545 1.7742 3.46755
2.54683 5.06161 2.47345
3.76315 0.192917 3.91618
-0.16814 1.87541 3.09999
-0.880766 3.06219 2.436
2.02363 4.10335 2.55618
3.13614 0.381037 3.85668
1.70234 4.38989 2.41973
2.73414 1.79448 3.18278
3.65245 -0.0854942 4.23922
0.0781087 3.18329 2.47811
3.85288 0.052844 4.09241
1.64081 1.88339 3.26117
3.84878 2.65078 3.09083
-1.01295 3.21842 2.49626
1.8964 3.46525 2.70712
3.39698 -0.363937 4.43108
-0.738929 2.16014 2.93374
-1.19797 0.21001 3.50228
0.109508 2.11611 3.09704
4.28316 -0.0515519 3.83089
3.51542 -0.139148 4.28347
0.0399172 3.29747 2.51654
-1.13071 3.8546 2.23358
0.96496 2.21029 2.9885
3.91384 0.214755 3.82731
0.275273 3.42836 2.51338
3.04279 -0.456331 4.26086
0.503982 3.55856 2.56953
-0.498949 2.20211 2.90288
0.293069 2.76445 2.57512
0.538837 0.273478 3.51854
-0.884349 1.70056 3.29126
-0.721595 3.84235 2.21723
3.76846 -0.517961 4.09516
0.329868 -0.214696 4.6914
-0.22828 2.75926 2.60133
2.38952 -1.92825 3.82023
0.214151 1.68015 3.62372
-0.833398 3.82043 2.13197
0.851112 1.68693 3.41116
-0.206049 2.90287 2.56687
-0.805747 -0.640713 4.10965
1.08325 4.15151 2.38557
-1.14014 -1.63053 3.13448
3.89671 -0.62617 4.21482
0.668513 4.26899 2.38126
1.3878 1.73984 3.33031
-1.5268 1.65465 2.92505
-0.121603 3.03248 2.53843
4.23542 1.50479 3.60154
2.84659 4.79627 2.71777
1.4258 3.04792 2.75682
-0.266985 1.40434 3.32468
3.5416 -0.918726 4.66577
1.27268 3.24522 2.68339
1.77295 -1.24864 4.37352
-1.25482 0.926188 3.07686
2.91749 1.70238 3.22611
3.98731 -0.92516 4.36451
0.220907 -1.15519 4.88955
1.16746 1.86542 3.3333
4.16945 -0.95115 4.26156
1.05328 3.15631 2.64858
-0.605164 3.25928 2.44881
1.97555 0.722779 4.032
3.35086 1.84084 3.2278
1.91625 4.61668 2.46122
0.278387 0.786885 4.1491
0.259434 3.15796 2.47215
0.79049 1.92162 3.06328
4.48905 0.0513342 3.85069
0.566594 2.014 2.93259
-0.883014 0.281672 3.88181
2.16914 3.48771 2.74928
1.39849 4.72301 2.42964
3.76268 0.220502 3.80542
3.45726 2.00732 3.08689
2.15642 5.05191 2.59766
0.0386035 2.15877 2.92186
1.6289 3.53825 2.63198
-0.234914 0.181127 4.32763
1.55047 3.55719 2.69594
4.10184 -0.732255 3.90976
-0.257621 -0.0127598 4.29839
0.97397 2.27921 2.871
0.88167 3.59778 2.56013
-0.880661 4.09631 2.17078
-0.719855 2.2654 2.76957
0.51837 0.146655 4.43167
-0.425624 4.25668 2.28569
0.110337 3.62689 2.4769
0.687021 0.51619 4.20109
1.59539 4.52493 2.41619
1.80263 0.697876 3.85806
1.92888 3.26037 2.7407
-0.731521 2.00896 3.07421
1.03444 2.04557 3.15319
-1.22772 -0.21018 4.15363
-0.0773082 3.31788 2.53127
1.88814 0.265769 4.23674
0.712796 1.94485 3.07181
-0.927866 4.03889 2.18616
0.631659 3.23381 2.561
2.7577 0.371345 4.07116
1.30683 2.14767 3.08023
3.0048 -0.0924366 3.91011
4.15227 -0.456878 4.05475
-0.42484 3.44044 2.48511
1.67083 2.05588 3.14941
2.61412 0.0966057 3.97722
-1.26749 4.12712 2.15746
0.655487 3.3737 2.55112
1.10802 -1.56204 4.49768
2.09301 -0.205104 4.33418
1.50467 2.26627 3.04129
0.576661 3.44759 2.48887
-0.0396459 -1.28371 4.07659
0.0257739 2.26567 2.94534
-0.0653572 3.50589 2.42726
-0.96036 3.12679 2.05949
2.22224 3.75935 2.69092
0.357579 1.03605 4.1651
1.93127 2.27773 3.00605
-0.802369 3.7087 2.43597
0.432258 1.07834 3.89146
4.01346 2.53541 3.25473
2.49781 4.38552 2.63678
1.50571 3.81696 2.57111
0.0818939 2.37097 2.76172
-1.09759 0.744537 3.25241
3.82185 0.840228 3.51
0.838441 3.95408 2.57003
2.08611 2.5892 2.91863
-0.767338 0.898906 3.29701
0.28744 1.23781 3.86742
1.60227 4.00121 2.57266
0.22028 2.49229 2.70162
-0.9906 -0.239201 3.25907
1.57687 2.7471 2.83829
0.967448 0.79946 4.04406
-0.56262 -0.971166 3.2332
3.43512 1.05218 3.43177
-0.443423 3.7929 2.28993
0.0312385 -0.151828 3.28365
1.06179 2.65349 2.78989
4.33366 0.948392 3.59182
2.53051 4.20347 2.6596
-0.879848 3.36132 2.46076
3.07632 1.92221 3.18337
-1.62162 -1.19739 4.22466
2.68126 0.599272 3.66788
1.57668 4.72767 2.43351
0.586456 3.32659 2.57936
2.34197 1.9855 3.2834
-0.136277 4.36831 2.19912
-0.672523 3.37937 2.4203
1.54719 0.645528 4.1926
0.781436 2.11339 2.96692
1.58178 2.25518 3.03943
1.05064 3.55175 2.60229
0.114436 0.370047 4.23356
0.544618 -2.0794 4.42371
1.5138 2.19707 3.07571
-0.861206 0.433317 3.90192
0.735441 3.5731 2.54329
4.12089 0.0897874 3.76126
1.81074 0.12003 4.3232
1.11009 0.872251 3.93734
1.95459 3.72298 2.654
3.84806 -1.55661 4.06401
1.53986 2.40132 2.99585
2.39569 0.239723 4.16688
0.7559 3.68392 2.49961
-0.556814 2.3779 2.83303
3.03902 -0.679567 3.86539
0.835489 2.49963 2.79968
3.85913 2.76332 2.9504
1.68881 -1.29417 4.4376
1.71452 1.04703 3.60971
-0.639858 3.67885 2.36188
-0.0952003 2.44702 2.73886
-0.929211 0.271227 3.22454
1.96913 -1.03802 4.43791
3.39838 0.70961 3.59399
0.787215 3.96526 2.58119
2.03186 2.68946 2.93045
-0.599676 0.47828 3.32808
3.31602 1.04743 3.61746
1.42721 3.92131 2.51906
0.0109769 0.969773 3.66657
0.416038 2.45663 2.6248
0.302105 1.26866 3.81886
1.04981 4.03932 2.52968
4.81 1.21352 3.86526
1.83509 2.73295 2.85799
0.748514 4.13317 2.53731
0.283097 0.282825 3.52691
2.30201 1.45851 3.51882
2.54907 4.08279 2.51833
1.11963 2.83645 2.72125
0.785745 1.15897 3.63894
-0.641281 1.51451 3.20303
-0.658183 3.90556 2.19725
-0.859095 2.78493 2.58138
-1.32186 0.653989 3.23863
2.17812 2.39891 2.93148
4.46819 0.914778 3.50296
0.0713715 1.24491 3.81275
-0.836097 3.65194 2.39622
-1.07785 2.34696 2.68231
3.20017 -1.23076 4.02039
0.703002 2.3367 2.79395
0.536619 3.79274 2.51226
3.69824 0.565174 3.60882
-0.864298 0.537405 3.21084
-0.99488 3.7224 2.31138
0.0120178 2.47696 2.67802
-0.400125 1.24636 3.60895
1.81635 1.2536 3.60503
0.28634 3.92126 2.4675
-0.19081 2.57105 2.58117
-0.27622 0.902362 3.55086
1.40637 3.97924 2.50571
3.31914 0.942937 3.59865
-0.554615 -0.618547 3.26261
1.50585 2.64927 2.9315
1.77443 4.00135 2.49088
0.890505 2.74746 2.68422
3.99038 1.09243 3.36986
0.254473 -0.362121 3.28333
0.66504 1.49761 3.57097
0.127625 -0.704469 3.23973
-0.410743 2.69857 2.60366
0.103442 4.04055 2.38356
0.166978 -2.39824 3.22871
1.89328 2.9676 2.81558
0.458738 1.687 3.35569
3.42276 -0.386398 4.33231
1.56959 4.06905 2.4012
-0.286073 2.85867 2.61829
-1.05482 -1.94747 3.10916
1.35855 1.59251 3.51696
-0.809228 -0.0521876 4.12175
-0.269945 4.06109 2.27779
4.69966 1.44103 3.39077
1.83273 -0.566282 4.73412
1.70108 4.17885 2.37196
-0.832787 2.93162 2.4816
2.09594 -0.421164 4.50887
0.724034 1.72632 3.29669
1.9832 -0.78913 4.97869
2.42448 1.67822 3.28429
0.423943 -1.37302 4.64556
-0.78672 3.02396 2.41854
-1.64852 3.03178 2.49872
2.14444 1.63709 3.33238
-0.55262 -0.577702 4.24187
-0.788003 3.07736 2.53286
-1.01204 0.297185 3.07689
0.39591 -1.14422 4.79838
-0.203857 1.95656 2.97181
1.14576 4.45861 2.39838
0.191328 3.21006 2.51999
2.37043 -0.907417 4.61372
1.55883 1.87653 3.25023
3.97517 -0.626735 4.12203
0.392718 3.12558 2.518
-0.0735309 3.79065 2.41596
-0.14747 2.5908 2.70611
3.41376 2.30878 3.14953
4.16833 0.870195 3.61455
-0.822285 -0.910058 3.99847
3.72677 0.756561 3.59453
-0.894504 -0.7268 3.22889
1.96167 2.54036 2.97799
3.107 -0.908704 4.41145
1.1554 3.91577 2.51223
3.9242 -1.38511 4.37746
3.38059 2.65785 2.92378
-0.526217 -0.199711 3.23935
-0.645098 1.47191 3.31752
1.4559 4.01288 2.53552
3.42784 2.54219 2.91118
-1.32765 4.02053 2.30445
-0.766582 3.77485 2.21643
-0.466831 1.41762 3.50368
0.43953 -0.582966 3.27932
-0.388706 3.997 2.33481
2.52148 2.75038 2.84859
1.08575 1.47449 3.45637
0.842042 4.2197 2.47506
-0.32233 1.73688 3.30091
0.314031 -2.39704 3.22936
-0.0359018 2.82155 2.51163
-0.599856 4.13243 2.31033
3.42229 1.23952 3.3814
-0.378905 -1.54234 3.15191
-0.461785 2.80491 2.55513
-0.0364217 4.14256 2.28199
1.63203 1.68266 3.30417
-0.16789 2.93865 2.46426
-0.796102 1.24385 3.287
3.59268 1.50173 3.51379
2.85191 4.72668 2.71076
-0.828616 0.281069 4.15001
0.810733 2.94905 2.62806
4.20613 1.46574 3.41317
-0.788067 3.09647 2.41946
-0.865124 -0.318322 3.34727
1.26883 -0.00197178 4.56947
3.22201 1.66366 3.22829
1.12481 4.53389 2.40092
0.73398 3.11565 2.59979
2.34115 0.0223223 4.12917
3.25214 1.60922 3.34985
1.94615 4.4272 2.44832
2.01278 -0.429421 4.57676
3.49571 -0.792019 4.1975
-1.25007 -0.283811 4.11158
1.2338 3.34811 2.71277
-0.598281 2.02342 3.02864
0.398433 2.05929 2.97931
2.15112 4.17503 2.56557
-0.439183 3.32858 2.46445
-0.274332 -0.8558 4.99935
1.34646 2.00799 3.16459
0.421439 -0.674714 4.7872
-0.743825 3.28517 2.4646
4.21751 -0.385024 3.93614
-0.498585 -1.53673 3.15096
0.96196 2.98201 2.66516
0.810045 1.69905 3.28531
3.61775 -0.190493 3.88849
1.33493 4.14952 2.39969
4.08546 1.33335 3.49804
-0.55252 1.09021 3.40712
0.934195 4.23892 2.38314
3.81925 -0.069587 4.00897
0.28023 2.84201 2.55517
-0.648111 3.08129 2.47488
-0.717219 1.4841 3.2132
-0.222417 4.52902 2.19145
2.93125 1.58417 3.23758
1.69092 3.20891 2.85096
3.97195 1.8894 3.29625
2.70386 -0.292573 4.3019
1.87802 1.69567 3.36101
1.38941 4.53964 2.41418
0.661424 1.89925 3.13926
-0.397812 -0.628777 4.57342
2.13714 3.3446 2.82729
1.99018 4.24258 2.46422
-0.535532 -0.385799 4.68657
3.69036 -0.847089 4.23572
3.31959 1.78512 3.10729
2.88038 -0.998979 5.09979
-0.951507 3.32133 2.48619
0.468294 1.9917 3.13058
3.55788 -0.787133 4.39101
2.26363 3.32949 2.75903
4.03671 -0.804258 4.07795
1.3015 3.51217 2.65137
1.62823 2.12192 3.11864
0.722398 4.72451 2.38081
1.85009 2.1089 3.25628
-1.02324 4.3586 2.15714
1.71194 3.49916 2.73596
1.75951 0.795665 3.85835
4.01878 0.271072 3.73898
0.364447 2.30447 2.9411
-0.044762 3.44592 2.45664
0.415652 4.40736 2.35245
0.272406 2.23537 2.96901
-0.807142 3.52352 2.41661
-1.26077 0.421049 3.83797
-0.378675 4.33206 2.27182
1.75847 3.73213 2.65286
2.40666 2.26898 3.05077
3.49299 0.446489 3.92389
-0.634014 0.903012 3.63934
-0.49446 2.4111 2.66864
0.435189 3.71988 2.50392
-1.1003 3.63372 2.40327
0.214556 0.251436 4.38448
-0.671243 3.66876 2.35717
4.03764 0.12901 3.96014
-0.136931 0.873787 3.85665
-1.11956 2.04806 2.6711
-0.0436105 2.38704 2.78974
1.77485 -1.59227 4.66164
1.71554 0.391239 4.31625
2.19992 1.78679 3.44009
-0.350338 1.43897 3.33976
-0.570156 3.14848 2.54279
1.22221 1.80244 3.41356
0.892901 4.64954 2.37528
0.908364 3.05893 2.65908
-0.878823 -0.208694 3.33527
3.44022 -0.0539105 4.19847
0.568513 3.26108 2.58347
1.50891 4.35909 2.40703
3.50143 1.7977 3.34322
3.61199 0.0405374 3.78192
2.80262 1.73322 3.27132
4.26979 -0.595775 4.14116
3.01001 3.48368 3.01952
-1.02946 3.41636 2.51097
1.63425 4.6323 2.42999
3.43355 -0.393152 3.97964
1.11167 -0.0463317 4.51885
-0.693188 2.13467 2.93857
2.17395 3.40456 2.7603
1.00039 2.05357 3.18572
4.06525 -0.255898 4.00628
2.43414 -0.617122 4.38154
0.966971 3.44102 2.58874
1.19271 -0.372361 4.66435
3.92763 1.94044 3.11271
4.1007 0.40914 3.7629
-0.296236 2.25131 2.81681
-0.588075 3.53788 2.50158
3.90166 0.0247927 3.84957
-1.02271 3.57137 2.45108
-0.0840628 2.23812 2.92828
0.398664 4.6632 2.35638
-0.520962 3.60143 2.43054
-0.783315 2.38456 2.72085
2.59251 5.23331 2.68954
3.73921 0.576824 3.73949
-1.36726 2.3783 2.84855
0.584136 2.27639 2.83876
0.184027 3.67171 2.45859
-0.124064 2.51869 2.73159
4.49609 0.541853 3.51664
2.57239 0.90195 3.56238
-0.129557 0.759066 3.92869
-0.00047983 3.69508 2.41599
3.46722 2.30921 3.14734
1.31968 2.43385 2.88166
1.82017 3.89749 2.59718
2.6127 0.800713 3.58098
-0.714549 -0.427302 3.26077
-0.383641 3.79792 2.34951
1.64957 0.460745 4.08158
1.78806 2.59134 2.90978
-0.264641 0.618877 4.14987
3.52462 0.933112 3.67654
1.30882 2.22564 3.10381
-1.05333 4.19909 2.20545
-0.84216 3.42081 2.39136
-0.371932 2.1345 2.8542
3.93114 -0.277644 3.91859
2.08778 3.52263 2.71804
0.33938 4.61496 2.33961
0.814519 2.28653 2.87902
1.99488 3.68095 2.70287
-0.140854 4.18729 2.16472
-0.622388 2.2694 2.78396
1.32018 3.70971 2.61259
2.72129 0.561834 4.08294
1.68752 2.42328 2.91397
-1.41258 2.73944 2.72742
1.81995 3.78419 2.62679
4.41016 0.699697 3.73689
0.571699 0.860302 4.15296
0.919987 2.31731 2.81133
-1.0303 4.31921 2.17855
0.996183 0.881403 3.96012
1.84874 3.87281 2.63594
3.2418 0.893787 3.77172
2.18401 2.48516 2.9435
1.25103 0.419499 4.19743
0.130647 3.80682 2.43294
4.1357 0.231987 3.98208
-0.938322 0.57112 3.24053
3.03012 0.996975 3.46125
0.312095 4.12814 2.47919
2.42952 2.62658 2.89847
-0.410702 0.88548 3.4826
0.605314 4.02053 2.49966
2.01057 1.18169 3.72166
-0.681655 -0.740132 3.2423
-0.64933 2.63768 2.7183
2.37981 -0.758439 4.48183
0.328533 0.553367 3.6314
4.09674 -1.16048 4.44936
1.11651 2.76561 2.73635
0.554531 1.6144 3.59506
2.19376 4.22473 2.67534
2.82404 -0.976437 4.82813
0.19795 1.54518 3.62486
0.367913 1.16409 3.69759
-0.512885 2.71577 2.6271
0.989325 4.18555 2.52001
-0.716166 -2.24369 3.13916
-0.547258 2.89355 2.54635
3.79282 1.2943 3.38594
-0.411507 4.01074 2.28965
-0.826643 2.66682 2.44693
-0.962536 -1.31885 4.42154
-0.328707 -2.11827 3.10887
2.70299 1.30055 3.33886
-0.163698 4.00281 2.25434
3.68338 1.51008 3.56488
0.324921 2.90499 2.55119
-0.318529 4.04976 2.21627
-0.908917 0.33699 3.19677
-1.17578 0.0462107 3.83854
2.62404 1.47634 3.31418
-0.444157 3.03893 2.62539
-0.584818 4.05054 2.20416
4.90899 0.00192615 4.55624
-0.44538 1.05438 3.42067
2.66687 4.71726 2.71017
-0.0948897 1.85018 3.11762
-0.594026 3.09157 2.49867
3.82494 -0.424351 4.08409
0.211381 -0.0481847 4.32509
-0.192263 1.82563 3.18864
0.755351 4.55272 2.41525
-0.429751 1.23694 3.29954
1.85255 3.12999 2.79378
-1.01438 0.694448 3.26467
-0.474944 3.15932 2.43225
2.11667 1.92595 3.32531
0.658998 -0.726135 4.9756
2.79355 2.10428 3.08657
0.452357 3.06179 2.47626
0.118824 1.92608 3.1034
3.22634 -1.02149 4.20957
0.951145 -0.448172 4.94623
0.0508324 3.30161 2.47724
1.27358 2.04123 3.10926
-1.52544 -0.162239 4.08863
0.172738 3.27202 2.52377
3.25626 -1.63224 4.29848
0.446914 -0.783656 4.64511
1.87161 1.9864 3.24361
-0.565831 2.1255 2.8446
-0.693466 3.33598 2.39992
2.84136 3.25348 2.87224
2.89146 2.10933 3.04985
-0.193369 3.36932 2.39408
-0.0431058 0.742416 3.95157
3.8767 -0.287511 3.89033
-0.788177 2.19504 2.81388
0.345273 3.49986 2.48072
3.9008 0.197625 3.74939
1.67955 3.74082 2.6682
0.86024 2.34375 2.85296
-1.19352 0.324739 3.8947
-1.46747 4.01478 2.29015
2.26575 0.835535 3.87935
3.28198 -0.298637 4.07348
-0.63242 2.38001 2.84524
1.10472 3.7195 2.54957
2.80314 0.565337 3.96764
1.56437 2.49643 2.908
-1.34267 -0.10904 3.25562
2.48851 0.931404 3.63943
2.90254 3.84454 2.67337
-0.570089 1.1037 3.50301
0.432984 2.43671 2.78145
-1.15539 0.253087 3.94247
-0.576786 3.67422 2.31607
-0.494784 0.92709 3.77135
-1.8042 3.13168 4.81892
2.14553 4.83156 2.5416
1.37532 3.41296 2.65547
4.13235 0.117013 3.81776
0.831782 2.01096 3.08682
2.05101 3.46594 2.80191
-0.999772 0.582788 3.65984
2.60374 2.07606 3.08635
-1.01668 4.22896 2.20372
-0.242634 0.712579 3.98057
1.41938 3.56367 2.64325
2.26832 2.07842 3.16672
-1.4102 0.45563 3.32439
-0.243899 3.29544 2.4003
0.154866 2.26854 2.78776
-1.51192 2.01955 3.10971
2.03651 3.6543 2.69088
-0.155009 0.282007 4.25785
-0.503154 4.35647 2.25867
-0.57368 3.62131 2.44445
0.699931 2.21781 2.88911
-0.514648 0.403324 4.2445
-1.30341 3.10071 2.52542
1.08538 0.121891 4.43235
0.151074 3.66746 2.45521
2.20813 2.32129 2.98909
3.35609 0.57792 3.64245
3.13908 0.0946446 3.75068
2.54611 -1.08363 4.29938
-0.993956 3.67403 2.35107
1.45434 1.15558 3.76458
1.2217 2.56572 2.93379
3.73666 -0.873805 4.00673
-1.06857 2.20688 2.55916
2.50035 0.870146 3.7146
1.52974 3.85725 2.55542
1.00492 2.44752 2.86874
-0.884876 0.925058 3.2234
0.86593 1.40007 3.66803
-0.511263 3.76475 2.33439
1.39124 2.61796 2.80053
-0.935381 0.0323258 3.27044
1.07493 1.28032 3.67726
1.6706 3.95648 2.51111
3.62138 -1.4323 4.25789
-0.158444 0.860071 3.58492
0.178939 2.47496 2.62573
0.370333 0.933032 3.70477
2.44751 2.76375 2.8639
1.91862 1.33994 3.47485
1.37956 4.00771 2.48211
0.183945 0.766053 3.61701
0.705642 2.66409 2.68773
1.1337 4.08343 2.46592
3.82008 1.01827 3.51876
-1.34477 0.682691 3.26153
0.4341 2.85759 2.60103
2.04167 1.5212 3.4637
0.00833257 3.98106 2.29984
1.23568 2.82188 2.72193
-0.456904 -1.33641 3.17072
1.02151 1.55251 3.39827
0.41766 4.16048 2.3753
-1.4321 0.650953 3.33097
-0.952437 3.43778 2.41808
0.393047 2.23336 2.99644
1.47653 3.70302 2.69815
-0.74135 4.18397 2.10399
0.667753 2.26565 2.84405
2.43149 2.18021 3.07674
-0.0145608 3.57365 2.44388
-1.1484 3.80277 2.33033
1.68682 3.77382 2.62045
1.87242 0.926704 3.66523
3.37653 0.479806 4.01714
1.76664 2.41755 2.9428
-0.269866 -1.41557 3.86212
-0.906964 0.796434 3.74347
-0.404254 3.68566 2.39433
-0.833821 0.716477 3.84346
-0.458308 2.40514 2.78387
-1.08403 2.25306 2.54572
2.31531 2.51939 2.90046
3.41684 0.327939 3.94282
-1.06227 2.71255 2.67772
3.98844 0.778459 3.26722
1.63157 3.88197 2.58647
1.14484 2.5297 2.90664
3.50213 3.30635 2.7913
-0.692139 1.00822 3.65589
1.52806 3.90451 2.52718
-0.780092 2.68064 2.57155
-0.725058 -0.872159 3.22721
-0.701154 1.43003 3.32178
1.88543 -0.823755 4.88732
1.8434 3.98023 2.53685
1.81581 2.67161 2.91147
1.52224 -0.566451 4.42068
0.245094 0.267726 3.45772
3.77889 0.944256 3.56281
1.72146 3.99094 2.49697
4.41292 1.14471 3.66277
-0.984381 -0.992697 4.18879
0.249077 2.66468 2.57982
-0.930633 3.77232 2.18598
-1.31083 3.92702 2.31185
-1.14492 -0.892706 4.27282
-0.702601 1.68905 3.19439
1.37169 4.09784 2.43041
1.63997 2.97005 2.82212
-0.7134 -1.8573 3.14239
-0.0502307 1.71099 3.47284
-0.657982 3.56565 1.87756
4.13689 -1.4834 4.54219
0.832643 2.77696 2.66038
-1.0074 -1.84573 3.11622
1.23959 3.06051 2.69687
-0.225899 1.04395 3.53183
1.09103 4.20386 2.37248
2.06717 1.64335 3.34162
2.2437 2.97872 2.78967
-0.778651 1.2641 3.23757
2.18898 -1.28267 4.48059
3.11495 1.37976 3.29122
0.981001 -0.980467 4.77202
-0.773827 2.6751 2.75412
3.82027 -0.839149 4.22432
1.24751 3.90698 2.51209
1.42603 1.22716 3.68123
-0.994934 -0.0888202 3.25433
1.35226 1.36473 3.54405
-0.701549 3.79519 2.28186
-0.645975 -1.38417 4.33367
0.443695 2.58509 2.59115
-0.256603 0.643989 3.47151
0.49178 4.04091 2.46658
-0.839824 1.3956 3.44099
3.12757 -1.07475 4.028
0.832373 2.60552 2.73556
-1.26082 4.08731 2.27552
-0.540872 2.78446 2.53705
-0.867135 3.86668 2.23735
2.83718 1.33347 3.45109
-0.79847 1.51481 3.28184
-0.594595 -0.0176774 3.30618
-1.16731 -1.67561 3.16053
0.335947 2.66457 2.57574
1.89261 4.15187 2.48734
-1.02769 -1.51943 3.14663
1.97562 2.99024 2.77416
1.85355 1.57177 3.33936
-0.765583 3.9213 2.16118
1.45128 2.94264 2.77292
2.56984 -1.28834 3.81657
0.542659 1.62818 3.32304
-0.780653 4.001 2.16119
3.25563 0.109682 3.91719
-0.582941 1.52172 3.25159
0.191186 -1.25037 4.58012
3.21247 0.256676 4.02416
-0.691134 3.046 2.53829
2.29094 1.60673 3.31535
3.1533 1.64594 3.20799
1.13374 4.37196 2.39246
-0.492549 3.16442 2.4994
3.87711 -0.279654 4.18187
-1.21594 0.934597 3.06946
-0.836929 1.96365 3.18975
1.99352 4.17711 2.47227
1.62308 3.21566 2.78173
0.625966 0.0942493 4.55056
1.4016 1.97925 3.15761
1.44034 4.43067 2.41405
-1.17038 -0.378236 4.43223
-0.498767 3.21677 2.42679
3.43034 1.77654 3.31551
4.79218 0.302222 3.935
2.26315 -0.259667 4.29989
2.10709 3.37682 2.79597
0.145132 -0.767028 5.21452
0.445108 3.39696 2.52897
2.55854 2.02242 3.14411
1.39928 4.67086 2.42461
4.03187 0.062166 3.74885
-0.513849 3.29054 2.43836
3.79441 1.90341 3.29264
-0.418234 2.73753 2.59661
3.79589 -1.79636 3.83813
-0.621649 -0.669278 4.5519
2.04786 1.28634 3.43498
-0.760558 3.82062 2.2486
-0.5557 2.67157 2.60138
0.614601 0.824536 3.69338
0.261436 1.54829 3.68389
-0.37195 -0.417868 4.42144
0.189553 4.0251 2.40469
-0.949409 -2.03942 3.136
0.826232 -1.03756 4.93135
-0.040098 2.68583 2.50109
0.253911 4.1247 2.41339
3.47756 1.19629 3.33842
4.44439 -0.862917 4.50883
-0.944484 -1.01536 4.10844
0.553084 4.20053 2.40913
0.0699262 1.74207 3.28129
-0.907047 -1.96861 3.10591
0.420951 2.94362 2.6124
0.381014 4.20384 2.35286
2.57302 1.43727 3.42979
1.38615 2.95303 2.79769
4.1724 1.78015 3.38048
0.129102 -1.22974 4.55979
2.98498 1.51437 3.17312
-0.185672 3.06988 2.51649
-1.30611 -1.38844 4.23023
-0.884523 1.50378 3.17048
0.459311 1.75799 3.21065
1.81264 4.53721 2.44091
-1.01537 0.0382922 3.0531
-0.0552977 2.98569 2.53405
-0.0758437 3.19552 2.50652
0.930601 4.40427 2.39644
1.37656 1.95382 3.25584
-1.1868 0.39621 3.86214
-0.649332 3.13168 2.4709
3.06606 1.66216 3.25424
1.00272 0.641584 4.14153
1.28599 4.49055 2.40335
2.76457 0.114954 3.80013
3.45759 3.22724 2.85585
1.65628 3.38236 2.71885
0.540364 0.351472 4.35451
2.22753 1.91881 3.20948
-0.422951 2.13423 2.8801
3.26078 -1.64541 4.34986
0.152267 0.0653562 4.3374
0.922558 3.49679 2.63602
1.10259 2.10416 3.16735
-0.0187943 3.30425 2.48409
2.17959 5.07631 2.40738
1.37215 -0.249667 4.49763
2.11054 3.61406 2.73546
-0.423896 2.16457 2.70949
-1.33837 0.139386 3.31024
4.67108 -0.263031 4.37463
0.634616 3.55241 2.54525
-0.953316 2.30913 2.92636
0.836872 -1.31294 4.31238
0.0324616 3.12955 2.50469
-1.08524 1.24373 3.19557
2.57502 0.297515 3.9265
2.20665 1.74873 3.21125
2.09666 4.09182 2.60768
2.85086 0.395016 3.91869
1.10995 3.12992 2.65992
0.721558 1.83993 3.24322
1.95445 4.3524 2.46678
3.63806 1.68274 3.18942
-0.715148 0.100243 4.2985
-0.160231 3.16601 2.46438
1.86292 4.37365 2.43071
0.908876 0.216505 4.51127
-1.17918 2.17541 2.9967
1.76845 2.08513 3.24301
0.754348 3.39787 2.60758
2.86146 1.81186 3.14304
0.684329 4.62324 2.37506
3.32636 -0.254722 4.27087
1.43483 3.37713 2.69166
1.05648 -0.413383 4.81192
0.707166 2.19035 2.99047
4.03079 0.185383 3.79118
-0.00639728 2.10093 2.8923
1.15045 -0.232308 4.6054
4.23746 -0.369411 3.82454
-0.00291404 3.38577 2.48781
0.93121 3.53708 2.59889
-0.735524 2.36132 2.81573
0.654349 -1.0927 4.30459
-0.864713 3.52323 2.4298
2.7966 -1.56247 4.276
0.622604 2.18548 2.84824
-0.977349 3.61963 2.42819
2.07789 2.34724 3.01575
0.590078 3.6872 2.49822
1.67071 0.876748 3.83126
-1.358 2.77069 2.66452
1.89963 1.02103 3.65064
1.5643 3.80145 2.58606
0.610274 2.41906 2.71897
-1.16123 -1.81091 3.40911
-0.191561 3.76194 2.40886
3.62314 0.615015 3.61149
-0.800568 1.22559 3.29953
1.4947 2.44814 2.94542
3.90147 0.307474 3.81803
0.213577 3.98815 2.52511
1.53995 2.66663 2.87642
-1.06394 0.449652 3.22127
0.781221 1.3533 3.58505
3.79359 0.768429 3.42161
1.70649 0.794127 4.11962
2.61922 2.5333 2.94633
0.0125937 0.85872 3.64519
-0.74684 3.77055 2.27229
2.45787 3.39591 2.78388
3.30212 2.10016 3.18327
1.39992 0.577434 4.04742
-0.736583 2.05909 2.96559
1.41549 1.89186 3.19072
3.99322 -0.42144 3.94408
1.77421 3.33526 2.75132
4.69052 0.464877 4.06472
2.72365 0.386826 3.87276
0.187454 3.42433 2.53765
4.29155 -0.633768 4.10969
0.633934 2.08644 2.95336
0.119263 3.29194 2.48815
3.98064 -0.0569232 3.87961
2.48993 1.98043 3.22075
-1.13646 0.234061 4.31727
0.82975 3.52907 2.59436
-0.745171 0.233532 4.09918
2.0981 2.07027 3.03585
4.85414 -1.05535 3.86659
-0.103176 3.44322 2.41204
2.61508 2.20474 3.0347
2.5067 -0.158408 4.40197
-0.324834 0.0758395 4.31437
0.085693 2.23264 2.86644
-0.648601 3.59854 2.43557
-0.0180244 4.55077 2.25847
1.87024 -1.63808 4.26647
0.0790036 3.6813 2.48171
1.43486 2.41802 2.91841
-1.35193 3.24734 2.38541
1.13863 1.04172 3.75349
4.59489 0.516327 3.52066
2.56341 2.28758 3.00848
1.2019 3.76656 2.55172
-1.12616 -1.36204 4.22576
1.72559 2.55611 2.90603
-0.863972 0.888381 3.24627
3.78979 0.784347 3.422
0.837938 3.88227 2.55156
-0.511502 0.469771 3.36969
1.75851 2.49156 2.95484
-0.689296 3.69514 2.27825
3.92892 0.717103 3.55377
-0.832198 -0.960147 3.24573
0.650613 4.00643 2.50917
1.28934 2.607 2.79197
3.95796 0.89877 3.51911
3.30931 1.13298 3.4571
1.1099 3.98955 2.46615
-0.0832536 -0.378932 3.24005
-0.701847 0.783536 3.76886
1.05196 2.73883 2.73335
1.71799 4.04736 2.49304
4.23886 1.00469 3.44625
0.317257 0.00838155 3.40117
-0.142215 2.62827 2.59844
3.68927 -1.51975 4.06707
0.514054 2.35325 2.82925
0.56787 3.62834 2.52766
-0.502367 2.35569 2.84093
-1.29005 2.33736 2.85704
1.22127 3.70111 2.55662
-0.297159 2.46678 2.69245
-1.18699 0.202086 3.27628
-0.30225 3.69099 2.40999
0.810207 1.12432 3.96069
1.04583 2.41408 2.85729
-0.897214 1.2777 3.29654
1.67809 1.0289 3.87483
0.742054 3.83803 2.51787
1.78469 1.12971 3.63965
0.565333 2.49649 2.6903
1.55522 3.88647 2.52346
-0.560311 0.185024 3.32366
3.0714 0.628961 3.99119
-0.553768 1.44983 3.3568
0.885502 4.08212 2.57113
2.13191 2.70205 2.88042
-0.136046 0.610801 3.45614
1.49257 0.913779 4.0833
0.353397 4.09458 2.49774
-0.00657151 1.38431 3.45768
-0.741903 2.59223 2.59332
0.372792 -0.00965768 3.43187
0.38266 0.189944 3.52461
-0.75208 2.84785 2.60256
4.69866 -0.511088 4.09004
1.13078 1.51505 3.40257
-0.301259 3.8547 2.26013
-0.290384 -2.3437 3.17097
2.29511 2.79016 2.89652
1.80764 4.08172 2.44707
1.77021 -0.302309 4.50502
-1.07242 1.45093 3.44258
-0.367447 -1.23549 3.1476
0.357254 2.91315 2.58968
-0.514886 1.7749 3.22238
1.80175 4.10771 2.40908
0.547401 2.8282 2.60016
2.21858 -2.44856 3.61552
0.689449 1.5985 3.29997
2.72111 -0.674156 4.46547
-0.336918 1.84162 3.20104
-1.14156 -0.760677 4.00704
1.6536 4.18562 2.3975
0.738965 3.03221 2.63516
3.9743 -0.890242 4.72013
0.628498 -0.820539 4.744
-0.877626 1.44105 3.17724
1.54599 4.58638 2.42202
0.330406 1.90538 3.1435
-1.6833 1.43674 2.88052
-1.10598 -1.43365 4.33299
-0.0553555 3.13868 2.51251
2.81552 1.60615 3.28199
3.38341 -1.12072 4.19458
1.18348 4.54433 2.40227
1.82238 3.1769 2.7606
-0.35186 1.21171 3.62588
0.931495 3.82167 2.57578
1.07636 2.47657 2.85306
-1.30818 0.874714 3.27542
2.19484 3.89839 2.63521
1.30641 1.06022 3.88614
-0.478929 -0.0331897 3.37243
-0.761718 -1.05798 4.31561
1.54518 2.44792 2.96906
-0.322546 2.60573 2.63683
-0.792747 0.756344 3.25187
2.66095 1.04729 3.51437
0.737661 3.9534 2.5403
3.95726 -1.53654 4.34665
