ply
format ascii 1.0
element vertex 1927
property float x
property float y
property float z
end_header
3.21445 -0.797857 3.98684
-0.113834 2.84784 2.57069
1.96732 0.519889 4.02613
0.0573376 4.01961 2.2647
3.59655 1.39619 3.48867
-0.777951 3.93064 2.15099
0.177876 2.22625 3.02712
1.97553 3.65848 2.58956
2.22896 2.95532 2.84022
-0.117238 2.09833 2.97082
1.91347 3.74485 2.59105
-0.901703 1.33638 3.33269
1.59252 4.18363 2.27588
-0.902155 -0.0826187 4.17757
1.94207 2.89689 2.77661
1.1748 3.56718 2.5108
-1.66346 1.70861 4.45343
-0.642299 3.90912 2.18964
-0.655875 2.04036 2.86917
2.35341 0.00595963 4.1963
1.5172 2.84712 2.80839
2.32549 3.63648 2.65109
2.38481 1.20267 3.52084
1.30326 2.06778 3.14288
-0.157703 2.15411 2.91943
1.60752 4.1227 2.30116
3.03644 1.36382 3.38122
3.26631 -0.422989 4.08881
2.14426 3.04987 2.82167
1.20732 4.20143 2.27923
1.80234 3.68482 2.54603
-0.217566 -0.243377 4.47031
1.51552 0.986279 3.84265
1.21592 3.88517 2.42328
1.00893 1.8667 3.27187
4.59922 0.129231 4.07059
-0.195506 2.48959 2.70071
1.76325 3.39896 2.66491
3.475 0.804039 3.73932
1.22761 3.92334 2.38798
-0.67368 1.7768 3.21511
4.26704 2.00767 3.43727
-0.404273 2.41849 2.74041
0.416585 0.44359 4.1728
1.33727 3.24486 2.5958
3.72433 -1.02584 4.29636
-0.501816 3.33973 2.44944
1.23053 2.711 2.76868
1.47266 0.176873 4.24627
1.43258 1.98762 3.1602
0.812677 -1.8015 4.72176
-1.22871 1.21296 3.57758
2.89943 -1.30798 4.45075
-0.407669 3.23534 2.4244
1.99393 0.269064 4.02094
1.01408 2.60389 2.74516
1.13766 1.94142 3.23484
1.08014 3.98606 2.36567
0.302699 1.12101 3.75244
1.18084 4.0185 2.33514
-0.214016 2.58691 2.70419
0.556285 3.23663 2.45071
2.99594 -0.621419 4.55913
4.25851 1.04485 3.84359
0.46228 3.94416 2.3863
0.659774 1.90331 3.14869
-0.649913 2.60591 2.81604
2.57356 -0.436684 4.59431
1.73291 4.56783 2.26314
1.60413 3.38326 2.64901
-0.110394 1.03259 3.85313
0.951505 4.00149 2.37619
0.872055 1.80483 3.15171
-1.48841 -1.00694 4.19067
0.545786 1.93559 3.0432
2.54846 1.16391 3.72949
1.99096 3.56736 2.67376
2.84893 -0.837311 4.23794
0.385629 0.597186 4.24992
0.7082 2.63949 2.68028
0.0565845 4.01313 2.31214
3.75381 -0.715652 4.04974
1.72539 0.63137 3.90559
-0.0129743 3.61421 2.39875
1.86857 4.19161 2.23709
-0.263982 1.61573 3.31696
2.40245 2.42558 3.08077
1.10081 3.04868 2.60893
1.66475 1.53391 3.50588
-0.314463 3.69463 2.3845
-0.579825 4.10391 2.09526
0.74145 0.0634718 4.43307
0.470999 2.20702 2.87573
1.27799 3.00589 2.6671
0.92247 3.17908 2.53344
-0.415262 -0.248709 4.43597
2.37529 2.49496 2.90536
2.83959 5.12464 2.53006
0.279051 1.74063 3.2038
-0.783295 3.81366 2.40183
2.73235 0.809695 3.68231
1.25842 3.16156 2.61711
1.68472 2.42726 2.94014
-0.98664 -0.077547 4.07014
0.266642 1.65094 3.20057
1.13971 4.49934 2.26058
3.3735 0.71609 3.90611
0.731323 3.87889 2.41364
0.935129 1.93892 3.202
2.30088 4.31749 2.50806
3.49561 -0.42444 4.07758
-1.04592 1.05268 3.38385
1.73535 3.45157 2.63188
0.792351 2.59442 2.72175
-0.276757 3.81933 2.28988
2.36341 1.8819 3.3353
3.47694 3.21847 2.85121
1.18406 1.01689 3.88099
0.576914 4.11727 2.4375
2.03109 3.43567 2.69332
0.766749 2.52178 2.75404
4.0058 1.26362 3.76384
-0.510357 0.695484 3.82764
2.02615 2.05274 3.13468
2.83846 -0.738727 4.52927
0.203907 2.65821 2.57475
1.584 4.04222 2.35122
1.4347 3.5394 2.55511
1.5697 4.12133 2.34979
4.33624 -0.651648 4.56828
1.23792 1.16906 3.57894
-1.91011 3.46029 5.44392
0.457228 2.59857 2.62392
0.631239 3.35069 2.47255
2.44798 2.42664 2.9407
0.200082 3.02225 2.46777
3.14115 0.710263 3.80033
-0.282304 -0.720376 4.45798
0.190256 0.0878975 4.40251
0.512241 1.69477 3.2642
0.442768 3.66397 2.37327
0.202946 2.94056 2.49184
0.384886 2.28665 2.83684
0.251198 3.7585 2.37445
2.76979 1.55326 3.30339
1.68707 0.174527 4.1637
0.961391 -1.51806 4.78893
0.527814 -0.227929 4.76123
0.594526 3.92475 2.4358
1.52825 4.56127 2.26122
2.94532 2.51451 2.9354
0.227639 3.09701 2.44319
1.32523 -0.0885819 4.36218
-0.216189 0.904064 3.69765
0.972735 1.8181 3.33871
3.5089 1.68712 3.39904
2.87869 -0.85849 4.43705
2.7208 0.690264 3.66518
3.54649 0.5012 4.13495
-0.147272 -1.23236 4.64971
-0.506355 3.05875 2.48514
2.37975 2.42598 2.93813
-0.830791 -0.59433 3.99975
1.38637 -1.46168 4.70636
2.92549 0.606761 3.85454
0.217742 3.74132 2.36358
0.71582 0.336022 4.22491
0.418144 1.01135 3.79636
-0.754196 -1.27467 4.48755
1.17905 1.8969 3.31693
0.706009 2.51946 2.75009
-0.0970159 3.31017 2.55453
0.0896867 3.82184 2.35987
1.64896 0.420706 4.1537
0.489835 3.87745 2.34343
-0.60566 -1.10536 5.02982
-0.994648 0.905248 3.64791
2.26831 1.75865 3.3039
2.90539 2.51451 2.93513
0.0994455 3.16892 2.50258
2.12143 4.40789 2.34875
1.43566 4.485 2.25281
0.502729 2.83824 2.57492
0.761342 2.17357 2.95754
2.95411 -0.428715 4.44044
1.15266 1.4802 3.53886
1.75548 4.16887 2.32361
1.0702 3.55021 2.49202
-0.635706 2.84563 2.6586
1.41127 2.16475 3.1064
0.547347 4.20559 2.26708
2.05056 -0.286897 4.80078
3.54255 1.27408 3.43162
-0.037218 2.27506 2.81175
0.822792 3.64029 2.49395
-0.0431957 3.01203 2.55124
-0.412213 3.67196 2.42452
0.505022 4.20599 2.21644
3.27281 1.60279 3.44863
-0.744175 2.2348 2.86788
0.117586 2.8939 2.53027
1.5794 1.53107 3.47707
0.141572 3.64071 2.35308
3.71402 -0.606278 4.25738
-0.829361 2.10238 2.8132
0.000707376 0.228228 4.30317
0.118421 1.46481 3.45155
0.431246 2.8221 2.55928
3.82622 -1.32897 4.56997
1.27156 4.20333 2.27696
0.583908 0.342142 4.26433
-0.261508 3.5736 2.4268
3.82006 -0.176161 3.90553
1.14846 4.23035 2.24144
2.39428 1.64466 3.49247
1.37438 3.74602 2.50946
-0.0671203 2.26668 2.80222
-0.387591 3.08529 2.61044
1.60659 3.79262 2.48566
-0.585073 0.0735376 4.22168
3.59868 1.54625 3.6265
1.66706 4.26214 2.20906
1.93955 3.06293 2.72832
1.70783 2.2894 3.02143
2.37295 3.55229 2.66356
0.187556 2.61299 2.63257
3.09665 0.506667 4.12978
2.13759 2.01874 3.22272
1.87889 -0.891951 4.83001
0.719749 1.20705 3.6768
0.206406 3.96756 2.33653
1.16071 3.43363 2.60897
-1.22392 1.34928 3.38129
0.132304 2.54872 2.65584
0.237794 1.93687 3.17537
-1.51926 -0.672635 4.63023
4.11897 0.975308 3.53412
0.412014 0.709172 4.04091
0.988979 2.8056 2.65938
0.158603 3.97142 2.28565
0.997051 3.5722 2.50954
2.5076 1.34148 3.54286
1.26865 4.13221 2.35078
1.12206 2.11613 3.03981
-0.0407263 2.68849 2.59811
1.35342 3.53449 2.55472
-0.0833794 0.471334 4.15801
2.28152 1.22057 3.54554
3.27252 -0.9749 4.06879
0.108661 2.05194 3.06261
0.859983 -0.244556 4.63473
2.99247 1.95396 3.16153
0.302951 1.23676 3.74856
1.32477 4.11508 2.28642
1.7663 3.50254 2.61639
-0.628991 2.61299 2.61733
2.64443 -0.142632 4.10745
0.0991898 4.01248 2.31042
1.59946 1.42064 3.6878
0.734468 4.13316 2.3437
-0.00665451 2.08849 2.95644
3.24282 -0.560023 3.97153
-0.206742 2.8465 2.67818
2.16133 3.69613 2.62049
-0.944764 -0.35079 4.43798
3.18959 2.07519 3.21778
1.44635 1.28569 3.65914
0.75229 4.1989 2.32386
0.0714028 3.47923 2.49481
1.27585 2.76454 2.71213
-0.332835 3.14755 2.47662
2.03525 3.91574 2.51317
1.49023 2.53967 2.93012
2.79449 4.98169 2.5275
-0.445507 0.207174 4.13529
1.93445 1.82055 3.40959
2.39003 0.823036 3.67196
2.32226 0.725826 3.79331
2.66617 1.6868 3.36535
0.983128 4.47411 2.28421
2.99262 -1.22354 4.13555
1.94658 2.46406 2.97221
4.12964 0.207599 3.9619
-0.837267 2.57847 2.66969
1.10146 3.09333 2.54856
0.962266 3.32845 2.52346
0.0539641 3.81915 2.35817
2.65444 1.0361 3.64702
0.404395 4.02414 2.43858
-0.383517 1.89018 3.07443
1.9043 4.44872 2.27495
0.164536 2.48223 2.69516
-1.8694 0.026027 5.43603
-0.977258 1.85686 3.1697
-0.621257 3.18634 2.44442
-0.426987 1.01424 3.72708
1.79849 4.00481 2.38748
2.9804 3.08843 2.77918
0.41209 -1.85113 4.6688
2.13722 2.2552 3.00588
-0.102439 4.04602 2.17729
-0.00384922 1.49216 3.33042
3.67306 0.0781015 3.86301
-0.123506 3.50936 2.39515
2.04466 2.99504 2.77321
-1.11768 -1.21993 4.22988
1.97346 2.18784 3.0463
3.7919 0.188283 3.89482
-0.702032 1.43111 3.34272
3.02589 3.88303 2.64188
-0.930322 2.38887 2.81717
0.830604 4.29917 2.28291
1.96018 3.22828 2.69294
1.11152 3.78827 2.48691
2.89445 0.694254 3.78973
-0.000523438 4.19318 2.15638
0.801706 1.70692 3.38106
1.53431 2.38025 3.01313
-0.765721 2.9654 2.50157
2.06206 0.000228615 4.10929
-0.836102 3.68211 2.31478
1.18786 1.65485 3.50819
2.54683 5.06161 2.47345
1.60933 1.98334 3.17133
-0.672568 -0.664793 4.25889
-1.84966 1.55797 4.94554
3.65674 0.604377 4.06916
0.356708 3.31299 2.45569
-0.239404 3.80954 2.23603
2.14626 2.72749 2.81926
-1.62985 -1.33819 4.16656
3.4765 -0.649424 4.6434
-0.43295 3.79496 2.17664
-0.765651 3.32281 2.49073
2.10116 1.34323 3.56349
3.77315 0.300581 3.8486
1.96596 2.13092 3.10891
3.47709 -1.0749 4.4306
0.576241 2.75626 2.60784
-0.592495 3.85721 2.16461
1.21797 3.53773 2.49887
3.70037 0.431599 3.78649
1.80828 1.26365 3.67467
1.11204 -0.947959 4.95123
-0.0592859 2.01488 3.02609
-0.211234 3.97964 2.1967
-0.39204 2.70003 2.62436
-0.842907 3.50493 2.4982
1.91192 3.56046 2.59377
-0.630262 3.89949 2.23651
0.980242 2.70508 2.66524
3.31221 -0.341537 4.4764
-0.744365 2.02714 3.01852
1.737 1.28425 3.72189
2.59147 1.11948 3.63719
0.114202 2.00961 3.15661
1.13813 2.69485 2.76284
3.34857 -0.172341 4.40165
0.163719 3.34954 2.48068
-0.291057 2.89394 2.63166
1.02644 4.18096 2.38831
3.77455 1.38579 3.48008
0.965994 2.19096 3.01866
-0.695517 3.90062 2.14522
2.27787 2.8631 2.75705
0.399994 3.48575 2.451
2.9551 -0.448511 4.30889
0.630378 3.61928 2.49224
3.50724 1.26418 3.46801
-0.491575 2.11203 2.99185
3.53336 0.214367 4.05786
-0.191042 1.72555 3.17732
-1.19844 -1.12226 4.02658
-1.18852 0.842664 3.64079
-0.766049 3.11384 2.45894
1.10166 4.17914 2.26928
0.0840515 2.4262 2.76709
2.64403 -0.909573 3.74654
2.95088 0.341805 3.98751
1.74218 3.90113 2.44598
2.06668 4.20703 2.41704
-0.479244 1.08653 3.62373
1.7901 4.48108 2.26694
2.62811 1.88419 3.21506
1.16904 3.91615 2.38608
1.07388 2.60573 2.76953
3.57273 -0.0407179 4.28479
0.189684 3.23364 2.44502
3.80322 0.0923357 4.1185
1.6103 1.86701 3.30818
3.63312 0.862077 3.63691
-0.895577 3.293 2.53422
-0.266458 3.81122 2.23635
3.8284 2.71123 3.0691
-0.881468 2.59319 2.80335
1.01519 3.89343 2.43043
2.30883 3.38225 2.67052
1.6268 2.66762 2.95496
4.04242 -1.17894 4.53147
3.26285 0.578318 3.88654
1.07961 1.875 3.30069
-1.2778 -0.644442 4.21262
3.34272 0.913351 3.80789
3.42554 0.762305 3.60943
-0.435679 1.72497 3.1713
2.90208 -0.588571 4.1394
-0.206961 2.51549 2.86949
0.57752 3.14158 2.51371
0.834283 3.97658 2.41828
-0.330404 2.66212 2.69388
2.06149 4.1538 2.4248
0.0871884 3.343 2.47561
1.69351 1.15964 3.69018
3.80501 -1.06597 4.33067
-0.429517 3.88751 2.2824
2.80044 1.96885 3.19435
0.828789 3.26952 2.48802
-0.797149 2.6184 2.7394
3.52644 0.501713 4.2159
0.97695 1.92789 3.23064
-1.16417 -0.923471 4.97042
3.48293 0.97455 3.59373
2.44494 -0.148302 4.19203
0.94532 4.15143 2.41895
-0.141034 1.55788 3.45476
2.08318 3.08256 2.76281
1.36274 2.2969 3.04218
1.2984 4.16129 2.21885
2.52888 -0.0231403 4.04047
1.75138 3.7484 2.529
0.503093 0.790551 3.93985
0.14667 4.20816 2.16645
3.45355 1.66016 3.42889
0.221742 3.68564 2.3987
1.30436 2.41131 2.91871
-0.307102 3.10657 2.54436
-0.686655 -0.458358 4.84411
2.38605 -0.315558 4.49379
0.214064 1.60879 3.37064
2.36006 3.96962 2.55931
1.32975 -1.37668 4.69404
1.50064 3.11939 2.68548
1.32409 2.34675 2.96866
1.19568 3.04669 2.61403
0.874362 3.6589 2.45462
0.738019 2.28686 2.88045
1.01758 4.31225 2.29882
-0.0439839 1.57391 3.27991
3.82304 0.267105 4.76114
4.36187 -1.37387 4.6157
4.08241 1.63512 3.87262
0.974648 0.406904 4.12742
0.316925 2.22827 2.91771
2.86644 -1.03054 4.19865
2.03782 3.07281 2.75104
1.22031 2.52898 2.92885
-0.706189 3.74815 2.43141
2.5767 0.1269 4.1493
-0.860136 3.1139 2.46376
0.995186 0.930435 4.03605
-0.536388 4.16312 2.13972
2.19959 1.69636 3.26518
2.13049 3.91488 2.52174
1.38402 -1.68502 4.6893
2.2416 3.20237 2.68052
0.19225 2.36935 2.83372
3.31191 1.6253 3.34802
-0.664701 3.75879 2.31904
-0.344424 0.829495 4.07277
1.01696 4.51362 2.27552
2.57958 -0.637981 4.71347
0.247104 4.13642 2.34893
0.147692 2.68233 2.61971
-0.908452 -0.349446 3.96026
0.794055 3.48404 2.52364
1.61572 1.23515 3.58376
2.22297 2.07534 3.20994
0.636895 2.12851 2.92051
1.47235 4.10565 2.29869
0.605798 1.47971 3.54304
0.921892 -0.953567 4.92293
-0.348924 2.85644 2.59404
2.04618 0.504295 3.97872
0.880729 3.64565 2.51818
3.71175 0.544053 3.79456
2.91763 2.16192 3.19571
2.35612 1.30112 3.5183
3.14257 -0.740352 4.18865
0.262893 3.46513 2.4349
-0.0486363 4.0618 2.18664
0.812324 2.75319 2.61679
0.795367 2.35314 2.82422
0.144772 3.12684 2.56552
3.35996 -1.0946 4.6594
3.01913 0.720482 3.86969
-0.678562 0.443019 3.93157
1.70559 1.71455 3.40399
-0.0840163 3.70271 2.39747
0.0996607 0.585301 4.10861
0.292973 2.96923 2.52425
2.37145 -0.923046 4.86089
-0.921322 2.25463 2.77639
-1.17464 1.6543 3.37446
2.22125 3.90177 2.50896
1.49787 4.28303 2.21999
1.85986 1.79502 3.38859
0.276978 -1.49778 4.63411
1.21107 0.892441 3.86694
1.30607 0.186265 4.3225
1.83297 3.32576 2.68193
2.21554 2.54024 2.95664
1.23715 4.55719 2.25076
-0.082901 3.82162 2.3583
2.7 -1.35011 4.60358
-0.0544046 0.349904 4.29619
0.408385 1.40323 3.58421
1.85678 4.06954 2.32716
-1.58459 2.94899 4.22882
1.91414 2.91016 2.7873
0.793916 3.54368 2.49551
0.276604 2.0341 3.05055
2.14601 1.23626 3.60482
0.0725539 4.08288 2.25249
0.58492 -0.496385 5.32682
2.25365 3.62928 2.64398
-0.187903 2.73205 2.65467
-0.386134 0.679272 3.90393
0.744255 2.93394 2.58895
3.84815 -0.744232 4.21817
-0.986347 2.26359 2.9059
1.40245 3.68891 2.5433
-0.140874 4.1936 2.25734
1.2052 1.55909 3.53504
1.88571 1.47102 3.58211
1.89494 -0.618979 4.88815
-0.997548 2.22988 3.00152
1.90673 2.96154 2.73158
1.82786 4.22827 2.25798
-0.21397 3.65192 2.42552
0.995199 2.85752 2.61513
1.56922 1.47461 3.57099
-0.537992 3.92415 2.15165
3.11768 -0.017012 4.41789
2.41217 2.20073 3.07516
0.870786 0.194741 4.24088
1.42391 2.91712 2.78774
0.124567 3.50929 2.45767
2.19776 2.09488 3.05192
0.47321 3.52655 2.41528
3.87231 1.29365 3.53098
1.55517 4.17703 2.27471
-0.616415 -0.239659 4.36538
-0.133161 3.57938 2.37715
-0.244836 4.25018 2.23993
1.9215 2.28583 3.03196
0.695062 2.90795 2.56558
1.0491 1.52041 3.43519
-1.02917 -0.0796649 3.7917
1.99973 -0.895098 4.73517
1.5716 1.07503 3.717
-0.476776 0.564654 3.92397
-0.460835 1.88755 3.07828
0.333941 3.98657 2.41402
0.664274 2.58013 2.72334
1.36159 4.70061 2.25292
0.326483 3.24952 2.45638
-0.622675 1.79914 3.08832
0.249625 3.97255 2.34312
-0.845477 0.965966 3.58457
0.315072 3.19575 2.4783
-1.36216 -0.881377 4.24732
1.4835 2.6265 2.89867
-0.670865 0.31462 4.08652
1.97387 3.58153 2.60607
1.95338 -1.1532 3.9382
1.45651 2.8161 2.784
0.0308751 3.97827 2.29055
-0.937126 2.03226 3.02162
1.58057 1.27943 3.68491
1.25141 -1.082 4.84066
-0.0192452 1.97852 3.0867
4.1784 0.308504 3.91085
-0.471833 1.17532 3.53475
-0.297712 2.66914 2.6904
-0.183575 3.29163 2.42579
1.4052 4.13456 2.35772
0.348249 2.58823 2.62222
2.07173 3.46224 2.59864
2.08876 1.20321 3.82058
3.882 -1.13862 4.28286
0.589723 -0.456423 4.77492
1.66451 1.99806 3.19555
-0.726792 3.29066 2.46699
0.129745 3.98875 2.35214
0.28239 2.5767 2.70662
-1.03466 1.95824 3.18303
-0.140205 3.9233 2.25981
2.59479 -0.313833 4.54902
0.922706 1.10994 3.76711
1.50913 4.09691 2.34037
-1.0583 0.66256 3.72694
4.56587 -0.825062 4.81013
0.637821 2.68062 2.62594
1.55158 3.53292 2.56113
3.05213 1.19966 3.57848
-0.700179 -0.582112 4.45167
1.22189 2.09371 3.19298
0.437732 4.30963 2.21645
3.71157 1.5546 3.20592
-0.405945 0.203463 4.30015
1.63505 0.758622 3.88775
-0.731103 3.6503 2.35307
-0.844509 2.97393 2.42099
-0.315683 2.41684 2.87822
3.41172 1.52511 3.32504
1.52577 -1.55135 4.71527
2.17006 3.93186 2.52912
0.231985 2.92627 2.48474
2.04428 2.35688 2.99982
-0.337847 3.77424 2.326
3.97521 -0.189063 4.22133
4.16826 0.833338 3.57219
1.05168 2.54373 2.79473
-0.788028 1.83594 3.14304
-0.152811 3.19765 2.46989
3.44296 1.8957 3.26943
1.08909 0.895433 3.86109
2.13192 -0.000144646 4.13749
1.48423 1.7895 3.3629
1.37552 2.50586 2.89463
1.08818 4.58039 2.26192
1.54819 3.31088 2.66393
-0.582496 3.75614 2.25191
1.23625 3.2363 2.5977
0.594279 2.44189 2.79671
0.175296 -1.33565 4.58642
1.35217 -0.972972 5.05818
0.840554 1.80572 3.35757
4.0621 0.410398 3.76267
0.146504 0.924294 3.88479
2.38403 3.17993 2.65774
-0.893475 2.3776 2.80471
-0.073236 3.73976 2.36341
2.1426 -0.736624 4.4585
2.00007 1.73809 3.50475
-1.19902 0.702035 3.93623
0.41913 0.812616 3.98046
1.91961 2.66106 2.8494
2.79574 4.12973 2.61047
2.30625 4.10851 2.52241
3.39193 0.22658 4.04106
4.37535 0.97984 3.66114
-0.343833 -1.226 4.42332
0.0978428 2.51178 2.73349
0.15937 1.91753 3.1654
1.52082 3.95297 2.41438
2.61952 3.42273 2.70106
2.12516 0.372718 4.01782
3.91213 0.853851 3.63337
-1.10567 -0.819441 3.73103
2.57377 1.79017 3.20969
2.18258 2.18081 3.04038
2.33808 4.29556 2.4172
-0.857099 -0.237418 4.09107
1.3507 1.42728 3.44991
2.1885 4.4835 2.3924
0.067334 2.78488 2.52713
0.539274 2.08002 2.97262
0.154354 4.14123 2.2308
3.24081 -0.168228 4.12147
2.16935 1.35121 3.59489
2.33644 3.70999 2.64481
0.378148 3.60062 2.4652
0.710802 2.75857 2.61374
-0.789526 3.65113 2.41237
0.916106 4.25705 2.26295
-0.737412 -0.484994 3.92886
1.45393 1.61513 3.42563
1.73622 2.40757 3.05252
-0.572238 3.02035 2.55367
0.110375 -0.367201 4.49799
0.321978 1.54452 3.44479
2.07115 3.89191 2.56831
-0.545288 2.24851 2.90967
0.894774 4.2932 2.22017
0.273945 2.87141 2.52432
0.177741 2.30732 2.82102
2.77935 3.23439 2.7795
3.47842 -1.09324 3.80287
1.5802 4.27389 2.25852
4.17021 0.230652 3.85252
-0.414504 1.62845 3.26193
-0.303298 3.66499 2.40765
2.04114 0.417536 3.97421
1.13228 2.99813 2.63501
3.51383 -0.952619 4.28271
0.567621 2.24771 2.88313
0.484411 3.71074 2.39584
-0.200122 1.57771 3.40432
3.15586 -1.54218 4.2195
0.254764 0.105315 4.38599
1.51314 3.88344 2.47046
3.03991 4.85471 2.50592
2.05958 2.44893 2.93358
1.7264 3.25976 2.68185
3.268 -1.60277 4.48316
0.652849 0.815435 3.86759
-1.81035 0.218531 4.89709
-0.48227 1.70535 3.22622
0.423963 1.35198 3.69644
0.128634 4.02761 2.30376
0.225255 -0.605987 4.97677
-0.963856 2.02793 2.95906
1.18249 2.78515 2.71373
1.49723 3.57026 2.56623
0.463182 1.96468 3.04331
-0.441807 3.95294 2.20386
2.77295 1.14931 3.58827
-0.0108296 3.35889 2.45382
0.88026 2.69142 2.71115
1.54375 0.583962 4.17415
-0.662553 2.90065 2.60019
-1.00178 -0.692112 4.04715
0.843841 3.56532 2.48963
0.313027 4.05073 2.22174
-0.223025 2.1714 2.9041
5.11891 1.67269 4.12669
-0.278031 1.38552 3.40321
0.962456 -0.7751 5.04113
0.955154 2.15731 3.06272
-0.0806055 0.746845 4.03469
1.47987 2.93044 2.77141
0.507983 4.16985 2.23703
-0.868951 3.60152 2.42042
-0.0559483 2.83188 2.63689
-0.536974 1.38522 3.38362
1.9573 -0.0936361 4.2315
0.664931 2.11437 2.98876
0.703901 3.37778 2.41306
0.471908 4.09331 2.30679
0.680995 2.71672 2.63201
-0.656904 3.50698 2.42025
3.08023 2.09529 3.19795
0.842924 4.24362 2.34385
2.07246 0.0380424 4.2845
-0.228485 1.29223 3.50241
-0.785961 -0.313864 4.08332
1.70476 3.69842 2.53365
1.92608 4.25549 2.30985
2.77359 3.06546 2.82968
3.32202 1.42665 3.48822
3.44905 -0.272637 4.06574
-0.572111 2.15309 2.86627
1.62321 -0.991982 4.70333
0.418758 1.86297 3.19822
0.267184 0.488045 4.23706
2.77887 0.946378 3.70744
1.35469 3.34481 2.59005
1.80737 3.93112 2.44779
1.47971 4.58519 2.25782
2.05292 2.62652 2.89546
2.13324 1.91554 3.54349
1.65766 4.51773 2.26166
2.65577 0.851087 3.70925
0.57431 3.95064 2.37456
0.361272 3.17797 2.50156
0.224261 2.43345 2.7574
0.948997 1.17939 3.53215
2.30591 0.168429 4.07621
2.85942 -1.59267 4.34501
-0.420172 1.95237 2.99043
3.27269 2.79564 2.87826
0.496042 3.97358 2.33021
3.30559 3.62896 2.71426
-1.03164 0.216806 3.89361
3.10216 0.278058 4.04493
2.25697 1.11536 3.766
1.90486 -1.21332 4.44237
-0.680078 1.88579 3.02524
2.27627 2.69213 2.84899
1.83415 3.47009 2.63918
1.06994 3.40421 2.57563
-0.239141 3.97843 2.26663
1.62157 2.74109 2.88714
-0.0975458 1.89986 3.07356
1.97494 4.37838 2.29397
2.18449 -0.562612 4.42624
-0.666102 1.10885 3.52696
-0.442821 3.78711 2.25804
1.24283 3.29631 2.54862
1.90597 2.64744 2.91724
-0.353645 1.87515 3.18414
3.96245 -0.801005 3.96135
2.59038 0.927975 3.63007
-1.04436 -0.312435 4.19717
-0.1146 2.70246 2.59853
2.00036 4.08798 2.43484
0.68859 3.4972 2.49747
2.73393 1.2163 3.51346
2.15258 0.533666 4.01805
2.28201 2.06712 3.13004
-1.23229 -0.713069 4.24952
0.8528 4.19416 2.41856
2.49481 2.81035 2.8795
2.2802 3.54432 2.6362
-0.442211 0.735124 3.94469
2.3555 1.13843 3.55167
2.04474 -0.748163 4.8897
3.12879 2.01511 3.22871
1.17089 4.10648 2.32994
-0.631733 1.63894 3.27486
1.89866 0.0418419 4.22491
1.85253 3.80158 2.54352
-0.668832 4.12842 2.15196
1.53188 3.15912 2.6871
0.0396944 2.32753 2.84743
-0.384749 -0.825883 4.49106
1.08448 0.227502 4.36129
-0.980583 1.56299 3.35423
0.61352 2.93958 2.5717
-0.355149 3.73398 2.39555
1.14707 2.27405 2.94702
3.92121 -0.298627 4.1375
0.476429 0.953038 3.88144
1.18487 3.83836 2.4355
3.65012 1.73313 3.28439
2.58709 5.02276 2.4827
-0.138112 2.46587 2.78835
-0.554935 3.16552 2.47591
3.42163 0.710881 3.76798
0.183503 -0.035483 4.43469
-0.563782 1.69215 3.20227
1.63335 3.91257 2.43317
-0.636247 2.36514 2.76029
1.30095 4.44264 2.25114
0.0756204 3.11081 2.52738
0.691331 3.08676 2.52077
-0.828427 2.38921 2.7791
3.31043 0.369774 4.02466
-0.607515 1.70656 3.22871
0.572898 -1.08094 5.01778
2.69506 0.730665 3.76481
0.698197 3.06659 2.58744
1.44796 3.81071 2.4835
-0.172493 2.38015 2.90849
0.965548 -0.87329 4.77234
3.41441 1.65107 3.50364
2.70256 -0.822309 4.38191
0.456065 -1.55018 4.66491
1.15807 0.572893 4.08194
-0.00310433 3.77659 2.37407
1.43515 2.65266 2.91323
0.604583 3.20729 2.47031
1.81664 0.991739 3.78398
0.452476 3.86043 2.3794
2.78102 1.86932 3.31592
-0.877901 2.55284 2.86647
2.8152 -1.4834 4.56398
-0.601194 3.09916 2.42015
4.4572 0.835596 3.60155
1.22546 0.341484 4.19949
3.24489 1.76806 3.33583
-0.86853 -1.11914 4.30284
0.291938 3.97031 2.38745
2.60589 2.11974 3.06542
-1.41423 -0.327367 4.26894
1.83295 1.38427 3.54982
4.24636 0.590525 3.86041
1.77314 2.93765 2.78696
1.83208 4.20734 2.33966
1.34101 3.61495 2.53608
0.387636 -0.214289 4.81407
1.4696 1.55004 3.46005
0.310629 0.760208 4.19669
1.60641 3.75607 2.57307
1.05943 -0.771105 4.93505
1.74983 4.2053 2.27836
0.73931 2.2685 2.92564
0.555572 2.9425 2.5738
3.82193 2.27546 3.17658
0.761704 -0.556813 4.76414
-0.418955 1.50778 3.47228
1.26607 3.76348 2.50663
-0.408498 4.15559 2.15843
1.74361 3.03587 2.78159
2.43846 0.550669 4.06397
1.57685 -0.804368 4.5224
1.12433 3.81539 2.41677
2.69684 4.48857 2.50509
4.88692 0.63357 4.11964
0.0552327 2.37452 2.77564
2.73063 -0.69675 4.45433
1.31692 3.22703 2.63764
-1.0914 0.824194 3.70415
1.20543 1.76372 3.42292
-0.887366 1.86072 3.13852
1.96102 4.60122 2.28349
1.97423 0.999875 3.7626
0.80092 3.31143 2.54849
3.29379 -1.28736 4.77083
0.233062 3.77891 2.31766
-0.140346 0.381624 4.20284
2.70865 1.74941 3.2501
1.67107 2.687 2.94708
1.47974 0.939125 3.89402
1.29005 3.92545 2.36939
1.17327 -0.997957 4.84551
-0.424169 3.26349 2.54509
0.0958443 0.483015 4.02408
2.7651 2.54268 2.94019
3.01365 1.42252 3.4434
0.0045254 3.38272 2.3382
0.519174 2.15317 2.88513
1.23957 4.14427 2.28536
-1.28354 -0.303557 4.08882
4.60795 0.700137 3.77685
-0.0332235 2.86009 2.56758
3.04683 1.32752 3.45509
-0.236404 3.55958 2.4024
-0.714882 2.09117 2.90338
-0.465338 4.0009 2.12167
-1.27205 -0.15738 4.13085
0.773824 2.80125 2.61986
-0.517754 2.3846 2.895
1.82472 3.18386 2.70984
2.70638 -0.533298 4.28903
1.17271 4.25175 2.23354
2.66949 1.60429 3.35834
1.63344 3.72622 2.4807
-0.0198082 2.97977 2.58276
2.15575 2.27861 2.97353
-0.517776 3.69377 2.36411
0.769196 -0.854063 4.7187
3.30971 1.55013 3.53207
1.62033 0.208293 4.1958
-0.876299 -1.43483 4.37082
2.0605 2.28667 2.9826
1.70316 1.50832 3.36477
-0.641387 2.99976 2.5927
-0.331861 3.56587 2.40313
1.79203 4.23012 2.29052
-0.434528 0.367036 4.14062
2.83155 -1.21801 4.53567
1.77473 3.01743 2.75708
-1.07051 1.48155 3.37789
1.18624 3.72433 2.47043
1.14285 2.21324 2.99592
2.63421 1.61709 3.38371
0.87124 4.36366 2.2921
0.480817 2.96646 2.49454
0.301289 -0.0162866 4.44217
-0.584304 2.33221 2.82836
0.609978 -0.981303 4.75335
1.05154 3.76174 2.44098
3.33109 0.0101336 4.13217
3.75763 1.15233 3.65531
1.26705 3.98942 2.34803
-0.201468 1.96714 3.00691
-1.32926 1.30843 3.39037
1.52657 2.79948 2.83516
0.956089 3.4179 2.51611
2.76326 1.07206 3.66223
0.559869 4.09847 2.35564
0.609964 1.92901 3.12823
2.6235 0.642747 3.84992
-0.66713 2.65519 2.72621
2.63624 -0.687717 4.40629
0.137361 3.3126 2.47963
-0.704245 -0.878204 4.12185
-0.838534 2.87945 2.66707
2.31138 0.406855 3.94655
-0.749901 2.10263 2.91948
1.78292 1.41089 3.595
1.59973 4.12535 2.33981
0.577485 -0.877422 4.82556
-0.191661 3.45114 2.45083
3.30242 0.511682 3.99651
-0.66572 2.78045 2.66285
1.96773 2.07554 3.1235
-0.0586115 3.99511 2.17996
2.19954 1.23774 3.5177
4.26067 -0.287852 4.0537
-0.724217 2.78651 2.66773
1.80095 3.61738 2.60468
-0.271924 3.55393 2.45863
0.728784 1.30465 3.59277
0.375793 4.15327 2.38818
-0.479737 2.05536 3.00425
1.33235 -0.0527375 4.61807
0.261145 2.61496 2.61281
0.557236 3.24633 2.37833
0.667989 4.13457 2.33095
3.1436 1.09095 3.44952
0.715027 2.0408 3.17649
2.30521 2.14074 3.07962
0.700301 1.39553 3.48487
0.0927465 -0.482404 4.57188
2.05932 2.93637 2.78549
0.892641 4.1625 2.29648
-0.355523 3.5325 2.44007
2.5732 -0.380502 4.22628
-0.424529 0.927664 3.67504
1.05439 3.88742 2.46359
0.202512 1.80109 3.23481
4.46199 -0.264641 4.1454
1.09051 2.50098 2.85135
0.399342 3.13439 2.46178
2.21036 4.01386 2.50357
0.223918 1.68037 3.21416
2.00743 4.47138 2.28954
1.23628 0.827682 3.99442
-0.788121 0.359814 3.84044
-0.561002 3.10761 2.49976
-0.799046 -1.11555 4.3185
1.54459 2.49336 2.96615
2.20248 3.49143 2.65555
2.24479 0.0418613 4.24672
-0.270568 2.60976 2.69137
-0.522898 1.91186 3.05668
3.33335 2.15376 3.23157
2.52572 1.05462 3.59312
0.891398 4.02309 2.42616
3.95726 -1.53654 4.34665
-0.335291 0.244777 4.29973
1.15873 2.62982 2.8726
2.79986 1.82693 3.22506
-0.25511 3.26465 2.49257
-0.318779 1.02047 3.64832
0.7268 4.07685 2.39374
-0.450759 2.58634 2.78029
3.91201 -0.624829 3.9134
2.35325 3.43967 2.68056
1.99016 -0.744115 5.02137
0.609058 1.05019 3.86259
2.14423 0.703149 4.10503
2.38783 1.8839 3.31263
-1.05786 -0.456226 4.22048
-0.460199 3.22962 2.52266
1.48722 3.96455 2.46012
0.761815 2.48994 2.8264
-0.129018 3.81765 2.27698
-0.510595 1.7727 3.1613
2.0463 4.25611 2.36061
3.61681 0.835292 3.72764
0.98193 4.62861 2.27869
2.23723 0.421055 4.06963
1.31663 3.41363 2.58171
4.57084 -1.05874 4.80964
3.34568 2.79184 2.97909
3.94991 -0.715642 3.93271
0.917842 4.09511 2.40995
0.0395444 -0.818103 4.72031
0.329792 1.94361 3.15245
2.76731 0.527556 4.00804
2.2849 1.04307 3.53869
0.100628 1.5755 3.42017
1.32556 4.22974 2.28221
-0.641152 -0.042478 4.18156
1.64127 2.39565 3.10857
-0.505521 3.63057 2.44596
1.36987 3.05759 2.69556
-0.931069 2.19943 2.91495
-0.262021 3.66259 2.40193
-2.38571 2.69493 6.39351
0.440375 4.21248 2.20302
0.567084 2.83803 2.56578
1.89619 3.28431 2.70735
1.49222 -0.370988 4.68652
0.929008 2.39426 2.82722
0.967987 3.75737 2.43383
-0.013386 1.7301 3.29821
0.892674 -0.849414 4.75542
1.13893 0.807305 3.88168
3.92472 -0.276863 4.20649
0.967828 1.66841 3.40362
1.60049 2.40176 2.98243
0.996337 3.86975 2.44926
-0.261596 3.05911 2.5628
-0.793841 1.24579 3.3693
-0.811628 3.885 2.21423
2.37508 2.08888 3.18736
2.15177 4.81661 2.36953
-0.235768 2.76987 2.67482
-0.0177358 3.41828 2.43818
2.49537 4.33292 2.48722
3.97867 1.17594 3.79224
0.161846 2.01643 3.12379
-1.24113 -0.110855 4.28722
1.39331 2.7349 2.78548
1.19586 3.45746 2.5584
2.9221 3.07216 2.84184
1.88136 -0.39806 4.64491
1.35617 2.24666 3.0707
0.479387 4.19528 2.31473
1.73152 1.47297 3.54331
0.525238 3.52016 2.46237
1.69936 -0.248389 4.32329
-0.251838 2.83545 2.65437
-1.1282 2.29482 3.19771
-0.18543 4.15354 2.22255
0.73748 1.35727 3.45338
0.912376 3.64553 2.49373
-0.318806 0.353409 4.28498
-0.817231 2.59219 2.78825
-1.33335 -1.11125 4.20546
0.970194 3.31144 2.5669
0.19172 1.06443 3.93736
-0.522696 3.72625 2.27945
0.0523792 1.85459 3.1772
3.43463 0.327373 3.75135
0.296658 2.41837 2.74777
3.96176 -1.0952 4.7978
0.851426 3.21986 2.55232
-0.268498 0.904873 3.67069
2.12252 4.07669 2.49282
-0.379899 1.77032 3.18555
4.17543 2.19478 3.34233
2.54558 1.89878 3.18663
1.73264 4.48307 2.26193
1.71123 1.09692 3.71213
2.3346 0.0197893 4.25573
1.36112 3.36097 2.54979
0.215448 2.54556 2.64707
-1.57906 -0.61362 4.18314
1.18602 4.07419 2.4143
1.78675 0.17682 4.122
2.20551 0.991163 3.89092
0.905728 4.56286 2.27672
-0.161959 1.8017 3.07749
1.28214 3.88944 2.41611
2.51576 2.65984 2.9537
0.9183 3.31676 2.57596
2.51874 1.7579 3.30055
1.86329 4.04183 2.46578
3.99579 0.813587 3.77063
4.13995 -1.24079 4.42548
-0.146737 3.14101 2.46981
-0.971635 -0.504021 4.36591
0.16423 2.46625 2.79983
-0.513507 -0.764703 4.37864
0.720404 3.40781 2.51297
3.83043 0.457132 3.87283
-0.423866 2.69947 2.70818
-0.644608 1.96549 3.01388
1.12738 3.99255 2.36378
3.30521 1.10956 3.5493
-0.491702 -0.718514 4.59238
0.86727 1.14072 3.77703
2.89972 0.629638 3.93253
1.54453 1.8888 3.13589
2.72604 2.76584 2.95695
-0.706806 0.251941 3.954
0.537672 3.29189 2.487
2.56318 4.34515 2.54465
1.84423 2.40884 3.02269
0.545491 2.98636 2.53252
1.59912 3.84496 2.57884
0.6605 4.32424 2.28244
3.98764 -0.170873 3.99977
1.60783 0.0441983 4.37786
1.94168 2.29239 3.01291
1.72712 1.62385 3.38523
2.27574 3.06713 2.73167
-0.288141 1.54809 3.38794
-0.581541 3.72394 2.39616
0.26701 -1.05685 4.60538
0.939501 1.73547 3.36032
0.986963 0.820613 4.01252
2.00567 3.2628 2.70772
-0.673923 -0.342331 4.40991
-0.16895 2.45152 2.89549
2.48997 4.95683 2.47383
0.449752 3.79448 2.39778
1.36221 -0.234988 4.29977
3.34041 -0.98542 4.33001
0.406643 4.17463 2.19311
1.67794 1.61615 3.3689
0.931222 3.65192 2.43325
0.487066 2.29301 2.84875
0.936917 3.03401 2.5899
2.1265 3.86247 2.53647
4.03483 1.53889 3.62355
0.311313 -0.614022 4.59878
2.87101 0.380028 4.06484
1.62752 3.07402 2.7236
2.23287 2.26751 2.9969
0.308156 0.237194 4.36831
0.760375 3.18837 2.52838
-0.627379 2.45156 2.75962
-0.747412 3.87202 2.43652
2.09826 1.76996 3.30381
0.631017 -1.49251 4.72158
3.85942 0.815457 3.7262
2.80019 -1.19749 4.17718
-0.103011 0.839817 3.98024
-0.380149 0.349812 4.19671
0.885197 1.72953 3.35362
-0.576625 2.32831 2.73284
4.19248 -1.31813 4.37646
1.76177 3.2381 2.67851
-0.705263 2.83612 2.64502
2.06122 3.95706 2.47734
-0.140401 3.44437 2.3928
-1.1487 -0.495748 4.39541
-0.348187 1.38276 3.45012
0.945659 4.14088 2.34978
2.24664 2.11795 3.06349
-0.795544 -0.350651 4.64582
-0.675383 3.46329 2.45774
-0.320128 2.74612 2.6487
1.03026 2.10362 3.16917
0.372214 1.31336 3.64207
0.262859 4.18705 2.30714
0.566776 2.13613 2.89084
3.4335 1.40926 3.4928
3.45745 0.46602 3.8441
1.84757 3.03132 2.78706
-0.569905 -0.753388 4.31937
0.253044 4.15402 2.22769
-0.176643 3.52313 2.39015
3.16059 -0.739817 4.42776
1.55178 0.706588 4.1467
1.69305 2.17382 3.12962
3.74929 1.28835 3.47884
1.32525 0.0538159 4.28914
1.52493 3.62051 2.54975
-0.0632267 3.95003 2.21803
1.69313 2.93846 2.80156
0.165597 2.06159 3.06896
0.0473014 4.06963 2.2346
-0.0598471 1.30169 3.58394
1.62863 3.5952 2.60049
0.510127 2.68507 2.61075
3.77131 1.60051 3.73278
0.637294 -0.232134 4.6915
1.43767 3.05323 2.70461
1.94577 3.71936 2.5638
0.0889995 4.02182 2.15403
1.29655 2.29461 3.00884
1.45327 1.47116 3.53724
2.49782 -0.12814 4.10709
2.224 2.19534 3.03163
-0.17696 4.22379 2.21579
1.19595 2.92919 2.67438
-0.0923275 3.64347 2.40915
2.23491 2.6941 2.86117
1.77792 3.46399 2.64342
0.436779 1.16479 3.82505
1.5556 -1.01487 4.65127
1.26247 2.00273 3.32127
1.73115 0.402774 4.0239
-0.854669 3.31559 2.54131
1.33192 3.92197 2.38118
3.83344 1.85224 3.36183
1.28105 2.59761 2.85299
3.29248 -0.887124 4.58769
3.34368 1.93602 3.46674
3.67134 0.443313 3.81246
1.2127 0.98694 3.77782
0.862913 4.05188 2.39784
-1.61027 -0.31248 4.29843
0.665 4.35753 2.52595
-1.0839 0.205697 4.07711
1.56438 2.78621 2.84899
0.491512 3.30285 2.43322
4.29918 0.211886 3.94709
1.36566 1.20208 3.68275
3.22655 -1.24674 4.22587
1.89527 2.0563 3.26204
0.834754 2.87646 2.61366
1.37596 4.14383 2.29717
-0.660743 0.0863478 4.24631
2.07061 2.17944 3.00065
4.90797 1.69123 4.19319
-0.809486 1.37732 3.39512
1.45841 2.17372 3.11084
0.62631 2.76096 2.59105
0.987938 4.27277 2.30653
0.607691 3.57695 2.50187
-1.66158 0.190927 4.60215
0.3349 2.30924 2.83883
0.444549 3.58646 2.4387
-0.121241 2.93461 2.45731
2.39822 1.5825 3.31889
1.52142 3.79573 2.5392
1.38644 4.31913 2.28547
-0.380467 3.04634 2.6506
-0.163585 2.29364 2.93492
4.12752 -0.162541 4.07367
1.26883 3.79914 2.4729
2.26469 1.48847 3.37968
0.439052 -1.08204 4.66655
0.970396 0.580555 4.10102
-0.160209 1.88998 3.05635
-0.680484 -0.686822 4.00083
2.37279 1.05135 3.59534
0.232915 3.24662 2.43528
0.0578552 2.57364 2.66761
-1.24115 -0.748132 4.88449
4.29976 -0.271679 3.9524
0.0112181 0.741585 4.0728
0.700326 4.20475 2.48848
1.23536 1.286 3.59581
0.326292 4.10738 2.36193
1.37954 2.07984 3.11898
4.09457 -1.2346 4.42825
2.12854 2.8291 2.78321
0.240037 0.366238 4.22347
-0.306959 3.43209 2.43803
2.48455 2.03236 3.23135
1.98975 0.418685 4.13236
0.546784 1.23564 3.70498
-0.783132 -0.835352 4.00047
1.09497 3.41204 2.51821
-0.216402 4.05634 2.27702
1.82632 2.74488 2.79708
-0.632553 3.8191 2.2239
-0.323313 3.32123 2.42605
-1.55819 -0.498997 4.28188
-0.823133 2.66985 2.65845
2.4952 -0.407834 4.57522
1.9478 1.99837 3.16012
-0.42437 1.21406 3.57054
3.01694 1.10844 3.8601
2.83763 1.84522 3.11133
-0.480962 2.62815 2.71458
4.60589 -0.337499 4.53144
-0.271889 3.27199 2.44998
-0.0421041 3.92143 2.23941
0.0594429 2.7125 2.53077
0.127114 -0.638806 5.05008
1.8889 3.65946 2.58103
1.97799 1.34968 3.51095
-0.271227 3.90715 2.18709
1.24505 2.1676 3.09664
1.09647 3.47892 2.49981
2.0547 2.84525 2.79718
1.76067 2.15464 3.25795
1.08791 1.26883 3.53764
1.07505 4.21362 2.33384
3.80201 0.103393 3.89812
-0.720343 1.70333 3.21515
-0.142897 3.12422 2.53786
2.34809 2.45402 2.96457
-0.27615 -1.20025 4.54172
1.5896 3.87271 2.46932
1.89146 0.298707 4.10333
1.22535 -1.58099 4.78425
1.43505 0.808855 3.9791
1.10334 1.02397 3.8244
1.9243 4.68106 2.28309
2.18618 1.82851 3.22065
-0.270525 3.76755 2.30908
0.942747 2.52959 2.75875
1.751 -0.0947277 4.35506
-0.824437 0.0795117 4.0679
2.58718 1.73792 3.25322
0.563442 3.17452 2.44428
3.71488 0.808812 3.67181
0.172808 3.9149 2.35298
2.02106 3.36465 2.69077
1.09891 4.64735 2.26289
1.28786 2.4983 2.86864
1.14184 3.24451 2.57725
0.427794 0.939219 3.8647
0.956445 3.83098 2.4302
0.000581718 1.74798 3.16055
1.60642 -1.55475 4.68132
0.586271 0.609365 4.2098
0.373844 2.43016 2.7635
-1.13236 -0.734697 4.30411
-0.567183 0.811511 3.76809
3.2283 1.68269 3.3732
4.73709 0.668685 4.23444
0.48604 2.38914 2.83258
3.79507 -0.715912 4.30107
1.81686 3.26277 2.69735
-1.57233 -0.950426 4.54831
1.7203 2.74264 2.89615
0.477815 0.458186 4.1218
3.26609 3.57292 2.74923
1.97621 1.10195 3.74794
-0.425621 3.7466 2.29339
2.72291 1.91281 3.21632
-0.30773 3.80872 2.28006
-0.514418 3.19697 2.44217
-1.34294 0.716302 3.75608
1.83757 4.43188 2.27131
-0.763717 2.5925 2.79049
1.85668 1.92053 3.36841
3.87702 0.908697 3.70231
-0.689079 3.89343 2.27011
2.70988 -0.279667 4.25439
5.09615 -0.731061 4.24527
0.266127 3.59956 2.44665
0.757209 4.22633 2.27395
1.71633 -0.090665 4.59181
0.117824 2.78383 2.51057
2.13332 1.45447 3.51816
1.46146 2.2661 3.0984
1.77086 4.23333 2.24876
0.360834 1.63468 3.32047
-0.0621979 3.63127 2.39811
-0.210975 -0.551268 4.69725
1.56052 3.14536 2.68085
2.61459 2.37101 2.98925
0.326376 -0.76624 4.61814
2.14108 1.53708 3.4809
-0.732048 2.91478 2.52487
0.79577 3.68607 2.38883
1.81032 2.30554 3.01507
2.24352 -0.394159 4.43478
0.982552 1.54298 3.44364
1.24493 3.65611 2.50507
0.675811 4.23168 2.27716
2.88841 0.148643 4.08686
-0.391092 2.20776 2.82447
1.08076 2.98583 2.628
2.00102 1.43059 3.45157
1.59525 3.69813 2.47612
1.38824 2.246 3.07053
0.889801 0.350876 4.3009
0.703951 4.30762 2.27324
-0.211298 -1.29231 4.64026
-0.401489 2.86114 2.57317
-0.755202 3.20436 2.59888
-1.08304 0.053524 4.07743
0.374971 2.37798 2.81862
1.60247 1.69146 3.31112
-0.0170214 3.68299 2.37168
3.54741 0.718974 3.84897
0.352399 2.97641 2.51016
0.153556 -0.877555 4.55412
-1.00796 2.34736 2.85915
-0.455804 1.6054 3.23112
0.578368 -0.487805 4.70815
0.634377 3.84237 2.43411
3.33286 0.602765 3.83159
3.4296 -0.781117 4.73339
-0.192141 3.96167 2.26491
2.57645 2.76439 2.84373
-0.539715 -0.52291 4.54116
1.26608 3.44147 2.5468
4.38964 1.1445 3.73033
0.663607 1.99325 3.10938
-0.535945 2.12719 2.97387
0.859577 1.38078 3.51278
-0.384839 3.96019 2.21532
0.71418 3.43417 2.39834
2.28486 -1.04834 4.80818
0.436221 2.78324 2.61411
-0.810472 0.460336 3.92267
0.95518 2.13132 3.19583
0.94419 4.19435 2.31928
-0.128562 1.27982 3.5014
0.878 -0.940648 5.01449
0.225546 3.38562 2.41862
-0.569534 0.588888 3.92502
0.570244 2.70308 2.62274
-0.465024 2.8047 2.57531
0.913645 -0.0155862 4.44653
0.844217 2.1642 3.03856
-0.661458 3.95907 2.19203
2.70365 1.37132 3.50553
-0.852071 1.26826 3.34374
2.6233 2.10121 3.1473
0.385789 2.70342 2.58688
1.37408 0.135657 4.32404
2.17106 3.6532 2.63
-0.587066 3.55279 2.43763
2.46145 2.33249 3.0327
1.94173 4.24753 2.34341
1.9554 3.07839 2.69631
-1.38683 -0.174275 4.07511
1.79493 1.54685 3.40913
-0.5461 4.01154 2.1188
-0.363368 3.59375 2.41475
1.47628 3.01165 2.71884
2.58923 2.25774 3.06796
0.877972 3.67723 2.42698
0.514142 1.48225 3.41667
-0.587983 4.08199 2.11118
1.08235 0.514201 4.13403
0.981001 -0.980467 4.77202
-0.725951 2.65339 2.81656
3.79639 -0.818444 4.23541
-0.821061 3.36747 2.5447
-0.311324 0.651502 4.01408
1.34239 3.97235 2.38251
1.36125 1.04362 3.76573
4.06695 -1.16216 4.31815
1.97613 1.93627 3.33448
1.30164 1.22382 3.63871
-0.501399 3.88242 2.24118
0.22005 2.02612 3.09344
-0.645975 -1.38417 4.33367
4.7012 0.138284 4.16351
0.483029 2.62326 2.60019
2.55137 3.60546 2.66851
4.06549 0.272406 4.01984
-0.894978 1.11483 3.47036
3.12757 -1.07475 4.028
1.77854 2.03109 3.31676
-0.025068 3.29645 2.44945
0.861886 2.64181 2.72674
0.663982 4.10915 2.3512
-1.12381 1.09258 3.40431
1.38837 1.97502 3.21252
-0.0994043 3.88595 2.3028
-1.20945 -0.435329 4.43666
-0.731815 2.55889 2.60367
-0.370843 3.28459 2.43357
1.55895 4.51297 2.26183
-0.896348 1.00901 3.47915
-0.726224 3.7671 2.17157
3.28688 1.90756 3.35177
2.1305 -0.344442 4.36123
-0.393231 2.5923 2.7611
2.1079 3.48328 2.69399
0.145132 -0.767028 5.21452
0.869797 2.72884 2.63124
0.556047 3.44831 2.46032
2.47077 2.10512 3.14997
-0.963361 1.26507 3.33157
0.0335851 4.01394 2.28241
-0.374887 3.36045 2.43521
-0.286489 2.70626 2.67055
3.62087 2.07583 3.30332
1.40639 4.08836 2.30597
0.786745 1.24422 3.66055
3.05143 0.0645441 4.06022
0.11101 3.6848 2.34894
0.121676 -1.32174 4.58815
3.02891 0.188351 4.16714
-0.251188 2.38973 2.8953
-1.42208 -1.26831 4.13468
-0.585057 3.09082 2.56242
0.165901 0.757203 4.00992
2.20251 1.62225 3.35469
3.00259 1.76356 3.24395
1.44234 3.87672 2.45079
2.00559 0.923868 3.81536
1.27534 4.44976 2.25199
-0.375286 3.2272 2.50858
3.82046 -0.237154 4.21642
-0.694947 2.52785 2.80819
-0.85791 1.73892 3.25266
2.03551 4.27591 2.329
3.26507 0.782126 3.85992
-0.464698 3.74805 2.27652
1.65109 3.29963 2.69494
-0.314853 2.47867 2.853
0.567046 -0.00738145 4.56128
1.74069 3.85927 2.49632
1.78441 0.803785 3.79161
1.10146 -0.696155 4.7939
2.01631 1.77239 3.45625
3.20765 0.448894 4.14431
1.74227 2.47898 2.92198
4.25025 -0.947717 4.3642
-0.935847 0.72489 3.7506
1.43363 3.24258 2.64035
2.11828 1.64345 3.4012
-0.220147 3.76456 2.34753
-0.865095 0.639323 3.84971
-0.422105 2.35987 2.85122
2.538 -0.856519 4.75846
2.57517 3.27848 2.78963
1.17747 3.27227 2.51074
3.0646 -1.22393 4.72943
2.25345 2.6241 2.86727
3.22791 0.302342 4.07977
1.14152 4.54472 2.2615
0.915885 1.86082 3.17087
1.68687 4.52774 2.2612
3.8866 0.858046 3.36361
0.796119 3.24381 2.54685
1.69257 3.97091 2.45648
1.1608 2.5604 2.89947
2.42254 1.80106 3.29274
3.4284 2.0743 3.2598
-0.715651 0.945668 3.6633
1.59809 3.98562 2.39782
1.24111 -0.331053 4.6891
-0.795195 3.51926 2.41045
1.17989 4.18011 2.29092
2.51711 2.9522 2.78487
3.34871 -0.229316 4.1754
2.28819 1.40459 3.55365
0.407297 2.17914 3.04108
-0.683448 3.91625 2.06498
0.527132 1.56156 3.37694
1.55236 3.78617 2.58602
-0.0275375 -0.621734 4.58365
1.89689 3.13895 2.74758
0.680446 2.25028 2.87357
2.35905 2.26613 3.07372
1.29923 4.26731 2.23544
0.266137 1.5314 3.51091
-0.500384 2.92014 2.59279
0.141972 3.63647 2.38367
3.42048 -0.520022 4.08221
-0.747315 1.45432 3.28255
1.4659 4.17123 2.29308
1.26264 2.2691 3.04783
1.24064 3.59946 2.50573
1.65526 3.04494 2.75778
2.17442 2.21664 3.16518
0.960164 3.67298 2.49698
-0.0779128 1.44774 3.53059
-0.657982 3.56565 1.87756
0.961039 0.261089 4.33451
4.13689 -1.4834 4.54219
0.875208 2.81392 2.62408
1.27779 3.11475 2.62431
-0.493433 -0.00330172 4.31529
-0.476694 2.38425 2.87839
1.2187 4.27363 2.23865
1.99692 1.64065 3.38609
0.115103 3.62373 2.3758
3.05717 0.641736 3.85142
2.20585 3.08923 2.71752
0.00295181 2.29024 2.90896
3.48485 0.0485084 4.16611
2.09497 -1.33758 4.50631
2.96872 1.48684 3.35538
-0.721724 2.68642 2.63532
0.911703 3.72849 2.39661
0.909296 3.40668 2.49721
-0.756903 1.17536 3.37365
1.83359 -0.857157 4.90871
-1.23987 0.638465 3.83668
2.29593 2.03084 3.1884
1.88775 4.07188 2.40028
1.80215 2.7448 2.86543
1.43323 -0.636404 4.44821
1.53404 3.43598 2.588
3.58346 1.06388 3.66708
1.77323 4.0784 2.35474
-0.833081 1.93602 3.06732
0.733067 2.07189 3.04302
4.3077 1.27874 3.69217
2.22269 0.316991 3.99413
0.444483 3.51456 2.50095
-1.01051 -1.02196 4.19028
0.300843 2.69955 2.58692
-0.729428 3.86726 2.14689
-1.14492 -0.892706 4.27282
-1.06902 0.536849 4.036
0.453686 2.96886 2.5578
0.173047 2.23907 2.83715
2.90103 -1.44096 4.42339
1.04474 4.29604 2.30386
-0.336537 1.5894 3.35749
-0.155009 0.282007 4.25785
-0.216792 2.93823 2.59789
2.0551 3.75733 2.56892
3.8355 -1.19018 4.61407
0.709955 2.20245 2.92881
-0.514648 0.403324 4.2445
2.27906 1.42116 3.37029
-0.393032 3.70244 2.4131
0.22236 4.14305 2.14703
1.00748 -0.00513255 4.45738
0.309701 3.72629 2.37618
1.06012 -1.62528 4.79806
2.15239 2.40987 2.97948
2.71168 3.24014 2.74822
3.19114 0.623986 3.74685
2.96606 0.0735575 3.84984
0.111039 1.6305 3.25723
-1.8042 3.13168 4.81892
2.09261 -0.65274 4.58428
-0.984466 1.18822 3.37548
2.55572 4.30414 2.548
1.42938 3.47541 2.54724
1.18003 2.74977 2.74889
0.828948 1.94662 3.12941
1.08423 1.11802 3.61311
3.29925 -0.5353 4.45496
1.65938 4.08499 2.35137
2.06572 3.56978 2.69668
-0.38029 2.65898 2.71083
1.67575 1.43489 3.56615
-1.03088 0.504051 3.66592
2.51582 2.17831 3.09688
0.114369 -1.00263 4.97124
2.17669 2.95021 2.76554
1.7027 4.15153 2.34077
-0.267675 0.654887 3.98699
0.242855 1.35792 3.6296
1.50106 -0.7976 4.64046
2.21148 2.14555 3.18028
1.4805 3.63084 2.52766
-0.754436 2.80264 2.65866
0.678869 4.25608 2.3212
-0.111222 3.35831 2.37143
-0.337575 3.44105 2.42736
2.38086 2.87248 2.79942
0.0872788 2.09923 3.03377
3.30743 -0.208848 4.06454
1.83725 1.27808 3.53866
1.46938 4.08087 2.34669
0.203818 3.37353 2.45243
0.746341 2.69792 2.68347
3.79973 2.09951 3.32881
1.25485 4.15326 2.33446
-0.00108422 0.0199645 4.36567
3.61279 1.15224 3.60237
0.498934 2.8949 2.5823
1.97503 1.49424 3.52655
0.444926 3.60988 2.4994
0.00835776 2.19849 2.90595
0.208886 4.04967 2.19981
1.25874 2.86512 2.66808
3.81708 -0.374799 3.89722
0.979763 1.41723 3.46984
1.79192 2.20318 3.10975
1.17222 3.65915 2.48505
2.53736 -1.12099 4.33966
0.553741 1.80926 3.21621
-1.09065 0.365087 3.88601
1.38305 0.958764 3.85307
0.738665 3.27202 2.56347
-0.804816 3.75701 2.3312
1.2436 2.594 2.92415
3.73666 -0.873805 4.00673
1.42662 1.74093 3.3598
-1.13499 0.520397 3.7771
2.36957 0.800744 3.80191
-0.301356 3.09238 2.4803
1.59902 3.93669 2.42622
1.02124 2.46938 2.87654
0.602361 4.23165 2.26067
5.85775 0.0171246 4.69695
0.815849 1.16722 3.74479
0.0437288 1.96251 3.1214
-0.308685 3.84708 2.27479
1.39973 2.67662 2.77794
1.8972 4.5025 2.28086
0.805833 3.3647 2.51565
2.94457 2.27588 3.13175
-0.600034 0.276478 4.31889
1.01947 1.06582 3.77546
2.07239 1.90874 3.29263
3.58675 -1.42173 4.28197
1.72839 4.04021 2.37537
0.216664 2.49172 2.6575
3.00128 -0.867412 4.37117
-0.176409 3.2378 2.45652
-0.356893 3.22462 2.44082
-0.314743 2.5616 2.72218
2.07394 1.94808 3.3635
0.658998 -0.726135 4.9756
0.494484 1.07936 3.78433
0.533295 3.10872 2.42973
2.92597 0.884446 3.7693
0.81955 2.49034 2.79046
0.105721 1.81668 3.20156
0.17241 3.88289 2.36722
2.68878 2.20827 3.07956
0.905073 -0.506085 4.95363
1.89587 4.05921 2.44421
0.575339 2.66897 2.65025
3.164 -1.02794 4.26612
0.175039 3.35686 2.43947
3.45261 1.14372 3.56657
0.837506 4.07729 2.38507
1.26285 2.03149 3.14422
1.36226 2.69789 2.79916
0.291412 3.33116 2.482
0.520544 1.19531 3.81883
4.88973 0.541614 4.17108
1.07131 4.10792 2.35568
0.446914 -0.783656 4.64511
1.83626 1.99809 3.269
-1.19685 0.00451735 3.84272
2.51121 1.52102 3.3682
-0.344258 3.06795 2.63874
-0.224022 2.31165 2.92331
-0.359408 4.13374 2.12958
1.75378 3.81905 2.53209
4.86496 0.0466729 4.57643
0.0535764 0.882424 3.88828
2.70872 4.84372 2.52707
-0.116152 1.69708 3.19769
-0.405626 3.81074 2.42395
0.678545 2.43159 2.81796
-0.482833 3.14527 2.51922
3.7577 -0.383719 4.12251
0.168211 -0.117394 4.33192
-0.216831 1.64022 3.26123
0.0691794 3.79223 2.36788
2.77656 0.688645 4.00583
0.953428 4.64752 2.28064
1.86037 3.22235 2.71609
2.06843 2.37347 2.93555
0.875211 3.05892 2.56147
1.73031 3.82899 2.54308
0.873538 2.35905 2.88071
1.44559 4.27288 2.23816
-1.19352 0.324739 3.8947
3.97118 1.58548 3.34004
3.25696 -1.07146 4.06548
2.15337 0.695092 3.97704
1.32226 1.58558 3.45722
2.67533 5.12609 2.50355
3.61607 -0.855503 3.9589
-0.610609 2.30884 2.91355
2.65559 0.46425 4.08789
1.5599 2.54811 2.88738
2.12889 3.11218 2.73082
-0.193871 3.20954 2.49714
1.19852 3.78105 2.43308
2.36141 0.889485 3.7267
1.00046 4.7053 2.27232
-0.121189 1.74926 3.07664
2.84076 3.99153 2.54459
2.13116 3.27344 2.67948
0.462002 2.42347 2.80218
-1.15539 0.253087 3.94247
3.26528 -1.32039 4.02224
-0.518284 0.866615 3.77645
-0.293403 1.70108 3.19941
0.532969 -0.53994 4.79604
-0.568359 2.04342 2.93497
1.60979 1.31271 3.60906
-0.389657 3.76406 2.28264
-0.545323 3.40813 2.39652
1.04575 4.56756 2.27009
1.76 2.8863 2.80108
0.800423 4.14478 2.32236
2.36199 -0.360956 4.56269
1.23306 1.48587 3.46497
0.00540417 4.02394 2.17921
2.77297 2.23766 3.05219
0.270226 -0.864976 4.87272
-0.0525686 3.43054 2.35935
-0.0827751 0.639933 3.96024
2.54464 3.02788 2.75373
-0.785661 2.11903 2.91451
0.469272 3.55649 2.40494
-0.0404644 1.44013 3.4993
0.259301 -0.709002 4.86283
-0.275278 4.1607 2.20627
1.03745 2.84268 2.64189
4.22043 1.98248 3.53551
-1.88323 -0.645004 5.45401
1.71185 1.01288 3.75469
-0.209818 3.27568 2.49941
0.602371 2.53131 2.72916
4.04373 0.511023 3.85361
0.191322 -0.304924 4.43253
1.62019 3.96384 2.39194
2.91841 0.558566 4.10204
-0.617062 1.19126 3.44638
4.00213 -0.852866 4.59979
-0.29979 1.99739 3.03947
2.0947 2.79563 2.83361
1.54184 3.50962 2.58988
1.03884 4.1532 2.44481
1.42357 0.741402 4.16239
-0.628208 1.92671 3.06561
3.85175 -0.705548 4.44078
-0.0629841 1.1293 3.58807
-0.660451 3.31256 2.45858
0.541263 4.16454 2.39039
-0.691292 2.59383 2.65513
-0.481937 3.10417 2.58758
0.535652 2.33763 2.85238
0.470076 4.23366 2.21163
-0.217291 -0.0216675 4.39778
0.320929 1.61494 3.25107
0.698087 3.69042 2.43793
1.67053 3.07579 2.70584
-0.479 2.28921 2.90387
2.55445 4.99843 2.47553
0.0732196 0.142428 4.49352
-0.442284 1.62755 3.48033
1.30435 3.76547 2.43538
-0.257662 2.45122 2.74793
3.03539 3.53594 2.82392
-0.122783 3.7661 2.35445
0.760307 0.987714 3.97674
0.770307 1.87424 3.38334
1.06083 2.43583 2.86814
1.21374 4.44952 2.24799
-0.167614 3.11155 2.50246
2.86217 -0.239865 4.27309
1.61518 0.840865 3.99994
2.70666 1.63727 3.24011
0.878256 3.90464 2.40979
-0.359364 1.64112 3.27176
-1.1671 -0.809587 4.01361
5.0794 0.559282 4.02591
-0.903032 0.490671 3.85293
0.806868 3.07996 2.59351
0.451017 2.32564 2.83812
3.9743 -0.890242 4.72013
0.628498 -0.820539 4.744
0.766673 0.607382 4.07579
1.0202 3.77405 2.4384
4.16439 0.801364 3.61428
1.67086 4.67705 2.26455
0.315306 1.79045 3.20988
-0.554856 3.69399 2.3041
2.76716 2.52098 2.90682
-1.10598 -1.43365 4.33299
-0.489945 0.247572 4.13807
0.0557616 3.19232 2.49725
2.82965 0.288886 4.009
2.70229 1.68534 3.33194
3.38341 -1.12072 4.19458
1.80485 0.826622 3.99969
0.701256 3.92485 2.41678
1.82949 3.26474 2.67328
1.33844 4.62899 2.25136
-0.134913 2.45219 2.85651
-0.673935 2.85896 2.64245
3.54766 2.15434 3.12582
4.69397 -0.515818 4.09355
1.08601 1.39118 3.47889
-0.103421 3.9226 2.18495
0.806357 3.48836 2.49513
2.24728 2.89198 2.83481
2.07824 2.06588 3.09417
1.69234 -0.364093 4.53549
