ply
format ascii 1.0
element vertex 1908
property float x
property float y
property float z
end_header
1.14503 -1.13181 3.05935
0.129102 -1.22974 4.55979
3.02736 1.48779 3.16327
-0.220901 3.00301 2.50537
-1.30611 -1.38844 4.23023
-0.872445 1.54011 3.15449
0.463647 1.76631 3.10821
1.78977 4.50957 2.54099
-0.986661 0.109614 3.02883
4.74296 -1.75261 3.21223
-0.0874732 2.92321 2.52206
5.09548 0.443419 3.35129
-0.11979 3.13898 2.51287
0.866252 4.38111 2.49113
1.37203 1.96185 3.21317
-1.1868 0.39621 3.86214
-0.679646 3.06191 2.4582
4.0403 -0.531271 3.65895
4.91921 0.443609 3.37353
3.11601 1.62432 3.22322
0.297944 -2.02317 1.86064
1.00272 0.641584 4.14153
1.23635 4.46676 2.5018
1.56535 0.834469 3.65583
2.77048 0.122688 3.79327
3.45759 3.22724 2.85585
1.64505 3.3523 2.78079
0.540364 0.351472 4.35451
4.048 0.721368 3.43438
2.24582 1.91114 3.19132
-0.410564 2.12779 2.80379
3.26078 -1.64541 4.34986
0.152267 0.0653562 4.3374
-0.817099 -0.361256 2.97208
0.882027 3.47019 2.69508
0.181649 -2.38113 2.99176
1.09829 2.11733 3.14176
-0.0664884 3.25301 2.50633
2.17959 5.07631 2.40738
1.37215 -0.249667 4.49763
2.11405 3.57795 2.80599
-0.410207 2.13738 2.6376
-0.573018 0.924338 3.08339
-1.33837 0.139386 3.31024
1.10242 -2.01089 3.05215
4.67108 -0.263031 4.37463
0.583739 3.52418 2.60471
-0.934826 2.33422 2.88216
-1.13306 1.53624 2.94569
0.836872 -1.31294 4.31238
3.37764 -0.116556 3.81393
-0.00937979 3.07435 2.50872
-1.06363 1.30449 3.17063
2.62785 0.392618 3.8726
2.22677 1.74252 3.18212
2.09516 4.059 2.69279
2.90456 0.484592 3.86624
1.08542 3.10424 2.70476
4.20676 1.94066 3.10192
2.67326 -0.386466 3.74302
0.722718 1.88579 3.207
1.94391 4.32407 2.56442
3.63806 1.68274 3.18942
2.15666 -0.294268 3.56355
-0.715148 0.100243 4.2985
-0.203411 3.10837 2.47151
1.84635 4.34815 2.52763
4.76311 1.3622 3.3507
0.908876 0.216505 4.51127
3.08992 -0.525683 3.76019
-1.1521 2.22122 2.95216
1.76744 2.07566 3.20741
-0.245515 1.53505 3.30184
0.711408 3.36893 2.65692
2.91302 1.78038 3.12806
-0.392257 1.3594 3.23787
0.684329 4.62324 2.37506
3.32636 -0.254722 4.27087
1.41444 3.35286 2.75407
2.49091 -1.43945 3.32463
-1.0083 1.43104 2.91618
1.05648 -0.413383 4.81192
4.61909 0.756164 3.38521
0.698577 2.18277 2.94806
4.03079 0.185383 3.79118
-0.00221046 2.08614 2.81954
1.15045 -0.232308 4.6054
4.23746 -0.369411 3.82454
0.611374 -2.03447 2.03899
-0.058544 3.33569 2.51379
0.889055 3.5125 2.66446
-0.721131 2.35485 2.76523
3.77047 -0.0655687 3.73231
0.654349 -1.0927 4.30459
0.448154 0.369909 3.42492
-0.916691 3.45275 2.44482
2.77851 -1.53082 4.27409
0.615275 2.16305 2.80071
-1.03267 3.54702 2.4502
0.397577 1.11241 3.54778
2.08202 2.30337 2.99718
0.530989 3.66191 2.56596
0.506614 1.31249 3.58403
1.69733 1.01084 3.81182
-1.35145 2.74675 2.63794
1.91799 1.08221 3.57195
1.54096 3.77952 2.66924
0.593711 2.35118 2.65804
4.78225 1.24674 3.24186
-1.16123 -1.81091 3.40911
-0.266597 3.71159 2.45913
3.62314 0.615015 3.61149
-1.89955 3.65414 2.44109
-0.800568 1.22559 3.29953
1.48272 2.40723 2.92148
3.90147 0.307474 3.81803
0.141209 3.95166 2.59422
0.00272488 -0.644975 -0.562761
1.53136 2.62772 2.88239
-1.06394 0.449652 3.22127
0.795833 1.47175 3.56298
3.79359 0.768429 3.42161
-0.857935 -1.11843 2.89424
1.70649 0.794127 4.11962
2.65297 2.48733 2.9586
0.0125937 0.85872 3.64519
-0.816837 3.69489 2.30705
2.48074 3.3506 2.84187
3.3631 2.04931 3.1738
2.02649 4.83045 2.62159
1.39992 0.577434 4.04742
-0.712165 2.08907 2.90492
4.25077 1.45571 3.40943
-0.417228 0.542359 3.29041
2.90979 -0.600804 3.75045
1.41654 1.89866 3.15583
-1.52208 2.74458 2.75372
3.99322 -0.42144 3.94408
1.76767 3.30552 2.81194
4.78653 0.494228 4.15398
2.7786 0.473913 3.82044
0.138819 3.38265 2.57224
4.29155 -0.633768 4.10969
-0.698027 -0.186179 2.99557
0.242262 -2.23793 1.90252
0.632363 2.08288 2.90929
0.0707367 3.24798 2.51986
3.98064 -0.0569232 3.87961
2.51765 1.96104 3.20633
1.98658 0.566367 3.73652
-1.13646 0.234061 4.31727
-0.621071 -0.875329 2.92014
0.786829 3.50389 2.65611
-0.745171 0.233532 4.09918
2.10827 -2.37676 3.60167
2.10683 2.03255 3.00051
4.85414 -1.05535 3.86659
1.71877 -2.30501 3.60611
-0.163123 3.39195 2.44556
2.65104 2.16741 3.03592
2.5067 -0.158408 4.40197
-0.324834 0.0758395 4.31437
0.0816481 2.21696 2.8151
-0.705819 3.52139 2.45037
-0.0180244 4.55077 2.25847
1.87024 -1.63808 4.26647
0.0120332 3.63764 2.53291
1.42418 2.37671 2.89473
-1.37444 3.17637 2.37844
1.14894 1.07377 3.73147
-1.12235 -1.53928 2.80877
4.59489 0.516327 3.52066
2.59956 2.24929 3.01511
1.16517 3.74689 2.63515
-1.12616 -1.36204 4.22576
1.72544 2.51898 2.91323
-0.370839 -0.10121 0.678015
-0.863972 0.888381 3.24627
3.78979 0.784347 3.422
0.77831 3.85688 2.63104
0.369101 0.44912 3.40705
0.228754 0.297753 3.50133
-0.511502 0.469771 3.36969
1.75592 2.44971 2.94925
-0.757679 3.62133 2.311
3.92892 0.717103 3.55377
-0.832198 -0.960147 3.24573
3.56455 2.78635 3.0205
0.583257 3.9751 2.58898
1.27618 2.56116 2.78243
0.526793 -2.67519 2.71116
3.95796 0.89877 3.51911
3.37285 1.12032 3.41387
1.06303 3.97061 2.5558
-0.0832536 -0.378932 3.24005
-0.701847 0.783536 3.76886
1.03226 2.70237 2.7388
1.70314 4.02458 2.58848
4.23886 1.00469 3.44625
0.343394 0.074835 3.37624
-0.157146 2.56962 2.55863
4.22825 -2.21289 3.56428
3.68927 -1.51975 4.06707
0.500863 2.32382 2.78994
0.0869686 -0.786141 -0.710742
0.51205 3.60056 2.59236
-0.493448 2.34314 2.78396
-1.26458 2.36211 2.81964
0.849683 0.0287146 3.53491
1.18679 3.68068 2.63842
-0.299627 2.4187 2.63668
-1.18699 0.202086 3.27628
-0.372461 3.63225 2.44972
0.810207 1.12432 3.96069
0.664755 0.659118 3.5087
1.0281 2.37404 2.82272
-0.897214 1.2777 3.29654
1.69431 1.15064 3.83399
0.683356 3.81127 2.59287
0.0632994 1.04158 3.40604
1.79647 1.18941 3.55569
0.66125 -2.63066 2.74838
0.547423 2.43219 2.63697
4.16222 1.22162 3.4003
1.53394 3.86725 2.61294
-0.560311 0.185024 3.32366
3.12007 0.708146 3.93795
-0.553768 1.44983 3.3568
0.821211 4.05593 2.65731
2.14611 2.66545 2.90496
-0.122843 0.683918 3.4509
-1.11971 -1.54605 2.80792
1.49257 0.913779 4.0833
0.277153 4.05855 2.57842
0.0161782 1.49708 3.40298
-0.740933 2.53807 2.54453
0.372792 -0.00965768 3.43187
0.38266 0.189944 3.52461
-0.763066 2.79627 2.57193
4.69866 -0.511088 4.09004
1.14431 1.59518 3.38852
-0.385139 3.8071 2.31919
1.55869 -1.31671 2.95696
-0.290384 -2.3437 3.17097
2.31758 2.7515 2.92744
1.79695 4.05988 2.53914
1.77021 -0.302309 4.50502
-1.07242 1.45093 3.44258
0.730115 -2.59604 2.27639
-0.367447 -1.23549 3.1476
0.325374 2.86596 2.58762
-0.504352 1.89393 3.21896
2.6512 3.63268 2.74047
1.79009 4.0878 2.50414
0.522133 2.78611 2.6032
2.21858 -2.44856 3.61552
0.016147 -2.89179 2.76964
0.697957 1.63889 3.22511
2.72111 -0.674156 4.46547
-0.319608 1.91489 3.15835
-1.14156 -0.760677 4.00704
1.63246 4.16212 2.49363
1.22315 0.0981708 3.44447
0.706808 2.99697 2.65691
3.9743 -0.890242 4.72013
0.628498 -0.820539 4.744
3.32797 -0.542463 3.75753
-0.863875 1.47771 3.1577
1.50438 4.56145 2.5238
1.78136 0.254036 3.65607
0.33716 1.92751 3.07868
-1.6862 1.46166 2.87289
-1.10598 -1.43365 4.33299
-0.0972035 3.0815 2.51246
2.85573 1.58406 3.24533
3.38341 -1.12072 4.19458
1.12578 4.51891 2.50447
1.82209 3.14661 2.81396
4.3792 -2.08174 3.71956
-0.35186 1.21171 3.62588
0.880604 3.79788 2.65213
1.05945 2.43681 2.82585
-1.30818 0.874714 3.27542
4.66949 1.25035 3.17111
2.20305 3.86428 2.71385
1.3178 1.0942 3.87244
-0.478929 -0.0331897 3.37243
-1.12533 -1.53753 2.80902
-0.761718 -1.05798 4.31561
1.53256 2.40713 2.94419
1.37768 -1.391 0.0956932
-0.332011 2.55346 2.58871
-0.792747 0.756344 3.25187
2.7076 1.07571 3.4807
0.675888 3.92436 2.61641
3.95726 -1.53654 4.34665
1.11801 2.55845 2.86918
-0.112676 -0.00358763 3.28406
-0.956413 -1.32061 2.88017
-0.254481 1.31027 3.56721
0.491535 3.98162 2.59499
-0.795858 2.72392 2.57272
2.39316 4.11863 2.73626
0.217853 -0.63115 3.29132
0.775955 1.57235 3.44703
0.0904199 4.04671 2.56478
0.19403 2.52808 2.56494
0.208671 -0.130802 3.2794
0.418878 4.0332 2.52578
3.41791 0.962545 3.32417
0.743563 1.59836 3.3138
2.0983 2.80317 2.88036
0.672612 4.06378 2.51196
3.78838 2.42363 3.02441
-1.01553 -2.17462 3.12265
1.08646 -2.59844 2.92306
0.136281 1.85729 3.2978
1.16653 4.1381 2.51725
-0.596059 0.0569576 4.17395
1.75119 0.101496 3.5747
-1.08693 3.08231 2.43479
1.31988 2.96445 2.78969
-2.38571 2.69493 6.39351
0.163328 4.11703 2.39604
1.41905 0.0322244 3.39466
0.480576 2.7612 2.58868
-0.270181 0.933436 3.49935
1.89462 3.15301 2.84197
1.55706 -0.287938 4.6601
0.892674 -0.849414 4.75542
0.021211 1.91624 3.13998
1.23506 -0.7697 3.31198
2.44087 5.40382 2.69579
1.53834 -1.505 2.93174
4.2361 1.59502 3.28242
3.98097 -0.320072 4.17163
0.990581 1.82095 3.29702
2.0389 4.67373 2.63953
-0.386421 2.9412 2.52652
0.480119 -2.13305 1.94356
2.40431 3.27191 2.83237
2.04767 -0.708467 4.99775
2.00197 4.12634 2.60112
2.49388 1.81598 3.25412
2.92354 -1.95089 3.74234
-1.03883 -0.417775 4.21638
-0.612259 3.1038 2.50993
4.4705 1.67023 3.31385
1.61537 0.548618 3.61831
-0.46475 1.95369 2.99
0.708563 4.50934 2.51013
3.75508 -0.252355 3.73243
1.22895 3.32292 2.73468
4.57084 -1.05874 4.80964
3.9925 -0.734662 3.90177
0.0395444 -0.818103 4.72031
0.330246 2.06706 3.04389
2.87634 0.205371 3.80559
3.21572 1.31019 3.32656
1.08087 4.05489 2.50957
-1.28354 -0.303557 4.08882
-0.0941825 -2.37623 3.23557
-0.136377 2.75138 2.51889
-1.41153 0.981469 3.20527
3.28024 1.22066 3.34874
-0.704259 -0.124437 3.00376
-0.687262 3.90509 2.18493
0.741412 -0.571725 3.38272
-1.21211 -0.037957 4.12774
0.704542 2.72418 2.64131
-0.315148 0.982499 3.50449
1.81724 3.0604 2.83523
2.79275 -0.531285 4.23958
0.990948 4.16426 2.46153
2.82674 1.5064 3.25568
5.40284 -1.40585 2.98329
-0.141874 2.87201 2.54409
4.31606 1.52576 3.33787
3.03513 3.59085 2.98678
0.769196 -0.854063 4.7187
3.52658 1.41009 3.43831
3.98785 2.27174 2.9902
1.6438 -0.767596 4.50048
2.67022 4.46359 2.53727
2.06158 0.195621 3.71789
2.40963 -0.755252 3.44685
2.82567 -0.686432 4.40888
1.25009 3.1387 2.76484
1.21676 1.86708 3.30656
-0.857433 2.09462 3.00435
1.86442 4.47701 2.54392
0.675124 3.23213 2.65688
3.31975 -1.23355 4.74638
-1.53412 0.409505 3.01437
2.8783 1.63067 3.18763
4.63072 0.661628 3.76546
1.17327 -0.997957 4.84551
-0.578335 3.13737 2.53152
2.91812 -1.94933 3.74362
2.71465 0.0754113 3.78585
-0.190881 2.04551 2.83418
-1.32926 1.30843 3.39037
0.834093 3.34142 2.65667
-0.653775 1.25315 3.13812
1.04227 -1.66998 4.65776
0.611246 2.00732 3.01243
2.15822 4.61105 2.62744
2.83311 0.754219 3.70129
-0.321085 1.55186 3.27846
-0.0269759 3.20817 2.5331
-1.03801 1.87397 3.04582
4.12147 -0.446678 4.0012
2.50945 0.615867 3.7781
-0.723222 2.16581 2.73694
3.95899 -1.04778 3.659
1.65153 -1.89697 1.62081
-0.390949 3.32383 2.49461
3.55387 0.537158 3.80352
-1.31072 3.54987 2.2784
4.77483 0.872111 3.30419
2.04101 2.01535 3.108
-0.488168 3.41738 2.50496
-1.2781 2.86921 2.47488
1.71805 0.31926 4.14287
2.13342 2.1636 2.97256
-1.7379 2.92575 2.72393
-0.537827 3.42651 2.44934
-0.398355 0.458907 4.13447
0.382137 4.38117 2.25718
-0.870585 1.3432 3.07548
1.05083 3.64116 2.65636
1.1369 2.17799 2.92069
0.338793 0.0448816 4.43541
-0.600212 2.35951 2.70385
0.899339 3.68202 2.62793
-0.249684 -0.197016 3.02885
-1.30984 3.04898 2.53487
3.54976 0.0295216 3.97582
-0.828965 4.05957 2.20425
-0.581746 1.94444 3.1868
1.99847 0.124279 4.16218
0.928182 0.0270125 3.44251
-1.68002 1.43871 2.97752
1.48705 3.05635 2.8019
-0.384749 -0.825883 4.49106
1.17403 0.391331 4.33815
-0.9227 1.87375 3.26499
0.518374 2.86 2.61339
-1.56829 2.06562 2.83048
1.91929 0.079656 3.66909
3.99157 -0.352978 4.09799
4.65996 0.922491 3.30986
3.80464 1.58306 3.24214
2.50151 4.83861 2.73706
-0.701047 3.03539 2.44318
3.96473 2.16108 3.02587
0.22447 0.0326108 4.42799
-0.520254 1.94566 3.08364
1.10222 4.34606 2.49062
1.09665 -0.763962 3.31653
-0.0643916 3.00279 2.533
-1.49483 0.233474 3.00285
0.954319 3.32509 2.708
4.37774 0.572292 3.40433
-0.0897074 2.02631 2.93062
1.90611 4.25884 2.53704
2.27063 -0.53171 4.38371
1.17153 3.21391 2.69166
2.32528 0.288446 3.75296
-0.338057 2.07381 3.04901
4.0044 -0.801486 3.92701
-1.06215 1.73807 2.95513
-1.03331 -0.275145 4.19247
0.52742 3.41259 2.62103
-1.11473 -0.470743 2.86223
2.39046 1.97906 3.11255
-1.21128 -0.6801 4.24701
3.89907 -1.17457 4.06276
0.97184 4.74115 2.37957
-0.0990807 -2.16975 1.75327
2.31924 3.38748 2.80649
3.10765 -0.717495 3.73444
2.10449 -0.719095 4.86617
3.32622 1.83024 3.19022
0.0336442 1.14658 3.3461
2.74765 1.97927 3.04053
0.500172 1.18364 3.574
1.23547 3.52632 2.71546
-1.29769 4.03734 2.15696
1.51787 3.65353 2.77088
0.344004 0.856029 4.18557
-0.101255 1.21453 3.39248
3.9406 -0.0267822 3.83332
0.718005 2.25922 2.85285
3.98427 2.09143 3.17486
1.13517 3.67498 2.69797
-0.67821 0.0772408 3.02799
0.126981 4.26282 2.2311
1.88475 5.06194 2.62401
-1.48477 1.8056 3.22432
-0.841321 2.42492 2.65717
3.60453 0.420063 3.84684
-1.48453 0.00767662 2.6942
1.34637 3.71018 2.68211
2.91334 0.78613 3.6114
-0.217478 2.4123 2.81497
-1.36219 0.209353 3.25915
-0.0797384 -0.171013 0.80248
1.22593 0.69093 4.03403
-0.255062 3.65133 2.479
1.40721 2.56934 2.92453
3.72369 2.15053 3.18874
1.91232 1.16145 3.58868
0.213603 3.76113 2.53579
0.025821 -0.0133458 3.36259
-0.913737 2.59616 2.7677
-0.673042 0.62392 3.36818
4.4572 0.835596 3.60155
1.30533 0.480501 4.15914
0.0338433 3.85868 2.53482
-0.225904 -0.663605 2.93566
4.95582 -0.731557 4.05753
-0.923414 2.17897 2.82453
-0.843589 -1.59618 2.85236
1.41411 3.47623 2.74304
0.468753 2.02205 2.92585
-0.298536 0.603691 3.32667
-0.18983 3.24233 2.49205
4.24163 -0.635575 4.0133
1.62546 0.756932 4.08947
0.690176 3.48348 2.64223
-0.42095 0.688386 3.16879
1.9751 5.27662 2.66346
-0.226868 2.20064 2.75843
4.20411 2.19972 3.2832
0.945466 2.17774 2.99532
-0.0413325 0.855617 4.02666
-1.15354 2.71857 2.6705
-0.87093 -1.13863 2.24357
-1.08729 3.44097 2.43767
1.51841 0.16572 3.49492
0.142292 2.29596 2.71667
0.660593 -1.02392 4.19431
4.23043 0.167627 3.83319
-0.542007 3.52543 2.47531
2.18231 0.605683 3.84846
3.64251 2.5413 3.01268
0.545223 2.23705 2.79573
0.281062 3.61703 2.54293
0.43262 0.582905 3.4615
-1.4609 0.857214 3.26617
0.301923 0.197685 4.38216
1.41073 3.78173 2.67401
0.660632 -0.00431674 3.48343
2.11602 2.32021 2.94023
0.711173 0.957382 3.83188
-0.993887 -0.181596 2.88874
-1.81035 0.218531 4.89709
1.72704 -0.926913 4.66112
2.99114 0.982182 3.58898
1.74988 3.81244 2.65742
1.50352 5.00823 2.58253
2.10325 2.49461 2.93834
-0.807088 -0.210709 3.27493
2.86442 0.886424 3.57254
0.335604 3.85604 2.54469
4.52282 1.11126 3.33182
0.180001 2.41653 2.70406
-0.677086 1.09045 3.35504
0.997931 1.42091 3.37355
0.24889 3.87935 2.51039
2.89226 -1.59021 4.33348
-1.4163 3.36216 2.41235
3.48878 2.52692 2.93167
-0.204596 0.432395 3.43767
2.36868 1.22171 3.61846
-1.28992 2.01542 2.94275
1.94465 -1.19587 4.43359
-0.0701703 -0.147605 0.856444
2.36151 2.54813 2.91068
-0.518688 3.84283 2.38489
-0.160248 2.75606 2.59173
0.293157 -0.167406 3.2964
-0.478251 1.66963 3.28521
0.213151 3.99044 2.48935
0.617759 2.63733 2.62297
0.0616674 -2.30535 3.23858
0.59757 4.13362 2.55102
-0.152587 1.64528 3.33734
3.90174 -2.54522 3.36906
2.0431 -1.48156 3.64923
3.15893 3.49931 2.98435
1.86785 4.14214 2.54953
2.91511 2.85512 2.93544
3.56255 1.28555 3.38684
3.88866 2.19214 3.02284
4.35133 0.0663808 3.73466
1.13484 0.825929 3.57483
0.0541706 3.49392 2.54596
-0.443678 -2.56444 2.78426
1.45678 2.23413 3.05845
-0.288783 3.50305 2.48357
4.11158 0.371941 3.5648
2.75281 2.20963 3.00969
0.626702 3.61013 2.56254
0.389392 1.29112 3.56995
1.83073 2.21954 2.99059
3.26711 -1.4793 4.10682
0.772542 3.74769 2.61018
0.492282 1.21974 3.77906
-1.23386 0.571246 3.27951
0.66718 0.785702 4.1244
0.315284 2.41386 2.71774
-1.52689 3.72054 2.42225
-0.542884 0.872353 3.76271
-0.845242 1.09046 3.28935
4.73626 0.667092 4.235
0.443077 2.36797 2.77143
-1.80431 3.64366 2.44998
-0.680935 3.58118 2.35612
1.71112 2.63708 2.93718
0.525936 0.554246 4.10739
-1.02203 1.51456 3.2634
2.07495 1.26313 3.6137
-0.584202 3.66247 2.3765
1.32451 -1.40928 0.00948721
0.884241 0.497623 3.47781
-0.265844 -0.020998 3.29782
-0.806991 2.58642 2.67345
-0.961324 3.72676 2.34044
4.06067 0.795411 3.60546
2.57987 3.78309 2.70639
3.50076 -0.794701 4.69842
-0.476326 3.83048 2.39051
-0.482668 -0.904874 3.23171
2.70807 2.57902 2.91454
-1.87331 1.30916 2.77894
-0.539715 -0.52291 4.54116
4.43753 1.07167 3.71383
0.903022 1.58453 3.34429
-0.667136 3.80988 2.32022
0.120674 0.224254 3.48017
2.42386 -0.944405 4.7142
0.356312 2.68782 2.59345
0.724584 4.09604 2.52969
-0.060996 1.63885 3.37774
0.909852 -0.890878 4.99369
-0.0363058 -2.44362 3.25123
0.500445 2.62056 2.60984
1.0234 1.74149 3.36527
-1.13789 -1.60554 2.8023
0.417595 4.12818 2.47854
3.27518 -0.535124 3.75077
-1.11122 -0.442696 3.17478
1.01366 2.91016 2.70946
2.09141 1.47955 3.3462
0.439527 4.20419 2.48587
3.82312 -0.766926 3.71789
-0.211298 -1.29231 4.64026
-0.503993 2.78485 2.52401
4.46514 -1.94662 3.71057
-0.889798 3.08788 2.55146
-0.819151 1.61197 3.16724
0.945658 -0.7043 3.32862
0.226574 -0.790083 4.54418
1.65458 1.72825 3.20527
0.243161 2.8968 2.5461
-1.09212 0.958756 3.19499
0.433094 -2.22751 1.89196
-0.408646 1.88776 3.13602
0.630966 -0.406509 4.70214
-0.654077 -0.646658 4.00338
2.5395 1.09203 3.46974
2.513 2.93209 2.86509
-0.00192284 2.47135 2.55899
-1.24115 -0.748132 4.88449
0.929348 -2.73445 2.81261
0.470073 4.11562 2.63224
-0.393198 -0.312297 3.23941
-0.404654 4.15095 2.35709
1.2925 1.4865 3.44374
0.0531971 3.99705 2.53084
4.09457 -1.2346 4.42825
2.19354 2.69518 2.86937
0.703965 -1.82651 3.33731
-0.524652 3.92193 2.40109
0.595316 1.58155 3.5882
-0.783132 -0.835352 4.00047
1.85145 2.63208 2.86804
0.192413 0.0986716 3.35665
0.761705 2.79987 2.65923
1.23549 4.05232 2.52387
1.69581 0.693984 3.67692
5.0746 1.56692 4.13672
-0.760183 1.64279 3.3172
-0.902431 -2.1286 3.1271
-1.36233 2.91153 2.48369
0.550781 2.68835 2.60423
0.765164 4.17158 2.52595
0.203298 -0.879036 3.08103
-0.35638 -0.436199 3.26533
-0.234974 2.81366 2.41612
0.702845 -2.05086 1.91842
2.55335 1.51232 3.24027
1.22679 4.21926 2.52384
-0.50565 2.97011 2.61895
-0.797419 1.18401 3.19618
2.26653 4.50648 2.6252
2.40109 1.4769 3.30181
0.439052 -1.08204 4.66655
3.88739 0.0333889 3.85268
-0.682549 1.99725 3.11807
-0.282483 2.99864 2.51362
4.57399 0.694807 3.37974
3.56553 0.0731475 3.81222
1.24767 -1.56265 4.77499
2.01224 0.488568 3.96297
-0.975772 1.53521 3.14442
1.80272 4.5572 2.54268
3.01934 -0.222958 3.79869
2.29 1.78153 3.17658
0.615521 -2.36265 3.05972
1.86371 0.0184249 4.3014
-0.782606 0.179 4.06141
2.73582 1.63317 3.18181
0.431482 3.09685 2.52842
0.847188 4.53348 2.50121
2.02896 3.22691 2.84111
4.63993 1.18138 3.37131
-0.5007 3.18614 2.44086
-1.51685 -0.42121 4.28467
3.17291 -2.50278 3.57966
2.57577 -0.380436 4.5354
2.01472 1.94424 3.11139
2.98971 1.72357 3.0809
1.66146 5.01154 2.60079
4.6418 0.27998 3.76603
4.6514 -0.379605 4.50544
-0.439866 3.14251 2.45921
-0.334404 0.508606 3.30379
2.40003 0.0456125 3.75307
0.127114 -0.638806 5.05008
1.85146 3.53922 2.7687
1.3238 4.72937 2.38173
-1.62506 2.86462 2.71899
1.23999 2.15125 3.02454
0.981796 3.40856 2.65795
-1.33216 0.0800003 3.31243
0.235841 -1.9086 1.72135
1.78317 2.13595 3.21739
3.97302 -0.118505 3.64177
-0.793969 2.77976 2.58399
-0.224142 -1.46867 2.95237
0.109535 0.259531 3.38034
-1.1225 -0.448984 4.38619
-0.279374 1.753 3.35306
0.732028 4.04643 2.56249
-0.759825 -0.297382 4.64653
-0.408068 2.67787 2.58207
-0.453405 -2.21087 3.18357
0.40885 1.65102 3.50427
-0.02881 4.07361 2.48159
3.70377 1.25623 3.37982
1.8468 2.90264 2.88311
-0.538581 -0.718274 4.31094
2.69763 3.66233 2.87777
-0.0341231 4.04029 2.40445
-0.463712 0.182729 3.36478
3.17406 -0.7446 4.41889
-2.00534 1.68465 2.81809
3.34041 -0.98542 4.33001
0.132373 4.07672 2.38298
1.7324 1.65789 3.25672
-0.586834 -0.0944967 3.27618
0.857947 2.95771 2.67544
1.00091 0.0207084 3.43566
4.23224 1.40774 3.5635
0.360265 -0.54536 4.59395
4.33233 1.01672 3.40136
1.59879 2.96869 2.82445
3.84727 2.27866 2.9945
0.649099 3.11096 2.62461
0.631017 -1.49251 4.72158
1.29523 -0.708024 3.31732
2.17769 1.74972 3.22902
-0.623878 1.15353 3.24156
1.06855 -0.733472 3.32103
2.84212 -1.15642 4.12503
-1.20718 -1.10882 3.00057
0.898216 1.89818 3.28503
4.19248 -1.31813 4.37646
1.74385 3.12931 2.8145
3.83196 2.03178 3.0929
1.74084 3.34428 2.80417
3.98409 1.69434 3.32309
1.25726 2.05074 3.22984
1.85233 0.593681 3.90349
-1.00748 3.16924 2.49816
3.77527 -0.492213 3.74217
3.51775 1.77743 3.39814
3.81484 0.357317 3.73723
-1.61027 -0.31248 4.29843
-1.11092 0.602352 2.71297
3.99879 -0.72893 3.6889
0.29183 -1.99978 1.79708
-1.0839 0.205697 4.07711
-0.940402 4.33225 2.17037
0.34606 3.21627 2.52885
1.99037 0.339004 3.73447
4.34869 0.152797 3.92783
1.93069 2.02664 3.20881
1.71867 2.13772 3.09685
1.40165 0.156467 4.25042
1.4423 3.52602 2.72809
4.15501 -0.238258 3.93394
-0.974235 -0.877137 2.92042
0.157121 2.11356 2.91386
-0.939362 -0.549621 2.95493
1.55694 3.49449 2.7776
-1.24172 3.58561 2.40033
1.91475 3.59591 2.75554
0.709076 -0.122286 4.67927
-0.612169 0.103669 3.02022
1.28754 2.2612 2.96934
-1.47323 1.20396 3.28987
2.70147 -0.0243271 3.98289
2.31147 2.07053 3.00244
-1.38958 3.86923 2.30816
-0.143906 1.18619 3.34313
-0.321599 3.51084 2.48834
2.69513 -1.46741 3.40343
-0.281762 0.438752 4.2782
0.861037 3.23132 2.68392
1.11904 -2.23357 3.15397
0.239993 -2.18902 1.79683
0.0687367 1.98198 3.01727
3.4898 0.276714 3.72503
4.31953 2.03868 3.3186
0.737771 3.14584 2.65268
1.35219 0.26727 3.48132
-0.341177 1.9555 3.00773
1.60673 4.37656 2.514
2.69019 1.78695 3.14939
-0.792174 -1.07515 2.84749
2.48098 0.142027 4.13958
1.29297 3.28073 2.70985
4.79884 0.387643 3.37086
-1.56177 -0.585422 4.18002
1.87974 0.260333 4.06125
1.05471 -1.73397 3.02531
2.48445 2.00622 3.17294
3.20239 -1.61945 4.30666
-0.206051 3.30083 2.49512
0.578034 1.15197 3.56039
0.159058 2.10345 2.98551
-1.24113 -0.110855 4.28722
3.48408 -1.49609 4.14246
-0.0863364 0.78137 3.32339
1.0874 3.36872 2.70668
-0.105031 0.686891 3.44654
1.95804 -0.33892 4.60559
0.506897 -2.09675 4.43745
1.35195 2.23202 3.04013
2.00916 4.5674 2.57172
-1.19423 1.51876 2.8532
0.343084 3.42848 2.57926
1.77547 -0.195595 4.29567
0.850897 -1.39054 4.46237
-1.10266 2.47359 3.06534
3.87088 -0.0289587 3.71396
0.754284 3.56411 2.65509
3.99469 0.266209 3.67384
1.88253 2.30304 3.01069
-1.03505 0.261474 2.8693
1.4932 3.73904 2.77688
1.98465 2.17822 2.9737
-0.635367 4.27534 2.20142
-0.828026 3.57254 2.44922
1.04405 0.942563 3.96805
0.239078 0.0654085 3.47916
-0.218179 2.46968 2.80516
0.22356 3.69569 2.54225
-0.72653 -0.741225 2.93838
3.33272 2.17232 3.1202
2.30665 1.1528 3.717
1.14663 3.80494 2.62823
2.61467 2.49366 2.99806
-1.05408 -1.84044 2.77095
-0.622922 0.754015 3.44894
1.80119 3.92253 2.69438
4.17356 0.707132 3.67121
-1.80197 3.13565 2.50306
-0.827436 0.64275 3.2617
0.113921 2.44603 2.72793
0.964032 3.90443 2.57102
-1.64559 1.83003 2.83114
3.9137 0.382961 3.8345
-0.494971 2.64516 2.62266
-0.0601208 0.925503 3.60328
3.5733 0.992722 3.42476
0.935749 1.48105 3.65405
3.11996 0.687064 3.75311
0.614811 -1.57252 3.33401
2.85523 2.57444 3.01126
-0.442692 0.062542 1.20594
2.5692 4.15006 2.77286
0.119422 2.52485 2.55878
-0.294373 -0.00550948 3.29404
1.97882 -0.827157 4.78959
0.779973 1.54555 3.57542
-0.0650541 3.86411 2.48589
-1.39801 2.36103 2.67513
1.17218 4.78019 2.5356
0.078521 2.45019 2.55362
-1.47924 -0.617307 4.63184
4.20384 0.888283 3.49215
-0.116546 3.86845 2.44066
0.932932 2.72686 2.69616
-1.56658 2.93914 2.64132
0.264319 0.0374432 3.3864
2.67015 1.36029 3.46481
1.10082 4.04348 2.57601
-1.09405 -1.68568 2.79594
-0.124631 2.61671 2.54554
-1.4463 4.12269 2.3209
-1.45713 -0.140346 2.69477
2.41899 1.25787 3.43048
3.31031 -0.987642 4.05139
1.18053 4.03298 2.51831
0.154514 1.7885 3.37274
0.341257 2.74347 2.5673
0.207416 -0.728839 3.14502
3.82622 -1.32897 4.56997
1.10056 4.1152 2.50111
0.418318 -0.556094 3.32821
-1.42414 1.06702 3.22575
0.963838 4.14764 2.46976
2.49913 1.6394 3.41991
-0.223084 -1.66289 2.92753
4.32128 -1.97486 3.73081
-0.517236 2.98668 2.57489
3.8203 1.39001 3.51846
1.57353 4.15853 2.45142
1.96602 2.9431 2.84899
-1.27125 1.49694 2.97446
-0.477066 3.01201 2.44851
2.88872 -0.445557 3.76928
2.72952 4.9432 2.58858
-0.445507 0.207174 4.13529
1.98727 1.83756 3.33648
-1.66951 1.41673 2.89266
-1.42928 0.419003 3.03986
-1.31406 -0.619541 2.98072
1.89389 0.459302 3.72712
2.80928 1.58946 3.27744
0.729982 4.36517 2.52193
4.17355 0.160004 3.94606
1.02981 3.02463 2.65582
0.848953 3.2543 2.65334
3.91258 2.01061 3.08015
1.37893 0.751858 3.59033
-0.361 2.06588 2.96049
1.81445 4.33098 2.52527
-0.776843 3.04435 2.41006
-1.8694 0.026027 5.43603
-0.940798 2.12043 3.05193
0.41209 -1.85113 4.6688
3.482 -0.469901 3.76851
-0.459807 0.203289 3.02096
0.932188 -0.149086 4.6198
3.18591 1.78195 3.12202
1.7306 3.38658 2.78716
1.16626 -1.73265 4.73478
2.84323 -0.0600504 3.95623
-0.595168 0.482193 2.91239
5.25322 -0.131467 3.22757
-1.35832 1.48467 2.94015
-0.014261 2.14004 2.82207
3.24282 -0.560023 3.97153
2.32023 0.374051 3.76341
2.16734 3.54629 2.80479
-0.944764 -0.35079 4.43798
3.39139 1.88124 3.18464
-1.23686 4.13993 2.13732
-0.121907 3.36283 2.55972
4.04712 -0.262352 3.90121
-1.55649 2.25853 2.83345
0.0767265 2.93086 2.49825
-0.26264 -0.68954 4.4528
0.22461 0.148948 4.39909
0.525957 1.84351 3.11593
0.0953533 2.85046 2.50664
-0.630968 1.5189 3.15621
2.95451 1.44965 3.21754
1.77858 0.270566 4.11531
0.961391 -1.51806 4.78893
0.396585 -0.161101 3.38526
4.32271 0.6292 3.45525
0.563411 -0.170192 4.75328
1.35055 4.44922 2.51376
2.14165 0.522602 3.74279
0.0967453 3.00707 2.48275
1.18389 -0.564161 3.33966
1.40779 0.0155483 4.32401
0.984708 1.975 3.2707
0.940181 2.00438 3.09715
2.26915 4.16201 2.74912
3.56339 -0.462991 4.03954
1.69666 3.33503 2.78871
4.25201 1.06811 3.43468
-1.31515 1.41369 2.88934
2.00438 5.16694 2.65258
2.46297 1.81644 3.27329
3.6092 3.04208 2.92212
-1.38106 1.62134 2.87163
1.10099 0.110565 3.44316
2.0309 3.29982 2.85104
2.10047 1.98935 3.10202
2.90049 -0.736632 4.50076
4.56597 0.285518 3.72581
4.16025 -0.266077 3.71699
1.34845 3.45382 2.73337
-0.227361 -0.429657 3.09373
4.36322 -0.678939 4.55511
-1.91011 3.46029 5.44392
4.13448 -0.235224 3.95726
4.35889 0.723343 3.40904
0.486824 3.27007 2.57911
-1.2481 3.54637 2.42667
0.74983 2.17582 2.87857
0.937226 3.47264 2.65259
4.21921 0.309252 3.73722
0.52953 0.773108 3.55342
1.41118 2.14221 3.04296
0.657814 3.55794 2.64953
4.19427 0.167875 3.58893
-0.0580832 2.26123 2.68759
-0.650805 3.52005 2.47916
2.18297 -2.52557 3.58596
-0.737874 2.30115 2.73772
-0.0828429 3.53505 2.46185
-0.208777 0.988468 3.29498
1.02304 4.76583 2.50498
2.85642 0.696158 3.58254
3.80946 0.546261 3.95727
2.50306 2.29158 2.98287
-0.577716 4.32772 2.25853
-0.0103697 -0.231405 0.868641
3.16849 0.64268 3.68689
-0.0143333 3.63225 2.48802
-1.28273 0.572288 3.27993
0.760387 0.41897 4.21055
0.484162 1.3357 3.69783
-0.167431 3.70456 2.48134
-1.02464 0.0730628 2.78277
0.65599 2.4228 2.67335
1.02932 -1.01958 3.86999
1.72103 0.516768 4.10176
0.257344 3.78545 2.50527
-0.958153 1.00696 3.63943
3.08861 2.30415 2.96952
3.31459 2.28079 3.01834
0.33305 0.0283285 3.47098
2.67952 0.186187 3.7969
1.01498 1.94671 3.17331
4.67407 0.0691037 4.0284
1.73608 3.2772 2.81682
-1.15239 2.74732 2.57056
-1.43845 1.32064 2.7726
-0.631396 2.00945 3.0673
4.28498 1.9666 3.44002
1.31639 0.49768 3.51714
0.463201 0.528426 4.16577
1.2745 3.1597 2.73234
5.01169 -0.145219 3.44306
-0.678831 3.19847 2.44582
2.8917 2.73832 2.95156
1.56031 0.288984 4.19539
1.44367 1.96674 3.05767
0.819465 -1.78456 4.72027
4.12056 -0.406681 3.60162
-0.565373 3.09064 2.40962
2.13365 0.417684 3.90423
5.05737 0.357731 3.31762
1.14037 1.97599 3.11673
4.66911 0.20147 3.72896
-0.902155 -0.0826187 4.17757
0.834891 4.76332 2.38535
1.06084 3.48357 2.68312
-0.383193 0.474147 3.30129
-0.628656 2.10673 2.70655
2.51901 0.125833 4.07381
-0.36223 1.36378 3.30344
2.36068 3.46556 2.8204
1.2975 2.05087 3.0432
-0.166519 2.19423 2.77864
3.32415 -0.450329 4.06018
-1.10589 2.54007 2.69346
1.8296 4.9518 2.61492
1.762 3.57021 2.73385
-0.576495 0.245703 3.04968
-0.162172 -0.141132 4.46272
-1.48777 1.00178 3.39118
-0.235585 3.49273 2.48489
4.03915 0.216134 3.78074
2.49383 2.29552 3.09773
-0.371663 0.0807448 1.28265
-0.554039 3.55473 2.45067
0.446986 2.1909 2.77763
0.21463 4.2856 2.19384
0.945462 -0.771785 3.44307
1.28373 1.08716 3.61888
2.4779 2.34881 2.93544
-1.32183 0.0376477 3.27456
-1.02516 3.6602 2.45109
2.94697 0.837846 3.52621
-1.00165 1.06103 2.98855
1.70014 2.3271 2.92336
-1.14959 1.57106 3.21287
3.62976 0.681049 3.71642
0.519201 3.79134 2.59178
-0.276724 2.54369 2.61731
-0.934497 0.871231 3.22734
-1.17349 -1.4962 2.8223
4.3534 0.939815 3.80257
0.216415 3.84358 2.54843
-0.698008 2.59683 2.70735
-0.498032 -0.648802 3.259
-0.0579664 1.2166 3.81638
0.752684 3.9097 2.57698
2.69663 1.209 3.60724
0.424695 0.697722 4.23322
0.650652 2.55421 2.64885
-1.64809 0.522895 2.68836
-0.2263 3.89687 2.45849
-1.38716 2.10796 2.95142
4.57969 -2.17537 3.64987
1.8422 0.841495 3.79262
-0.776859 3.43118 2.45155
0.867136 2.17308 2.82776
4.81306 0.402002 3.62382
-0.422652 -0.887797 2.9031
1.73507 2.11539 2.99863
4.02117 0.416684 3.55851
0.887206 3.58572 2.62977
0.706052 0.1009 3.52917
-0.725906 2.38966 2.65426
-0.678568 4.17347 2.18011
5.027 0.695035 4.32707
0.137439 3.58605 2.52677
0.453834 1.28255 3.57511
-1.38704 0.516481 3.28087
-0.753089 -0.0535069 2.98834
-0.64375 2.37444 2.74337
0.610657 3.68002 2.5682
4.02905 0.540764 3.76531
4.57571 1.12942 3.48234
-1.52571 0.0670957 2.72128
-0.995561 3.59005 2.35567
1.03108 2.42831 2.82113
4.59881 -0.968218 3.64091
1.41403 1.23016 3.74176
2.16016 1.24925 3.64792
-0.294765 3.80171 2.49399
3.5076 0.271706 3.80704
1.16771 2.52461 2.76152
-0.759386 -0.125557 3.30586
3.03661 0.560003 4.07283
4.52359 1.02627 4.0681
1.26569 3.94 2.61973
2.03055 1.38058 1.06383
-0.304026 -0.0442452 3.23846
-0.212481 2.52487 2.6929
-0.437352 1.57305 3.48614
1.25094 3.97626 2.5894
-0.578065 2.62469 2.51689
4.27328 -0.768036 4.56615
-1.39736 2.14144 2.73715
-0.289919 1.46019 3.51143
0.315223 0.870948 3.69028
5.66957 -1.51551 3.0449
2.37208 2.64575 2.94045
3.16782 -0.602117 4.05008
-0.225959 3.90846 2.4169
3.21445 -0.797857 3.98684
-0.211749 2.75384 2.5254
0.308223 -1.05665 3.27187
2.29971 4.38764 2.62727
4.29134 -2.43115 3.54663
3.89219 1.21945 3.39324
-1.01143 3.81784 2.20211
2.28712 2.81153 2.93957
-0.61495 -0.155634 3.29897
-1.25473 -0.107042 2.80772
-0.853483 1.58386 3.26305
1.48195 4.08016 2.50762
0.988704 -1.53652 3.13522
4.63903 -1.39831 4.72443
-0.928393 0.312326 3.2631
0.732098 4.17409 2.48647
-0.539118 -1.09236 4.80127
0.832648 -0.707861 3.36121
2.00885 2.91086 2.82282
1.95013 1.55489 3.33046
-0.230643 4.13048 2.10404
3.81222 1.50433 3.27375
0.123344 2.93647 2.50715
-1.02502 0.264185 3.08374
3.23572 1.39988 3.23713
1.13094 -1.56715 4.79268
1.9418 2.95898 2.77976
-0.461068 1.50343 3.28595
0.354078 -0.993949 3.08163
-0.962667 3.49271 2.38772
1.74718 1.04563 3.74858
-0.33014 4.37671 2.27658
-0.349996 2.41993 2.7555
-0.291738 0.437265 1.27127
4.46272 -1.96558 3.584
2.16787 3.77758 2.73538
-1.13014 3.66319 2.17108
2.09613 2.22988 2.98755
-0.594579 3.60078 2.38856
4.22111 0.765332 3.54722
1.01308 2.44983 2.75628
0.735785 0.549422 3.48404
-1.2379 1.77959 3.10971
1.16237 1.15358 3.7322
0.319158 0.211361 3.47459
-0.806897 0.0156636 3.28401
1.36071 2.42872 2.88361
-0.83572 3.59556 2.31217
0.280947 2.49259 2.58145
-0.702034 -0.326089 3.26499
2.17985 1.35924 3.69097
-0.148896 3.87246 2.49818
0.215446 2.52682 2.64557
-0.0148892 0.571982 3.5292
-0.422074 3.79655 2.39254
0.995386 1.44406 3.64404
-1.85089 2.80074 2.77694
0.590994 0.917839 3.69095
1.38829 3.99974 2.56486
-1.01874 0.77285 3.71772
-1.29782 -0.112238 2.80644
0.573159 2.60339 2.61502
3.27396 1.13515 3.46105
-1.4904 3.29219 2.39369
2.33918 4.14597 2.65686
-0.835369 -0.191032 4.08211
1.42077 1.60096 3.40299
0.699669 -0.0309567 3.41296
0.748222 -0.949602 3.20874
-0.0235312 2.68662 2.49467
-0.137496 4.02964 2.39712
3.48131 -0.136803 3.95714
2.26562 1.40541 3.45888
3.99879 -0.908072 3.84773
0.100167 -0.427036 3.26666
0.641381 2.68622 2.63164
0.779394 -2.05806 1.91511
0.688466 4.16519 2.48825
-0.737412 -0.484994 3.92886
1.4907 1.68988 3.30364
-1.12128 -0.421418 3.23599
-0.688516 2.91524 2.50634
2.76085 3.56461 2.86861
0.152912 -0.299987 4.4942
0.356916 1.78693 3.29988
0.653581 4.19689 2.44839
0.173639 2.78421 2.53185
-1.55781 1.99892 2.80202
1.15981 3.15606 2.7256
-0.371333 1.35045 3.30618
0.24574 -1.26427 4.57735
1.35217 -0.972972 5.05818
0.841743 1.96372 3.26475
2.48604 3.01503 2.79662
2.88451 -0.0885251 3.81207
4.16534 1.22743 3.40482
2.21147 -0.717591 4.43314
2.05585 1.76084 3.41988
2.3066 3.95055 2.74867
4.25963 1.22024 3.41193
2.13268 4.34411 2.64378
-0.31943 -1.20147 4.41515
0.163514 2.06271 3.07362
3.33826 -0.20203 3.79719
2.72647 3.21802 2.84311
4.58971 0.912533 3.35879
-1.07385 -0.77768 3.72333
2.72724 1.66787 3.14473
0.444324 1.70144 3.43687
1.81039 3.96178 2.56104
0.425105 -0.983817 3.12948
1.93932 2.78557 2.87313
0.184535 0.490566 3.56183
2.2499 1.28908 3.44901
-0.22407 3.97497 2.41591
0.58492 -0.496385 5.32682
0.621669 -1.91112 1.92398
-0.272837 2.67057 2.60064
0.40794 -0.742819 3.23507
0.661 2.85706 2.62847
3.82482 -1.79907 3.82327
3.87201 -0.76496 4.2071
-0.455645 4.06706 2.41103
2.4878 4.47813 2.71348
1.25012 1.75488 3.4741
1.9626 1.54862 3.46644
1.97761 -0.552445 4.85495
4.132 1.98421 3.27019
4.69166 -1.76278 3.49647
1.9362 2.84163 2.83574
1.75644 4.11514 2.49057
3.08837 -0.0132199 3.82126
-0.000316679 3.02398 2.58143
3.35996 -1.0946 4.6594
4.00169 1.67179 3.3283
1.36398 4.19064 2.45758
1.7496 1.76511 3.29897
0.179644 2.8819 2.54874
2.47594 -0.879012 4.81376
-0.930808 0.904857 3.23658
-1.13565 1.94641 3.27987
0.276978 -1.49778 4.63411
1.91206 1.81929 3.31248
1.81342 3.20688 2.82513
4.1007 0.159964 3.57515
1.02258 4.4472 2.49715
2.7 -1.35011 4.60358
3.05786 -2.13237 3.71479
1.42958 -0.738188 3.31925
1.14115 4.58948 2.50902
-0.447538 0.628003 3.91738
-0.438673 2.08006 2.97881
3.87389 1.89427 3.13298
2.4085 -0.320082 3.67057
-1.43353 1.42324 2.81827
0.17973 3.15324 2.52639
-0.578539 1.98376 2.94235
-1.04178 1.09669 3.08797
-1.34022 -0.8544 4.23598
0.171831 3.09763 2.53988
2.39373 -0.0212246 3.74517
-1.4025 0.222321 3.03384
-0.670865 0.31462 4.08652
1.96743 3.44635 2.78577
2.4221 -1.42385 4.64713
3.82397 -0.396707 3.71312
-0.899605 2.19658 2.8836
-0.0270868 2.11336 2.98116
4.23176 0.253429 3.89182
1.47597 4.79587 2.39126
-0.353566 3.166 2.44643
2.75441 -0.413345 3.7612
3.59619 2.68156 2.97417
3.22043 -0.0348154 4.35238
2.52436 2.07642 3.06291
0.918603 0.274452 4.22692
-0.0735633 3.39546 2.52862
4.88994 -0.83912 3.80578
2.3062 1.97268 3.02517
0.2964 3.43321 2.5317
-0.139539 0.218186 3.32794
-1.42974 4.17983 2.21347
-1.21812 0.791467 2.84507
-0.616415 -0.239659 4.36538
-0.347277 3.44663 2.45179
1.95952 2.16745 2.98497
-1.02917 -0.0796649 3.7917
-1.15092 1.20178 2.91781
2.5724 -0.105914 4.12017
-0.0980051 1.88906 3.35145
2.12308 2.94014 2.87451
3.0726 -0.865816 3.72001
1.15002 4.07551 2.45224
0.691083 -0.722307 3.35855
2.736 0.106884 3.8764
-0.634393 -1.51023 3.1712
-0.143741 4.09488 2.34278
3.68685 1.46594 3.33176
0.548167 -1.03838 3.08368
-0.998016 1.30426 3.15527
-0.438627 2.98131 2.50912
-0.686655 -0.458358 4.84411
2.51877 -0.23761 4.43632
0.258426 1.81233 3.21008
1.34961 -1.36824 4.68769
1.46002 3.01553 2.7914
-1.48017 2.57956 2.74899
1.90984 0.75291 3.69386
2.35923 3.22123 2.80929
4.04242 -1.17894 4.53147
1.08546 1.95543 3.20144
-1.08415 0.5907 2.68607
-1.25824 -0.602748 4.2106
-1.02908 0.63587 3.26286
4.42003 0.957062 3.39872
-0.393311 1.92629 3.02239
4.06111 0.466792 3.48154
2.96964 -0.597082 4.10716
2.02059 4.01949 2.6526
0.458419 3.06101 2.59156
0.09292 -2.18025 1.94455
3.92466 -1.06118 3.6548
-0.0858102 3.22965 2.52393
3.82906 -1.08392 4.31968
2.96667 1.83305 3.15123
0.713795 3.1971 2.60427
0.464076 0.263423 3.47988
0.984161 1.99053 3.1167
-1.16417 -0.923471 4.97042
-0.962881 4.03206 2.18621
1.73212 4.77218 2.56814
4.16467 1.36216 3.34462
0.64525 3.39991 2.64604
-0.14397 0.712222 3.42229
2.30707 2.00333 3.18593
0.626308 2.12687 2.82827
-1.13891 4.33031 2.17516
2.19471 0.765066 3.80632
0.71888 3.56403 2.67655
3.81205 0.462919 3.74569
3.08889 1.99306 3.17815
3.42279 -0.720272 3.73468
4.21453 0.190606 3.76019
0.0819422 3.36772 2.52331
-0.605533 -0.0564572 3.00823
0.708097 3.57923 2.6214
0.713171 2.26289 2.80866
3.92787 0.268246 4.6941
-1.38818 4.21643 2.22021
0.898954 -1.24969 -0.543894
-0.0780915 4.19024 2.1765
1.05578 0.550953 4.09655
0.290774 2.25091 2.82565
-0.952734 3.60128 2.47719
1.44826 -0.934249 2.62656
1.18519 2.45703 2.9034
2.7391 0.228959 4.01105
1.70747 -1.32382 4.20354
1.04256 1.05002 3.98574
2.12625 3.76657 2.73426
-0.951193 -0.869535 2.9208
-1.17879 3.57638 2.06682
-0.234175 -0.942706 2.90769
0.151442 2.35577 2.74196
-0.919173 3.59651 2.37726
-0.319736 0.891581 4.06527
1.63562 1.96153 3.09439
-1.63177 -1.33103 4.1575
-0.43834 1.57891 3.25173
3.92069 0.601693 3.88792
0.20934 3.21999 2.52832
3.15782 2.62635 2.992
1.66932 -1.58678 4.70308
-0.143751 0.727323 3.29048
1.40131 0.459125 3.5365
-0.934963 3.16841 2.45482
3.82184 0.246345 3.82487
2.02127 2.02621 3.05449
-1.22206 1.33638 2.99931
0.684118 4.74476 2.37766
1.11853 3.4539 2.67433
3.17354 -0.640792 3.74156
3.78744 0.354546 3.74586
-0.063957 2.11597 2.91016
4.10419 0.115154 3.65499
-1.03242 -0.483615 2.88751
-1.04142 3.35158 2.49145
4.05716 -0.455856 3.91052
2.21155 2.12898 2.97654
0.582589 0.473884 3.4678
-0.336032 3.37995 2.44793
3.75098 0.0157837 3.82473
-1.53973 1.85226 3.24297
2.02215 2.0727 2.98769
3.84604 0.134752 3.86526
3.10167 3.71068 2.75433
-0.218351 4.31697 2.24865
-0.941148 2.42911 2.6855
-0.724371 -1.30582 2.88337
0.958811 3.70579 2.67441
3.12238 0.708896 3.61189
-0.681988 -0.49321 2.96792
1.52593 2.29056 2.95407
-1.47369 1.05846 3.28673
2.1684 0.0622942 4.04071
-1.07559 3.52719 2.34656
-0.460083 0.214606 3.03936
-1.19844 -1.12226 4.02658
-1.18852 0.842664 3.64079
0.343436 4.5944 2.49496
0.0391756 2.42025 2.71081
2.66421 -0.89605 3.72119
0.761024 4.62634 2.52536
1.67846 3.79206 2.66037
-1.22701 1.57395 3.14334
-0.41887 1.34733 3.55284
1.01515 3.83594 2.6005
-0.101555 0.165742 1.31726
1.03159 2.51633 2.74895
-0.730496 0.576683 3.21823
-0.543831 3.67417 2.33787
3.82446 0.745068 3.53321
-0.990246 0.0167672 3.25809
-0.92065 2.60193 2.6982
-0.904378 3.73069 2.30982
-1.37866 2.12432 2.78613
0.934824 2.62825 2.6853
3.10029 3.47647 2.97001
1.80921 1.46471 3.60677
2.76856 1.14741 3.53221
4.15105 -0.78439 3.79753
1.09241 2.59818 2.76319
0.814953 4.08071 2.60086
2.40221 3.94525 2.74171
-0.396727 2.82164 2.58989
0.49659 -0.54025 3.29703
4.08081 1.15484 3.36579
5.30387 -1.7904 3.31652
-0.980788 3.7371 2.22481
2.37752 2.72803 2.86817
-1.45833 3.14097 2.38957
-1.20445 -1.2893 2.81225
3.79995 1.0885 3.3493
0.91208 4.09924 2.49614
3.84472 -0.560863 4.04273
0.0433851 -0.348822 3.30014
3.70596 2.07969 3.20971
-1.48408 0.898996 3.41221
2.22399 3.52034 2.80367
0.395621 3.48385 2.58844
1.0832 2.13848 3.02596
1.0349 2.17383 2.86323
0.635037 0.893039 4.25051
0.235498 0.705703 3.58832
-0.785514 3.5385 2.49187
-0.49884 0.168498 3.02257
2.94653 -1.46524 4.10673
0.186012 0.95383 3.88751
1.20888 3.70618 2.69818
1.05621 2.334 2.84279
4.15919 -2.2217 3.61042
-0.0653879 4.1691 2.19491
0.27125 3.6877 2.55505
-0.728798 0.662716 4.00932
2.96671 2.24526 3.04769
1.07104 2.26025 2.86441
-0.123409 -0.680154 2.98211
1.2145 3.79761 2.63817
0.549238 2.37282 2.62295
1.76536 0.361772 4.05762
-1.06776 2.27578 2.67724
-0.34215 0.146666 1.18886
0.073553 1.24312 3.815
0.363821 1.14587 3.90198
-1.94764 0.47251 5.26552
-0.89798 0.598158 3.24943
0.309227 0.238627 3.496
2.37051 2.36428 2.96887
-0.0335319 3.73849 2.47348
0.886571 2.56624 2.70381
-0.593045 0.250472 3.27649
3.5531 -2.31252 3.52213
3.37158 -0.922804 4.5631
4.24009 0.986863 3.65544
0.709632 3.9471 2.5963
-0.198839 0.633679 3.48326
2.18985 2.54565 2.93917
2.8231 -0.734832 4.22331
3.58651 0.839783 3.41512
1.45178 3.95655 2.60012
3.24709 1.14291 3.48715
-1.16784 -1.38389 4.7925
0.345018 2.57743 2.57559
-1.19883 -1.3075 2.80971
-0.00277562 4.02411 2.52024
-0.60427 -0.153686 3.29149
2.26107 -1.06732 4.64166
0.690947 4.79916 2.54682
2.98869 1.348 3.40757
0.639083 4.09285 2.55337
0.207715 2.7074 2.54887
0.650895 -0.0176916 3.41007
0.406832 -0.784638 3.25765
4.16045 1.11315 3.39485
-0.888384 3.84122 2.16194
1.10203 -0.669707 3.3252
-0.395612 2.79046 2.63874
2.45649 -1.94624 3.82259
-0.637994 2.90981 2.50752
2.49203 3.82863 2.72846
0.0893165 4.11037 2.41521
3.41414 1.43652 3.36705
-1.27373 3.45182 2.05799
0.769099 1.6917 3.26587
-1.56687 1.85056 2.92362
3.49466 2.92954 2.98875
-0.287008 4.09906 2.2971
2.19274 2.90978 2.85541
3.54792 2.23833 3.11492
-1.18352 -1.37984 2.82319
2.12723 -1.00978 4.23356
-0.458217 3.689 2.40614
0.250578 4.5507 2.47732
0.155252 2.42624 2.64009
-0.411105 -0.84977 4.64935
1.66243 1.17866 3.61145
3.79698 0.958241 3.5124
2.56934 4.01594 2.74017
1.927 2.61883 2.88114
-0.323054 0.955646 3.56422
3.06902 1.03278 3.71238
-0.0210043 3.93806 2.50282
3.80535 -1.26378 4.18683
-1.35701 2.15071 2.73214
5.06656 -1.66182 3.52843
2.52834 2.5417 2.96642
0.721626 1.62835 3.41976
-0.61633 3.7797 2.32291
0.150963 2.6482 2.5553
0.462265 0.835075 3.71345
-0.937779 -0.800699 2.85107
3.69905 1.04948 3.46488
1.12354 4.03069 2.53071
-0.857297 2.6685 2.54425
2.86953 3.65271 2.85472
0.458558 -0.39448 3.31151
-0.611506 -0.00363731 3.295
0.0509665 2.77127 2.5059
2.50539 3.66993 2.76116
-0.700571 3.86689 2.26767
2.54061 1.47255 3.37564
-0.326871 -2.2471 3.09604
1.39243 2.8762 2.84719
4.35666 -2.4267 3.48379
0.506789 4.16128 2.46824
0.198815 1.58115 3.42861
0.897269 0.129365 4.43867
3.9628 -0.182645 3.68193
-1.11481 1.07418 3.25246
-0.841488 1.96176 3.11934
1.11946 0.371602 4.34608
1.18775 4.17558 2.45721
0.510596 2.92082 2.61101
3.41384 -0.0583479 3.8203
-0.851502 1.84633 3.15955
1.01058 -1.37163 4.78846
1.60283 1.77623 3.21462
1.43921 3.1823 2.78565
3.01834 -0.344941 4.2898
4.34384 -2.10025 3.75043
4.15124 -1.15521 4.39661
2.37717 3.08205 2.85557
-1.15553 0.00921152 3.04622
-0.547991 -0.744019 2.93487
1.36336 0.0545546 4.53681
1.77844 1.92695 3.21369
4.48996 1.21111 3.5569
3.75548 -0.700138 3.73484
0.25887 3.18551 2.55252
4.90422 -0.0470064 3.44911
-0.765271 1.01574 3.05879
3.54165 1.61202 3.2221
4.00466 -0.779356 4.12489
3.64151 -0.508792 4.0734
4.19791 0.42541 3.46295
0.346174 -1.04469 -0.97561
1.38092 3.27107 2.77557
-0.0357629 3.27838 2.50137
2.76675 -0.747185 4.69262
-1.20695 0.481518 2.63042
0.774756 2.07649 3.0028
4.87338 -0.781205 3.95219
3.59555 -0.321214 3.78654
1.74837 -0.583633 4.78766
-0.252614 3.19024 2.4759
4.11334 -0.0997578 3.82387
1.66166 0.255869 3.59424
-0.221145 2.04553 2.88115
2.03278 2.67574 2.87715
-0.126463 0.594428 3.44072
1.36494 -0.755597 5.00407
0.142767 1.657 3.50539
1.17363 3.95799 2.58506
0.481971 0.947108 3.70057
2.12001 2.61305 2.92331
1.49335 -0.544928 4.79468
0.268952 1.33822 3.74197
1.15427 4.0044 2.57347
3.39922 3.03922 2.98504
0.615616 -0.40346 3.32747
0.32725 1.77645 3.40828
-1.44187 2.91344 2.62979
-0.573184 3.91404 2.35839
-0.489171 2.68587 2.52911
1.23801 1.53893 3.425
-1.31568 -0.834284 2.84761
1.5164 -0.902937 4.8137
0.384941 4.08462 2.47114
-1.27894 -1.32351 4.48072
-0.435985 1.92449 3.36636
0.927114 -1.84037 2.94551
0.0974244 -2.09592 3.2982
0.774693 2.87231 2.67277
-0.6623 -0.938739 4.11437
1.45212 4.13584 2.50811
0.24446 -0.619198 3.23858
-0.861457 -2.05635 3.09716
1.46367 2.86048 2.8355
-0.798923 -0.789976 2.88757
1.09258 4.19501 2.46593
1.95731 1.68698 3.31239
-0.389073 2.97634 2.52376
4.75746 1.30294 3.46676
2.58386 3.72874 2.70851
1.67051 1.63442 3.29123
0.262158 -1.37493 4.63748
2.40404 3.0073 2.88059
4.07776 1.67576 3.36211
2.23716 3.25379 2.84577
-1.12217 0.239637 3.04656
3.88087 -0.462252 3.70323
-1.39818 0.370976 4.21173
1.35203 1.95594 3.27175
0.955307 4.4294 2.49007
0.691375 -2.01457 2.06766
-0.522288 3.06403 2.51446
4.28036 1.63763 3.33913
2.28765 -0.754497 3.36655
2.24285 1.6404 3.16991
1.48972 4.50637 2.52499
1.50281 0.481763 4.04856
0.262832 3.25488 2.57276
0.528563 -1.88021 2.08892
3.63771 -0.144018 3.8038
-1.70214 2.89765 4.64554
3.66425 -1.02302 4.2884
-0.73369 3.10333 2.42289
0.689011 0.251802 4.26488
0.498522 -1.44207 3.08971
1.70488 1.85229 3.1077
4.20526 -0.711555 4.09961
2.82469 1.87896 3.13172
4.71701 -0.271782 4.5065
-0.298122 0.710391 3.21609
1.74804 3.44748 2.78989
1.61372 0.159443 4.4457
-0.382902 0.619598 3.15726
2.23846 5.24721 2.6779
1.69887 -1.54876 4.6193
-0.0474709 -0.344573 4.48677
-0.194863 0.736271 3.42538
0.4858 2.16364 2.86871
4.07061 -0.118355 3.59254
-1.20874 3.7893 2.27213
2.71063 1.98916 3.13523
3.16555 -0.370383 4.25688
0.0576287 3.43789 2.53311
2.01859 3.50576 2.78288
4.30452 -0.056066 3.83525
-1.59675 2.67894 2.79969
0.78887 3.07199 2.636
1.62091 -1.42401 4.70532
-1.23978 0.201908 3.86595
1.0714 1.95564 3.33368
2.24248 -0.231908 3.67623
3.09593 0.392885 3.93662
-0.58117 3.01268 2.53271
-1.15818 1.01675 3.06588
-0.773482 2.00196 3.18836
-1.07625 2.09265 3.05525
-0.741583 -0.119161 4.24055
2.84612 -1.16404 4.53192
1.72124 0.331836 3.65047
0.983023 3.22147 2.71238
2.57837 -0.0416669 3.77422
2.69042 0.0970881 3.99756
3.96593 1.9489 3.15964
1.99294 1.90385 3.33456
2.83194 1.8979 3.2418
0.565911 4.45049 2.49543
0.113913 -0.287122 4.55115
0.0677959 -1.93787 1.98105
-0.732118 1.45686 3.13021
-0.714057 3.17218 2.43077
0.591261 1.97783 3.04647
0.109169 1.38177 3.50731
1.61658 -1.92923 4.75243
1.92133 3.31764 2.81186
3.27877 -0.954919 3.70078
4.17618 0.247213 3.51158
1.20292 3.4812 2.70859
-1.26606 -0.515776 4.09759
1.47873 0.327183 3.51788
1.80926 2.10519 3.11046
1.05187 4.73277 2.37467
2.21507 -0.380912 4.33222
-0.330708 2.10687 2.85595
-1.03363 3.98419 2.18127
-0.679373 3.30706 2.49174
2.2689 0.258494 3.75114
4.58379 0.0732052 3.72287
1.68257 2.18805 2.99775
1.5445 3.57482 2.74533
4.0763 1.81145 3.1522
0.895557 2.20014 2.97173
-0.665913 3.49162 2.46792
-0.395475 -1.97127 2.82122
-0.925191 2.452 2.04871
2.34114 3.69293 2.75616
-0.00865336 0.969449 3.35245
0.107451 2.23489 2.70991
-0.801984 0.825944 3.0085
-0.749619 0.698582 3.69008
4.10412 0.669419 3.68692
1.62037 3.76384 2.70077
-1.85598 3.3869 2.41918
-0.0308191 2.45101 2.7399
4.32231 1.28671 3.48391
-1.03906 -2.09851 2.91055
2.09495 1.00521 3.84163
0.0332014 3.67566 2.47371
-0.404789 2.36983 2.70291
-1.17287 1.96748 2.92725
0.841483 0.519908 4.3154
2.46372 1.13557 3.59368
1.46747 3.85212 2.63641
-0.664768 0.130207 1.26073
1.44793 2.60658 2.91942
-0.691136 0.84907 3.40071
2.49347 1.08293 3.72059
2.02682 3.96926 2.6916
2.39487 0.688366 3.76696
-0.450064 2.47305 2.61571
-0.369807 0.545338 3.38086
-0.822975 -1.37017 2.87834
3.3624 -0.376553 3.77581
2.01149 3.34859 2.84976
1.18521 4.50993 2.50562
0.00288423 2.00396 2.97896
6.04612 0.262256 4.8376
3.84738 1.80296 3.22927
-0.375488 0.288001 3.26583
0.332347 -1.04223 -0.987908
-0.0245648 1.89523 2.92209
3.5369 0.532765 3.93431
3.637 -0.916866 4.22946
1.32937 3.22273 2.74601
0.859143 -1.95586 2.17116
-0.472172 -0.2909 2.98255
3.81508 0.118898 3.91005
-0.251298 3.26943 2.49273
4.13016 -0.718735 4.09623
1.79969 0.769589 3.68534
1.51242 2.02406 3.06857
0.303121 3.19301 2.53195
2.43905 5.11838 2.60976
2.51056 1.89249 3.18884
2.36999 -0.543061 3.54455
3.12357 0.0303268 4.04821
4.20843 0.219273 3.81663
-1.09444 0.378076 2.82142
-0.64788 0.294973 4.04336
-0.626365 3.39005 2.51693
-0.377292 -0.0347281 3.02293
0.49884 2.0992 2.90018
-0.153577 2.33344 2.86773
-0.14519 3.33123 2.43618
0.861144 -0.196679 4.61936
-1.24685 3.1438 2.44034
2.50963 -0.111327 4.16057
-0.252706 2.23898 2.86314
2.18624 5.40765 2.68066
0.38128 3.56597 2.59413
-0.382497 0.115095 3.1141
0.470401 4.24902 2.11987
0.463187 3.68457 2.64435
-1.09308 0.768024 3.77132
-0.977879 2.84701 2.46233
1.8044 2.31388 2.95987
4.16238 0.703093 3.45455
1.97049 3.75391 2.71673
0.866458 2.22645 2.82117
-1.48151 1.80944 3.18985
0.741626 0.251409 3.55962
0.702257 0.165156 3.54213
1.68367 2.52265 2.97031
-1.1532 1.95502 2.73057
2.21845 3.85558 2.74591
3.41008 0.807504 3.52304
-0.904313 0.967103 3.22533
-0.54157 2.37938 2.60762
-0.522196 -2.5781 2.75721
-0.777228 0.910447 3.61305
-0.808617 3.60006 2.32638
-0.395747 0.947602 3.54581
3.72675 1.95146 3.12393
0.0380692 3.98884 2.59748
-0.527837 2.49799 2.58182
-1.25611 -1.12871 2.83327
3.27079 0.952143 3.53988
0.515687 1.60516 3.53289
0.922016 3.95829 2.57612
1.20481 2.65225 2.76364
1.55361 0.839286 4.0761
