ply
format ascii 1.0
element vertex 1909
property float x
property float y
property float z
end_header
1.20834 4.33221 2.48013
-1.20934 -0.261079 4.52936
-0.274931 1.28759 3.26372
4.34744 -0.287149 3.97851
-1.03974 -0.167451 4.14937
0.796791 3.26961 2.64789
-1.56148 2.82756 2.7357
2.64942 1.81987 3.15358
-0.800895 2.15828 2.80669
4.58794 -1.15217 4.10025
-1.24594 -0.582785 4.69869
-0.180505 3.29565 2.48399
3.65571 -0.538752 4.10467
1.17671 2.10115 3.14113
0.901888 3.40629 2.72169
-0.866709 0.068119 1.80182
1.15251 4.73958 2.37083
-0.187349 0.891472 3.52452
-0.619542 3.00352 2.55382
0.191375 4.13053 2.40511
-0.217291 -0.0216675 4.39778
0.353647 1.76561 3.08066
1.65514 2.96705 2.80776
-0.738543 1.4607 3.12193
2.46899 4.81374 2.73157
0.109973 0.22233 4.48778
-0.410833 1.99647 3.37959
3.13725 3.35855 2.93845
-1.21361 1.22357 3.05099
0.757266 2.03144 3.28327
1.01682 4.34304 2.48216
-0.309431 2.99137 2.48739
-1.04987 2.77651 2.54582
3.04325 -0.157383 4.14019
2.89966 1.51656 3.15704
5.106 0.521723 4.01214
4.37008 1.82447 3.51273
-0.991839 1.6944 3.0505
-1.88323 -0.645004 5.45401
-0.380669 3.15712 2.51122
1.15547 -1.90906 2.27633
4.09229 0.456651 3.83298
0.23743 -0.187641 4.41449
4.11274 1.66873 3.36739
4.0096 -0.855236 4.59366
-0.294628 2.08721 2.86084
3.97098 1.49841 3.33905
1.48421 3.40459 2.75978
-0.605475 2.11424 2.94017
3.85175 -0.705548 4.44078
4.55361 -0.353581 4.07384
-0.842487 3.17371 2.45137
0.650868 4.74864 2.37887
3.70478 1.99634 3.12181
-0.861382 -0.423647 2.961
0.661303 3.39979 2.62152
4.22795 -0.403262 3.60168
0.137275 1.09403 3.41711
2.16419 1.97602 3.04842
1.75087 3.5028 2.72232
0.363772 4.35858 2.50011
2.78414 2.17803 3.07474
0.619723 3.50909 2.37431
-0.254329 1.03243 3.28448
-0.251568 4.30321 2.25614
0.727664 0.876153 3.9224
-0.385143 3.50041 2.46369
1.19318 2.18869 2.9342
-0.197812 0.72921 3.28293
-0.0906147 -0.672673 -0.265852
-0.895223 0.511009 3.84928
0.411586 2.31157 2.76864
0.834902 0.751064 4.0458
0.863699 3.68356 2.62702
0.787457 0.636011 3.51463
-1.32015 3.1074 2.38676
4.21898 0.731681 3.58855
-0.812034 3.53663 2.36451
2.95609 2.32555 2.95092
-0.667822 -1.51519 2.87105
-0.489945 0.247572 4.13807
3.05176 2.53912 2.96295
3.07306 0.425694 3.7996
0.477178 3.8253 2.59328
1.89523 1.1134 3.82147
3.50919 3.27537 2.78054
-0.188138 2.46212 2.78064
0.210564 1.93959 3.0735
4.46199 -0.264641 4.1454
0.26796 3.04557 2.53385
-1.1415 1.39018 3.12296
0.250885 1.82365 3.04742
1.94165 4.33398 2.53651
0.0171986 -2.1902 1.72563
-0.777208 0.390257 3.83485
-0.706933 2.98666 2.46242
3.08708 -1.83322 3.72864
2.23846 3.33383 2.8196
4.04035 1.77531 3.20882
2.3481 0.1065 4.18287
-0.510678 2.10848 2.95675
3.56585 1.9242 3.18887
-0.423463 3.1401 2.50101
-0.29585 0.336277 4.29331
2.98804 1.70189 3.16933
3.92621 -0.63946 3.90838
4.29499 -0.31723 4.03732
1.7685 3.4894 2.77799
-0.573589 -0.0330238 3.00246
-0.476611 2.16301 2.85915
4.68871 0.226188 3.7641
1.39365 0.0349314 4.5946
1.78873 4.76646 2.56163
0.421759 3.16618 2.47362
0.701155 2.12398 3.09797
2.42168 2.01413 3.04619
0.14158 -0.410818 4.56807
4.18037 1.4171 3.33681
-0.568305 3.38874 2.47657
-0.97128 -0.880355 2.47765
2.65891 -0.378932 4.18383
3.92842 -0.366454 3.96851
-0.732621 3.4835 2.48782
1.63503 2.33041 3.06873
0.522815 0.263247 3.52782
0.404637 4.26688 2.39037
-0.927203 2.30199 2.7957
-0.508165 3.52484 2.47031
1.09253 0.938029 3.58145
4.03142 0.31045 3.59302
0.806221 3.66929 2.60947
0.900033 2.33546 2.76715
0.423402 -0.012525 3.45426
3.26609 -0.271416 4.04366
1.22224 1.05866 3.73677
-1.15468 -0.373816 3.22607
0.0812658 -2.58898 2.9107
1.61177 2.31364 2.95891
0.816628 3.77442 2.63183
-0.508788 2.55109 2.66197
-0.568731 0.849112 3.44553
4.26661 1.25296 3.39133
0.662612 1.33143 3.81106
2.25194 0.977547 3.92923
1.36922 3.84737 2.66433
-0.70712 0.691738 3.31391
0.707453 2.4093 2.7465
-0.394971 3.69183 2.39325
3.92049 0.688672 3.5633
2.37494 0.589728 3.93969
3.58775 2.49808 3.01532
4.64575 -0.826046 3.48473
0.700835 3.98877 2.60381
2.45079 1.07397 3.40509
-0.0408148 -0.18207 0.858932
2.98084 0.679356 3.84025
-0.186769 3.26887 2.40189
-0.28529 0.180408 3.25609
0.500787 2.15849 2.80268
-1.40953 0.427116 3.32549
0.358639 0.305665 3.40283
-0.462116 3.42359 2.45572
0.497987 4.11485 2.16497
-0.698885 2.16582 2.73965
-0.181963 -0.272943 3.02532
-0.554572 2.42683 2.78149
-1.23619 3.89035 2.29861
0.0806494 0.808413 3.36886
1.58459 3.61389 2.68655
-1.15517 3.3609 2.44327
2.2513 2.15485 2.96504
-0.652778 0.611215 3.00831
-0.766979 3.54185 2.42574
-1.34596 0.0482819 3.26797
2.60277 0.767823 3.89788
-1.43359 3.66612 2.42711
0.981225 3.72441 2.61258
5.04723 0.569266 4.07187
0.011037 2.37416 2.70876
0.157093 -1.46736 -0.445819
-1.06635 0.894855 3.6951
2.07192 1.16823 3.59144
-0.00935459 3.67918 2.46592
-0.109209 0.452765 4.19657
1.65656 2.57817 2.96439
-0.863411 -0.313556 3.26737
1.55327 1.21656 3.70209
1.16351 3.83476 2.58197
0.915971 0.70259 3.50469
0.139692 0.582716 4.01639
2.94033 2.34824 2.97981
-1.07352 0.303036 3.21677
4.07412 0.975626 3.49727
1.1289 3.89717 2.56592
1.50694 2.69579 2.88557
-0.231385 -0.106803 3.24993
2.96143 1.08768 3.54013
0.30381 3.98915 2.53848
-0.72502 2.60829 2.62404
2.73179 -0.677243 4.36136
0.00786476 -0.193452 3.24117
-0.704245 -0.878204 4.12185
-0.936021 2.81902 2.59503
0.189222 0.665336 3.58649
0.992044 -2.57912 2.82783
1.83607 1.50898 3.44427
1.4986 4.00821 2.55943
0.577485 -0.877422 4.82556
-0.996829 4.00013 2.17513
3.56485 3.51485 2.94006
-0.750521 2.72847 2.58704
-0.356 3.8818 2.32575
2.34139 1.28604 3.40883
-0.846658 -1.4168 4.3704
-0.759468 2.89965 2.5356
1.78303 1.56066 3.26751
-1.5391 1.10698 3.20782
1.72576 4.10048 2.51602
2.83097 -1.21268 4.53711
1.782 2.89248 2.84624
-0.137182 1.16307 3.49445
-1.02631 1.74652 3.31075
0.615076 4.24625 2.5043
2.78497 1.52196 3.27375
0.376739 2.87808 2.53349
0.625912 -0.963943 4.75311
-0.838466 1.32058 3.14529
-0.125461 -0.11398 0.818286
1.81022 3.67053 2.73669
4.21983 0.29164 3.5937
0.00509989 2.32223 2.74816
-0.540747 -1.18843 2.86771
-0.609938 3.58876 2.46203
1.13955 2.23116 2.88658
3.29944 -1.45644 4.08877
1.04535 3.74433 2.62856
0.538649 1.18993 3.80147
-0.653526 -1.27774 2.8608
-0.192887 2.44874 2.70914
-1.33559 0.263561 3.26197
3.71541 0.645791 3.56974
1.55492 3.80144 2.64378
-0.756621 1.17782 3.08313
-0.668738 2.3782 2.64082
-0.968376 1.28722 3.28672
1.61113 2.64065 2.93017
-1.03284 1.31328 3.26016
-0.603082 1.43688 3.46
-0.710528 3.63058 2.33671
1.94196 2.52646 2.9539
-1.03234 2.73352 2.29303
2.79688 0.964106 3.49504
1.96531 3.94494 2.64971
-0.206795 2.63941 2.55271
4.8337 -1.87375 3.44255
-0.0093625 0.506382 3.52173
2.92786 1.17889 3.38811
2.29868 0.789636 3.84001
0.613933 4.07257 2.62659
4.12153 0.30106 3.62307
2.60713 2.62555 2.93814
-0.417229 0.796622 3.93865
2.51455 1.16576 3.41429
1.00093 4.00641 2.5485
-1.36886 3.34369 2.43073
-1.41423 -0.327367 4.26894
1.9001 1.48275 3.41463
0.17299 0.340599 3.50713
1.77996 2.81198 2.86807
1.76753 4.08129 2.55977
0.431211 -0.144742 4.80823
-0.785464 -1.91965 3.1393
1.51441 1.6732 3.37151
1.67911 4.08694 2.51052
1.05943 -0.771105 4.93505
-0.468792 0.118409 3.27367
0.454191 2.86576 2.61111
3.98734 2.1841 3.00624
0.811311 -0.498581 4.75811
-0.389905 1.88151 3.36646
-0.635008 4.06724 2.23009
1.73367 2.90565 2.86526
1.96584 5.005 2.51581
0.587616 3.00846 2.59479
-1.6164 2.4772 2.77522
1.01891 -0.810317 4.76109
-0.575019 1.96994 3.10666
0.572898 -1.08094 5.01778
0.589485 2.98847 2.63925
4.1363 1.68433 3.27128
3.63525 1.49205 3.39773
2.76159 -0.824036 4.35595
0.456065 -1.55018 4.66491
0.473843 3.12747 2.55513
-1.33522 -0.549724 2.97119
2.94018 1.74692 3.25678
2.82343 -1.48029 4.55976
-0.74906 2.97166 2.39163
4.35978 1.72909 3.26093
3.466 1.585 3.25206
-0.86853 -1.11914 4.30284
4.35435 0.470011 3.80978
0.444095 1.69734 3.54839
-0.159631 3.91296 2.46554
0.225255 -0.605987 4.97677
1.14577 2.69929 2.75633
-1.37687 2.57727 2.69986
-0.736364 3.79475 2.30913
2.95734 1.11188 3.43274
0.827827 2.6066 2.71265
-0.0146468 0.272434 3.39952
-0.76045 2.8058 2.52407
-0.98438 -0.6444 4.03817
0.044815 3.9468 2.38447
3.80994 2.40051 3.01784
5.13731 1.63149 4.12554
-0.227016 1.74182 3.29244
0.962456 -0.7751 5.04113
-1.09953 -2.01628 3.13896
-0.574485 0.0411826 3.2995
1.44461 2.8234 2.84447
0.24333 4.06766 2.43041
0.506169 -2.75569 2.69328
-0.376823 1.20704 3.41946
2.9295 3.00941 2.89072
3.48611 -1.09531 3.79687
1.46814 4.15637 2.48464
-0.386057 1.92856 3.16725
1.06931 2.91815 2.71709
3.51383 -0.952619 4.28271
4.34487 1.42829 3.4058
-0.16546 1.90394 3.31019
3.15586 -1.54218 4.2195
-1.58125 3.13195 2.33065
3.03991 4.85471 2.50592
1.70721 3.13379 2.81557
3.28659 -1.60781 4.45736
-0.449399 1.95337 3.09059
0.416076 2.02427 3.12354
0.312932 0.589507 4.22767
1.30535 4.46138 2.50642
1.28606 3.25416 2.74494
4.39803 -1.97264 3.73136
-0.943458 1.77945 3.10889
2.16349 1.93847 3.475
1.52912 4.39497 2.50356
-0.23962 -2.15438 1.56569
0.218925 3.08582 2.5633
4.60858 0.9912 3.37942
2.48031 0.331896 3.9111
-0.408161 2.07392 2.86299
-0.990562 0.310494 3.88663
3.30075 3.60708 2.72896
3.3545 0.380488 3.82693
-0.648572 2.06085 2.89742
4.62116 -1.15145 4.11959
1.8163 3.34015 2.79578
2.35877 5.05935 2.72328
2.06739 -0.0195065 4.16548
0.654041 2.14788 2.91321
0.565819 3.28929 2.53344
-1.27843 3.54992 2.39336
-0.873729 3.36287 2.44315
3.28532 1.90531 3.16954
-0.909662 1.11598 3.04139
2.17125 0.116264 4.2124
0.819774 -1.34774 4.33443
-0.756804 -0.259139 4.07495
1.65529 3.58026 2.71923
2.66142 -2.3137 3.5948
3.54355 -0.322919 4.0133
-0.580815 2.21999 2.72991
-0.645783 0.183445 3.04863
2.79313 -0.282291 4.20905
-1.36259 3.04434 2.41296
0.510768 4.11822 2.47375
1.77908 -0.0239361 4.56396
0.027218 2.69999 2.49786
2.23286 1.49601 3.4155
1.70399 4.11434 2.48072
0.387927 1.80393 3.14862
-0.66385 0.673351 3.34192
-0.210975 -0.551268 4.69725
1.52297 3.03804 2.79491
0.378806 -0.702302 4.60973
2.24099 1.57465 3.39605
-0.836497 2.81012 2.45281
3.50587 -2.25015 3.9243
2.32238 -0.363915 4.39416
1.05952 3.16573 2.70347
0.0292598 1.88659 2.99711
1.63187 -1.54817 4.67327
-0.318025 -2.23408 1.56924
-0.548521 1.24007 3.23821
-1.10518 -0.697864 4.29822
-1.3581 -0.448673 2.98406
3.44852 1.49797 3.26918
-1.30956 0.797455 3.74778
3.79507 -0.715912 4.30107
1.81304 3.13085 2.83072
-1.57233 -0.950426 4.54831
4.68369 0.797269 3.37996
3.37753 3.37439 2.83622
1.75189 4.31 2.51881
2.88771 1.78038 3.16475
-0.608556 3.16402 2.4374
1.89914 1.94683 3.31944
5.12597 -0.762016 4.2326
3.61903 0.553873 3.61966
-0.591013 0.157689 3.02707
4.71416 0.130597 3.93418
1.18102 3.34493 2.70152
-0.40781 -0.354324 3.00777
0.658631 2.07918 3.0321
-0.537366 2.22128 2.83203
0.569561 3.34755 2.52627
2.8146 5.29068 2.56735
-0.802155 0.480205 3.91875
0.939846 2.19439 3.13686
0.0524913 3.28537 2.50004
-0.538459 0.662611 3.92075
-1.37258 2.79774 2.6663
1.13443 3.55998 2.68551
-0.990012 1.86456 3.09557
4.25481 -0.367155 3.82855
3.14035 0.307416 3.87163
-0.411467 2.24265 2.70583
-0.31631 -0.83411 2.91652
1.5432 3.58657 2.67428
1.3839 2.23097 3.04439
0.973472 0.529312 4.26983
-1.29556 3.84112 2.34013
0.0975904 -0.0144441 3.37336
-0.716597 -0.388034 2.96066
-1.01789 2.95974 2.4595
-1.08304 0.053524 4.07743
0.329077 2.35949 2.74151
-0.260572 3.55834 2.46497
3.84459 0.653032 3.66643
0.367134 1.19602 3.5511
-1.01197 2.41959 2.74371
-1.42677 0.595682 3.28227
0.416929 3.73854 2.59159
1.04151 0.716405 4.06396
-0.149061 2.01233 2.91126
-0.364336 0.626781 3.30951
0.0729097 3.15381 2.49667
4.29976 -0.271679 3.9524
0.0461811 0.849446 4.06444
-1.04764 1.61097 2.98005
-1.23564 0.932727 3.47936
-0.231946 -1.80202 1.61025
1.38564 2.05824 3.03949
0.284021 0.461288 4.21601
-0.510634 3.29756 2.4685
2.60789 1.92898 3.19391
2.09917 0.59788 4.01286
0.99154 3.33073 2.66621
4.24579 -0.356574 3.92346
0.180936 0.485901 3.38342
-0.615607 0.189531 4.23826
2.16184 2.05012 2.96926
4.09152 -0.719316 3.91953
1.46172 2.1494 3.05665
4.46735 -1.15544 3.83718
-0.171374 -2.39894 2.77374
0.435745 3.47223 2.6215
-1.65909 0.205988 4.5989
0.300567 2.28152 2.73405
0.258461 3.48484 2.56096
4.75438 0.680798 3.52206
1.42605 3.67244 2.72794
0.226093 0.890661 3.43906
3.70485 -0.184577 3.98356
-0.287422 1.27977 3.30634
-0.206035 2.3337 2.81465
4.17097 -0.210059 4.05086
1.14438 3.70032 2.66507
-1.32939 3.38519 2.37567
2.45546 2.31349 2.98887
-0.27615 -1.20025 4.54172
1.50581 3.75903 2.67343
-0.29174 -0.132029 0.690895
1.52032 1.05071 3.84735
-1.32459 -0.119928 3.2616
1.1654 1.3698 3.68061
-0.533974 3.62728 2.39833
0.661045 0.396934 3.45711
0.905617 2.44635 2.71959
4.65417 1.16048 3.57479
-0.0977113 3.80181 2.48865
3.92519 0.69171 3.5517
4.01947 2.08011 3.28308
1.27015 2.43612 2.87134
-0.908301 3.65022 2.29074
-0.879562 2.61502 2.54653
-0.257813 -0.154475 3.32273
-0.370546 1.47771 3.48993
0.589447 -1.79491 3.31541
3.12316 1.09425 3.79382
-0.542441 2.57824 2.60224
-1.90441 2.95772 2.71281
-0.321214 3.80246 2.37437
-0.021762 2.62563 2.49197
0.279581 0.708505 3.64433
1.08689 -2.70123 2.85435
2.07488 1.42174 3.38942
-0.553561 3.77283 2.30391
2.10658 2.7082 2.8751
-0.384218 -2.34935 3.17016
1.7518 5.24903 2.62729
1.15028 1.47143 3.37422
0.868679 4.10983 2.54988
1.01799 4.71007 2.37399
-0.344678 3.31834 2.44488
-1.3514 1.08757 2.85509
2.36345 1.99746 3.02927
-0.884003 3.31545 2.46314
-1.35875 0.0409227 3.30674
1.01775 2.16161 3.11836
0.555276 2.1415 2.80838
3.76643 0.419957 3.62547
-0.363496 1.55321 3.2891
-0.395232 3.38951 2.4517
-0.880907 -0.0716007 2.9845
4.31416 0.10207 3.73764
1.63085 0.936564 4.02727
0.777833 3.56788 2.60204
0.451916 2.28524 2.78609
-1.40276 3.95384 2.31583
2.13218 3.70322 2.73574
1.20493 1.12134 3.60442
3.1898 -1.08887 1.65974
-0.540105 4.3908 2.19651
3.09126 0.524341 3.8692
2.33199 2.14225 2.98342
0.35857 0.343293 4.36138
-1.01798 3.71877 2.5005
-0.675669 2.4602 2.64266
-1.07329 -0.00397646 2.79668
-1.34589 0.294623 3.26386
4.0706 0.688288 3.60095
-0.0452732 1.07924 3.93173
-0.938653 0.491677 2.95716
-0.380149 0.349812 4.19671
-0.837103 -0.426293 3.25043
-0.602162 2.34637 2.6232
2.06229 3.81063 2.69898
2.31789 2.54957 2.90918
-0.901156 0.756628 3.20721
0.491166 1.48901 3.74316
1.5982 -0.978354 4.61012
1.2096 3.82743 2.58911
-0.502099 -0.295208 3.28679
1.25403 2.53213 2.86397
3.30114 -0.867767 4.57577
0.65214 3.94455 2.59673
1.28376 1.30555 3.6563
3.72944 3.24306 2.99772
-0.800345 -1.24328 3.19031
0.580117 4.33332 2.56423
-1.85699 3.15157 2.39323
1.54816 2.68531 2.89797
1.41957 1.39828 3.49379
3.25198 -1.25404 4.21607
3.53563 3.49823 2.92189
3.95837 1.12767 3.38736
-0.349622 3.83046 2.35553
0.552447 0.913004 3.68882
1.68715 2.81802 2.88441
-0.250509 3.95557 2.39699
-0.00191642 1.67689 3.43043
-0.386337 -2.22196 3.18241
0.442047 2.60403 2.60519
3.99484 1.4529 3.62847
1.39305 2.94708 2.79311
-0.196013 3.91034 2.31323
-0.549019 0.167319 3.28011
4.02841 -0.905173 3.82263
1.50963 1.65311 3.47462
-2.00269 1.67618 2.81794
-0.321848 4.19386 2.26081
1.14522 2.84651 2.74184
-0.869549 2.59886 2.69142
-0.733576 0.438204 3.28545
-1.29402 -1.06169 4.20621
-0.553303 4.15632 2.38007
0.241283 1.29549 3.89628
-0.786864 3.57049 2.34751
0.247848 2.40418 2.69232
3.96176 -1.0952 4.7978
-1.58407 3.59527 2.42952
-0.196113 1.16987 3.60753
2.11315 3.91712 2.71232
1.78785 1.28502 3.54724
0.159136 2.47162 2.57606
-0.612224 1.18389 3.44366
1.01813 3.97213 2.62361
-0.337045 -0.142394 0.70991
-0.154679 0.736559 3.56752
-0.740804 1.49372 3.30375
-1.03435 3.77553 2.25562
-0.335408 2.71299 2.62921
0.622356 -1.91275 3.33943
2.51702 4.13017 2.70488
4.28188 1.01626 3.63751
1.36931 2.63246 2.81664
0.242731 1.03621 3.67848
-0.576866 -2.21123 3.18384
3.09219 2.83007 2.92594
-2.00347 1.669 2.81848
0.202213 4.07589 2.50578
1.79921 1.58646 3.44868
-1.28467 0.423917 3.18901
-1.18252 -1.47529 2.82344
-0.354701 2.77653 2.6149
-0.503253 4.02146 2.37524
0.780348 1.56716 3.29562
-0.702425 0.748154 3.31459
0.443679 2.90547 2.5702
0.388955 4.20778 2.48202
4.20847 -0.214001 3.92113
1.71021 0.175856 4.33602
1.78254 1.66758 3.27572
2.35787 2.90574 2.83566
-1.63128 2.61689 2.79242
-0.25892 1.90113 3.31048
0.293345 -1.01719 4.59607
0.945897 1.90627 3.28194
2.02872 3.11772 2.84127
-0.661113 -0.305352 4.40139
2.41766 4.76312 2.74581
-0.752125 1.5642 3.17956
1.45369 -0.137775 4.26969
0.639018 4.42839 2.4987
-0.134861 1.92981 2.91795
-1.32994 0.0103794 3.0401
0.801101 3.23554 2.69664
-1.316 0.691595 2.7777
2.65435 1.6612 3.2174
-0.141745 -2.00837 1.64962
4.13995 -1.24079 4.42548
-0.292275 3.0305 2.47342
-0.957393 -0.469247 4.36566
4.38755 1.45904 3.3234
-0.488197 -0.736838 4.37116
0.572242 3.32302 2.62951
-0.671557 0.32291 3.94506
-0.624953 2.13864 2.88716
-0.491702 -0.718514 4.59238
1.58228 1.8687 3.05444
1.69299 -1.57774 4.69719
0.394886 3.20458 2.57833
2.43794 3.36928 2.83014
3.2833 0.558038 3.99318
2.22057 1.96304 3.18492
-1.20479 1.41589 3.37378
-0.411577 0.832053 3.18651
1.04816 3.34806 2.75309
0.228272 2.08294 3.0809
4.66 0.157035 3.94199
-0.517683 0.848943 3.09722
0.476721 0.892993 4.02333
2.36141 4.9994 2.71885
0.857466 3.48038 2.66537
1.12265 2.11351 2.97336
-1.1024 0.962486 2.91892
-1.28934 3.6017 2.3659
1.26518 3.43867 2.7256
-0.0568806 0.533087 4.15332
2.96528 -2.55537 3.67215
0.0933259 2.13259 2.93223
-0.815135 2.16945 2.67007
1.1231 1.12171 3.57249
0.0313902 0.288483 4.29754
0.633008 0.433957 4.25357
-0.488706 3.43912 2.47898
2.17996 -2.22751 2.67991
3.65625 3.19943 2.87663
3.87163 -0.224334 3.87714
-0.592114 1.14792 3.14143
1.26581 3.65065 2.70689
-0.0919329 2.26021 2.69548
4.23112 0.0831684 3.70087
1.53527 3.67931 2.68668
-0.538583 0.176547 4.21441
-0.589213 4.3724 2.25053
1.73342 2.20375 2.98631
2.02612 3.76983 2.71739
1.47902 2.45604 2.92458
-1.26093 0.724952 3.29217
2.58487 0.918474 3.54519
-1.55462 0.18144 2.70196
2.49507 0.86293 3.63052
4.44425 1.65915 3.2595
3.02404 -1.21603 4.11385
1.99482 2.35129 2.96548
-0.210364 3.69489 2.47716
-0.889273 2.5523 2.57386
4.38471 1.14348 3.57561
3.77727 2.98164 3.02838
2.8494 1.08114 3.53007
0.127746 3.90884 2.59635
-0.418777 0.0973817 1.26191
1.49102 -0.89838 3.9065
0.117745 2.42859 2.63208
1.75433 3.88126 2.60307
-0.357569 1.30191 3.66369
0.57401 0.269734 3.49845
0.334354 1.65987 3.64282
-0.691218 2.55272 2.51749
4.75631 -1.71763 3.48935
-0.184333 3.89234 2.45997
3.48546 3.31603 2.78572
-1.17649 -1.48738 2.82305
1.64338 1.6061 3.59249
0.496369 4.02099 2.53931
-0.31558 2.79021 2.64356
0.26836 0.372428 3.54699
1.49831 1.48189 3.51692
0.510235 4.08788 2.51957
1.24325 2.68225 2.76299
0.51645 -0.00401289 3.42279
2.58023 2.26923 2.97375
-0.607923 4.24619 2.20233
3.40339 0.709376 3.61676
0.241894 3.56675 2.51121
-1.23496 0.0557211 3.26801
0.353871 2.26832 2.74178
0.00925864 3.65033 2.50417
1.00828 -1.2818 -0.33743
3.13837 2.17492 2.98776
0.359391 3.81276 2.59696
-0.178706 -1.02975 2.89609
3.14466 2.28292 2.95228
-0.153126 1.15614 3.6387
-0.22245 -0.642178 2.99961
-1.02469 1.11235 3.37903
-0.556436 3.67704 2.39225
-2.45352 3.64615 2.4951
0.741819 2.51254 2.70187
2.85759 2.51443 2.87948
1.23737 1.36027 3.74231
0.307969 4.00564 2.61954
1.35553 5.01623 2.58073
0.716287 2.43376 2.69843
-0.607101 -0.592388 3.25471
4.32731 1.08718 3.63994
-0.484036 0.757432 3.82127
1.49433 3.93244 2.57244
-1.88803 3.3327 2.4186
0.13045 2.57433 2.53769
-0.724054 -1.27483 3.20582
1.46324 4.00403 2.57117
1.30125 1.37531 3.41056
4.191 0.410721 3.45319
0.401761 2.50974 2.58804
0.0222173 -0.504985 3.23569
-1.39678 4.04676 2.31261
0.417657 2.75959 2.59563
1.68376 4.04296 2.54437
3.03815 -0.428968 4.39495
1.18801 1.6855 3.45462
-1.11928 1.03097 3.26548
-0.734093 2.78953 2.59949
0.284346 4.09541 2.46162
2.11616 -0.228583 4.76168
3.71606 1.15688 3.36752
-0.173885 2.90397 2.5325
0.226467 4.32013 2.42096
0.233571 4.10546 2.41202
3.50109 1.44158 3.34364
0.00408594 2.80137 2.52457
1.63599 1.6429 3.38378
3.7476 -0.632173 4.23763
3.76099 1.46957 3.2915
2.93977 -0.860065 4.40974
-0.147272 -1.23236 4.64971
-0.645272 2.94676 2.44947
-1.04188 0.432093 3.16967
-0.804943 -0.553865 4.00237
1.38637 -1.46168 4.70636
-1.11453 1.59381 3.1233
-0.754196 -1.27467 4.48755
1.17996 1.95497 3.20109
2.08699 4.26059 2.58607
-0.274079 3.2033 2.58031
-1.19401 2.43924 2.54424
-0.60566 -1.10536 5.02982
2.38173 1.70272 3.22833
1.26199 4.36681 2.49202
-0.0516357 3.07054 2.52969
4.43149 1.37002 3.40856
1.57847 1.22042 3.62646
1.07604 3.79213 2.62513
-0.251474 2.46017 2.62085
-1.17039 4.1441 2.1936
-1.28177 -0.385895 2.76713
3.76525 0.707705 3.54965
1.08966 3.83036 2.59568
-0.439829 2.38312 2.60937
3.40085 2.23265 2.91464
-1.9301 3.39739 2.42689
3.72433 -1.02584 4.29636
3.89831 -2.51945 3.66426
1.19454 2.60938 2.77547
-0.776767 -0.847844 3.22471
-1.2066 1.28638 3.57022
2.89943 -1.30798 4.45075
0.910058 3.89016 2.57127
-1.32424 1.92863 3.0416
0.972826 2.52027 2.73207
0.0166793 -0.69043 -0.543916
0.354783 1.54494 3.66713
1.02938 3.92082 2.54616
1.97859 2.76328 2.8654
0.257563 -0.0439289 3.36841
-1.66346 1.70861 4.45343
-0.932479 3.74323 2.27045
1.49784 2.7408 2.85834
2.55265 1.22863 3.40189
1.52096 4.01525 2.52688
3.27758 1.23208 3.26002
-1.35262 4.0543 2.29086
2.18638 2.90193 2.9219
1.03703 4.09844 2.5008
-0.408937 0.226721 3.38004
3.97076 -2.25471 3.52561
1.82747 4.079 2.46774
-0.238565 1.9083 3.21425
-0.676756 0.884232 3.34632
1.02937 2.97066 2.6941
1.72037 1.62915 3.40128
-0.746514 4.03843 2.13569
0.802481 0.161916 4.41998
1.22765 2.92 2.75484
-1.5326 2.36754 2.75713
0.82833 3.10557 2.64627
-0.415262 -0.248709 4.43597
4.32825 -1.94212 3.7656
2.83833 5.10936 2.55443
0.297326 1.88706 3.06604
1.19602 3.07337 2.73321
-1.3371 -0.375341 2.9929
-0.971005 -0.0344092 4.06438
0.291785 1.79454 3.03947
0.917079 4.38412 2.49532
0.42132 3.15559 2.54065
3.08726 -0.613393 4.51891
4.72464 0.926739 3.37619
2.43029 5.43219 2.70342
0.657313 1.98093 3.02572
1.60656 4.44206 2.51487
2.65506 -0.413897 4.54984
-1.44848 0.780538 3.08157
1.55835 3.26737 2.79179
0.882382 1.88646 3.04952
-1.46542 -0.969235 4.17919
0.545321 2.01109 2.9438
1.98614 3.42029 2.84
2.84893 -0.837311 4.23794
5.01234 -0.807626 4.05729
3.75381 -0.715652 4.04974
-0.718066 2.87007 2.53732
-0.684369 4.00018 2.35105
0.223244 -0.15674 4.58265
2.29585 1.4079 3.2017
-0.231442 1.81222 3.29372
-0.465931 -0.01072 3.34991
-0.770501 0.945873 3.32321
0.190015 4.05418 2.38221
1.96812 -0.069315 4.1646
-0.091263 2.70771 2.50289
-1.01914 0.539295 3.19891
0.925474 3.06272 2.69901
3.69148 -0.412764 3.84058
-0.0341667 4.19574 2.40113
-0.949174 2.03157 3.15532
-0.55179 2.9197 2.51334
-0.424286 1.40466 3.29665
-0.907183 1.94652 3.14901
2.86076 4.7564 2.55207
4.33952 -0.762446 4.38093
-1.29281 -0.733904 2.95324
3.82162 1.59497 3.28887
2.84886 -0.572186 4.08354
0.472642 2.99652 2.51764
1.44665 1.89483 3.30384
3.15256 1.68868 3.09742
1.25786 4.50681 2.50581
1.99935 -1.03469 4.76691
0.494278 3.18856 2.57053
4.13485 1.81008 3.26698
1.22089 1.93829 3.19068
-1.04234 -1.16737 4.14783
0.682538 -0.850816 4.50236
2.1939 3.26141 2.84883
3.35104 2.63169 2.96026
-0.823168 3.29508 2.45722
4.94631 -0.710404 4.04531
-0.476632 -0.362537 2.97574
1.18465 0.788707 3.94301
2.85272 1.88813 3.09661
2.47737 5.03733 2.61132
2.69184 1.88762 3.18042
1.68815 3.39584 2.79062
-0.515981 0.463227 3.15388
2.09244 0.801595 3.82725
-1.42722 0.6106 3.32998
-0.339747 0.926964 3.24289
0.148909 2.29593 2.9407
1.97728 3.51502 2.77285
-1.1834 2.98151 2.44848
-1.32543 1.28757 2.83961
-0.131843 2.16239 2.84381
1.87921 3.61482 2.77646
3.03292 0.422289 3.93447
-1.39393 3.63803 2.34683
0.976503 0.827418 3.5512
0.464875 3.37819 2.44005
0.744721 2.21875 2.85413
3.67993 0.366989 3.81351
0.824483 0.930366 3.52703
-0.40855 3.58007 2.49124
3.66075 0.627708 3.56584
3.95141 -0.0825659 4.21137
2.36976 2.35765 3.05334
1.7908 5.00166 2.42721
0.320964 3.72976 2.5829
-1.24385 1.06122 2.85848
2.86401 0.251537 3.89254
-0.865364 2.33406 2.67774
-1.14145 -0.399818 3.21869
0.142114 4.20032 2.41214
3.84187 1.42374 3.14969
-0.405945 0.203463 4.30015
1.9565 5.02307 2.51828
-0.979021 2.84975 2.36124
3.55907 1.4054 3.2774
1.52577 -1.55135 4.71527
0.126548 2.84626 2.50915
-1.34628 0.903005 2.8227
4.03099 -0.236323 4.18856
-0.310958 3.08234 2.48038
3.70797 1.66921 3.20202
-0.764586 2.07322 3.01751
2.03308 -2.28356 3.55238
4.07141 1.85347 3.2202
2.23859 0.0631772 4.07059
1.51309 1.86555 3.2887
0.84081 4.45328 2.49502
1.49876 3.20187 2.79781
3.05541 2.70564 2.94495
2.10794 3.31068 2.76373
3.91183 -1.15886 4.26669
0.589723 -0.456423 4.77492
1.69575 1.97976 3.12353
-0.890524 3.15635 2.44662
-1.01017 2.21564 3.0673
-0.316006 1.02625 3.25341
2.723 -0.247655 4.48515
-0.899517 4.35643 2.12965
2.36257 5.21936 2.48313
-1.18316 0.927617 2.67577
4.56587 -0.825062 4.81013
1.49226 3.4301 2.72912
-0.700179 -0.582112 4.45167
1.20046 2.08863 3.08753
2.2787 2.0525 3.00626
1.0965 1.05793 3.58202
-1.18006 3.78823 2.29744
0.533449 2.14532 2.91666
-1.43783 1.23166 2.86356
0.179614 3.49111 2.57535
2.38886 3.5236 2.82515
4.48667 -0.421365 3.89025
-1.02656 3.49974 2.4472
-0.551824 0.717399 3.05612
-1.3615 4.31358 2.21064
1.74408 2.32657 3.03309
2.06023 3.73882 2.76892
-0.262432 0.381613 3.31707
-0.562918 2.31206 2.78679
-1.00956 2.85127 2.52109
0.545363 2.35551 2.69773
-1.49075 1.28096 3.24676
-0.325645 3.61015 2.45916
4.12383 0.356159 3.73453
0.210876 1.15051 3.83054
-0.913214 2.42917 2.69289
-1.20426 4.24069 2.19676
4.31678 -2.12461 3.69201
-1.16935 0.791805 3.92949
0.477061 0.981677 3.95755
1.96834 2.52988 2.89231
2.82512 3.9549 2.73588
-0.733729 1.17494 3.33569
3.44247 0.191809 4.0148
4.39766 0.947061 3.65158
1.42461 3.84673 2.63256
0.0415953 2.45956 2.65487
-0.312367 0.384953 1.28693
2.28307 0.556711 3.87733
4.01681 0.754629 3.58718
-0.726471 -1.16646 2.88931
-1.58459 2.94899 4.22882
0.231817 1.17908 3.52454
0.643586 3.45202 2.63195
0.26542 2.09748 2.91567
4.06402 0.0674783 3.78301
2.29226 3.46093 2.8131
-1.26666 3.50893 2.44036
-0.0190624 0.643304 3.5
-0.36021 0.739386 3.89859
1.30138 3.58918 2.73068
-0.971056 2.35868 2.80093
-0.411058 1.41648 3.28889
4.23754 -0.660836 3.88376
-0.995834 2.37755 2.89043
3.94462 0.320014 3.65113
4.22537 1.33284 3.4185
-0.447817 3.51315 2.4928
2.59041 5.39234 2.63457
0.767081 2.27659 2.73712
-0.316033 -0.14433 0.696769
-0.333367 3.568 2.48367
3.24906 0.739405 3.68735
-0.645196 0.516935 3.92703
2.75848 2.35527 2.97039
0.138938 0.687756 4.09996
-0.922972 2.30944 2.65821
2.24133 3.73857 2.70363
1.28549 1.14257 3.75721
1.39795 0.329824 4.27868
0.290096 0.491566 3.39451
2.29428 2.39 2.96357
-0.346949 3.6898 2.46402
0.981683 1.06748 3.57682
-0.02555 0.411383 4.29002
-1.01612 -0.792929 3.2396
2.06409 -0.869049 4.71166
1.63659 1.26458 3.50891
0.0657843 3.86788 2.56873
4.95345 -1.73248 3.37103
0.607168 2.4899 2.66684
-0.795484 0.204526 3.31337
-0.0198851 3.85943 2.49576
-0.820344 1.03443 3.578
-1.00582 -1.41457 2.82665
-0.274124 0.237182 3.3827
1.46723 2.54314 2.91796
-0.254576 3.85997 2.43407
1.98352 -1.13153 3.9434
1.43846 2.70821 2.83399
-1.73167 3.33263 2.38567
1.63303 1.46789 3.55787
-0.179128 -0.462917 3.23204
1.25141 -1.082 4.84066
-0.407065 1.43642 3.44847
0.206394 1.02056 3.63205
-0.378086 2.61129 2.61059
4.26199 -2.24707 3.68196
1.27044 4.03256 2.57958
0.941343 2.78748 2.67737
0.650505 -0.0153995 3.4643
1.62575 1.63961 3.49402
-0.832599 3.77554 2.25538
1.38066 2.80508 2.84492
-1.16634 -0.746567 3.15921
4.0479 1.14606 3.46295
1.44864 4.06322 2.50413
3.83182 2.19701 3.09673
-0.419035 4.19477 2.29855
0.613039 2.83438 2.60895
1.08682 1.71927 3.36324
0.83846 0.770574 3.49899
1.35472 2.26411 3.00387
1.70935 3.62546 2.72306
0.13242 0.420706 3.35952
-1.38426 0.407295 3.31623
0.563224 0.950529 3.91755
-0.00328518 3.5707 2.50828
1.28625 2.34095 2.88485
0.333776 1.05825 3.51393
2.5743 5.28878 2.66158
2.38646 3.78665 2.75083
4.45187 0.696656 3.61935
1.30982 2.26896 2.91145
0.835751 3.80366 2.62754
1.60932 2.56602 2.9656
3.52619 0.56479 3.66051
-1.27982 0.74404 3.28877
3.60532 0.847929 3.64263
-1.06952 -1.71835 2.78863
3.74488 0.624521 3.41768
-0.744008 -0.139154 3.31553
-0.267394 2.52187 2.78377
-0.375722 4.1524 2.35188
0.624832 3.86778 2.59442
-0.410321 2.60526 2.60987
-0.557875 0.387036 3.32802
1.76741 1.35104 3.55743
-0.711559 3.73001 2.36745
4.48534 -1.93247 3.59606
-0.323764 0.425521 1.29538
-0.856195 2.5989 2.63583
-0.702308 -1.36349 3.15487
3.77709 0.561754 4.03695
0.7251 4.04586 2.62344
3.78765 0.821613 3.40994
2.66593 -0.610446 4.66747
0.207912 1.18905 3.625
-0.0472047 4.01466 2.5165
0.0739909 2.60335 2.56532
-0.888676 -0.314263 3.95632
1.69458 1.40745 3.4768
1.36122 4.00396 2.52558
4.65463 -1.92241 3.49524
0.634489 1.7016 3.36576
0.922509 -0.948309 4.92296
-0.458961 2.79522 2.55881
0.334545 -0.802053 3.23698
-0.351523 3.94633 2.34046
2.51531 1.32701 3.43239
3.14257 -0.740352 4.18865
-1.34021 0.44369 3.19603
0.753597 2.68435 2.64416
1.13746 2.96443 2.71359
0.794726 4.20132 2.51379
-0.00678797 1.83905 3.17898
4.36187 -1.37387 4.6157
-1.01713 -1.37916 3.15845
4.31607 1.47327 3.75347
-1.0887 1.22484 3.19572
-0.719054 4.09142 2.19034
2.90322 -1.03933 4.18531
2.0837 2.932 2.86547
-0.374293 1.46434 3.31886
-1.01331 2.98153 2.41105
1.38402 -1.68502 4.6893
2.31302 1.64832 3.19414
2.31108 3.047 2.81068
-1.10446 0.583525 3.06107
3.55444 1.44792 3.23545
0.764715 4.38986 2.50866
-0.650402 -0.619829 4.25298
-1.84966 1.55797 4.94554
-0.518425 3.67707 2.33742
2.22539 2.59045 2.89296
-1.15665 2.88875 2.53118
3.4765 -0.649424 4.6434
-0.716661 3.64009 2.25452
-2.03778 3.70499 2.45498
0.712707 -1.70492 3.35758
2.19961 1.40128 3.41847
-0.877101 3.69504 2.24283
-1.15273 -1.51251 2.81144
3.48863 -1.06473 4.41727
0.502404 2.67878 2.61066
0.305553 0.0600999 3.38839
0.930643 4.79935 2.53905
1.88615 1.43448 3.57665
1.11204 -0.947959 4.95123
-0.506381 3.84672 2.32731
-0.475058 2.63657 2.54922
0.021705 -0.690399 3.22073
-1.45967 3.08075 2.41635
3.10416 2.89342 2.84436
-0.405491 3.92502 2.32768
0.0394726 1.78242 3.24699
-1.16879 3.20452 2.45784
2.07987 2.85491 2.86741
-1.11768 -1.21993 4.22988
0.578132 4.17962 2.48347
-0.641861 1.71057 3.24069
1.98245 3.08908 2.8262
-1.1115 1.15732 2.9519
-0.230209 4.08334 2.28098
0.813451 1.86677 3.2678
-0.883583 2.85123 2.43551
-0.688281 1.24008 3.21944
1.20869 1.84503 3.44611
2.54683 5.06161 2.47345
3.84608 0.206474 3.86471
-0.158524 1.91755 3.04228
-0.918257 2.99566 2.42654
2.03019 4.06021 2.63627
3.20896 0.455523 3.79934
4.3055 0.850974 3.47097
1.68489 4.35419 2.51411
2.78319 1.76578 3.15499
4.8119 0.649251 3.36895
3.65245 -0.0854942 4.23922
0.0339488 3.1371 2.50825
3.85288 0.052844 4.09241
1.63952 1.89174 3.22143
3.84878 2.65078 3.09083
-1.0502 3.14743 2.48509
3.1669 2.60159 2.98185
1.90607 3.42784 2.77492
3.39698 -0.363937 4.43108
-0.726913 2.18556 2.87885
-1.19797 0.21001 3.50228
-0.468976 1.4173 3.22129
0.104315 2.1316 3.03714
4.28316 -0.0515519 3.83089
-0.831276 0.943997 2.99742
3.51542 -0.139148 4.28347
-0.0104895 3.24834 2.54534
-1.13071 3.8546 2.23358
0.95591 2.19959 2.95229
-1.50938 1.85868 2.83451
3.91384 0.214755 3.82731
0.223572 3.38578 2.55849
3.04279 -0.456331 4.26086
0.450004 3.51771 2.62202
-0.946375 0.808222 2.9148
-0.494613 2.21255 2.84976
0.26637 2.71958 2.56874
0.538837 0.273478 3.51854
-0.884349 1.70056 3.29126
-0.809184 3.78369 2.27718
3.76846 -0.517961 4.09516
0.345253 -0.181807 4.68298
-0.256021 2.71307 2.58232
2.38952 -1.92825 3.82023
0.21067 1.80429 3.59169
-0.841991 3.80937 2.14066
0.842691 1.75251 3.3544
-0.236758 2.84415 2.54753
-0.805747 -0.640713 4.10965
1.03639 4.1201 2.47333
-1.14014 -1.63053 3.13448
3.89671 -0.62617 4.21482
0.592916 4.23084 2.46631
1.38359 1.77389 3.28908
-1.50911 1.68406 2.90411
-0.162643 2.97194 2.53114
4.23542 1.50479 3.60154
2.85033 4.77381 2.7431
1.41321 3.01241 2.79542
-0.26046 1.44269 3.30955
3.5416 -0.918726 4.66577
1.25345 3.21436 2.73816
1.77295 -1.24864 4.37352
-1.23381 0.981836 3.048
2.97883 1.6707 3.19727
3.98731 -0.92516 4.36451
0.220907 -1.15519 4.88955
4.71438 1.4115 3.35908
1.16457 1.921 3.31998
4.16945 -0.95115 4.26156
1.02743 3.12712 2.69209
-0.654767 3.19154 2.45414
0.382053 -2.10345 2.1012
-0.257828 0.867715 3.23472
1.9783 0.731349 4.02601
3.4221 1.77732 3.19279
1.90515 4.57403 2.5592
0.278387 0.786885 4.1491
0.220248 3.11641 2.50295
0.785456 1.94288 3.02443
4.48905 0.0513342 3.85069
0.565729 2.01973 2.89504
-0.883014 0.281672 3.88181
2.19567 3.4401 2.81303
-1.30457 1.13477 2.84146
1.35144 4.68066 2.53231
3.76268 0.220502 3.80542
3.45972 2.00731 3.08548
2.14108 5.00111 2.70406
0.0367596 2.15101 2.85753
1.62647 3.5062 2.70503
0.267871 1.15755 3.52364
-0.842317 0.617202 2.96669
-0.234914 0.181127 4.32763
1.53443 3.52236 2.7612
4.18436 -0.692319 3.93703
-0.341798 1.17196 3.27659
-0.257621 -0.0127598 4.29839
0.964447 2.23386 2.81653
0.841664 3.56786 2.63025
-0.880661 4.09631 2.17078
-0.71265 2.27019 2.72872
0.51837 0.146655 4.43167
-0.425624 4.25668 2.28569
-0.800994 1.08833 3.06569
0.0406693 3.58132 2.52836
0.687021 0.51619 4.20109
4.11861 1.87909 3.18027
-1.42524 1.16558 2.79858
1.57145 4.48689 2.5135
1.81256 0.732012 3.84566
1.94088 3.21705 2.79623
-0.721379 2.06277 3.02056
1.02816 2.0634 3.12902
-1.22772 -0.21018 4.15363
-0.131895 3.26244 2.55093
0.334135 -1.04216 -0.986786
1.88814 0.265769 4.23674
0.706899 1.96581 3.03039
-0.927866 4.03889 2.18616
0.59233 3.20114 2.60496
2.81487 0.45189 4.02021
1.29472 2.13708 3.04118
3.0048 -0.0924366 3.91011
4.15227 -0.456878 4.05475
-0.486496 3.37632 2.50704
-0.899321 0.812292 3.0023
1.669 2.04672 3.1174
2.61924 0.10514 3.97055
-1.26749 4.12712 2.15746
0.612336 3.34019 2.6011
-0.557804 0.800158 3.06552
-0.329973 1.24352 3.29386
1.10802 -1.56204 4.49768
2.09301 -0.205104 4.33418
1.49543 2.23336 3.00737
0.524595 3.41204 2.54058
-0.369863 0.762236 3.19913
-0.0396459 -1.28371 4.07659
0.0182283 2.26259 2.89714
-0.131642 3.45557 2.4686
-1.00132 3.03216 2.05237
0.181258 -1.39066 -0.602296
2.24868 3.70666 2.7597
0.357579 1.03605 4.1651
1.94054 2.23473 2.98435
0.151842 0.218366 3.48717
-0.876592 3.63692 2.46986
0.432258 1.07834 3.89146
4.01346 2.53541 3.25473
2.53051 4.32112 2.71878
1.48981 3.78438 2.64971
-0.0438629 -0.254513 3.14788
0.0728191 2.34317 2.72224
-1.09759 0.744537 3.25241
3.9278 0.811777 3.44437
0.774553 3.92085 2.64805
2.105 2.54402 2.92577
-0.767338 0.898906 3.29701
-1.47126 2.71728 2.29636
0.28744 1.23781 3.86742
1.58647 3.96906 2.65714
0.206785 2.44963 2.66487
-0.9906 -0.239201 3.25907
-1.21004 -1.18645 2.82499
1.57171 2.70852 2.85613
0.967448 0.79946 4.04406
-0.56262 -0.971166 3.2332
-1.30521 2.87479 2.56968
3.5195 1.02816 3.37562
-0.531619 3.73304 2.33963
0.0312385 -0.151828 3.28365
4.54791 -2.10649 3.60436
1.0432 2.60712 2.77904
4.33366 0.948392 3.59182
2.5298 4.16985 2.70715
-0.934298 3.28818 2.46361
3.14167 1.87107 3.16303
-1.62162 -1.19739 4.22466
2.73347 0.661098 3.59853
1.54435 4.68674 2.53339
0.539528 3.2938 2.62579
2.36327 1.97383 3.26454
-0.476408 0.466232 3.20818
-0.136277 4.36831 2.19912
-0.583168 0.0268137 3.01829
-0.731209 3.31309 2.43489
1.54719 0.645528 4.1926
0.77127 2.11148 2.92996
1.57545 2.21751 3.00038
0.752526 -1.18128 -0.595774
1.01309 3.52104 2.6673
0.114436 0.370047 4.23356
0.626277 0.322477 3.54674
0.569292 -2.04034 4.4224
1.50969 2.18539 3.05482
-0.861206 0.433317 3.90192
0.687394 3.54055 2.60864
-0.914218 0.596735 2.98714
4.12089 0.0897874 3.76126
1.81074 0.12003 4.3232
1.11009 0.872251 3.93734
1.96637 3.6792 2.72645
-0.261812 -2.26184 2.78987
3.84806 -1.55661 4.06401
1.53172 2.36093 2.97278
2.39569 0.239723 4.16688
0.705059 3.65479 2.57286
-0.721517 0.776739 3.02445
-0.558326 2.36946 2.78868
3.03902 -0.679567 3.86539
0.818833 2.44232 2.76117
3.85913 2.76332 2.9504
1.68881 -1.29417 4.4376
1.72534 1.12057 3.53581
-0.714207 3.60812 2.39386
-1.11568 -1.63113 2.79596
-0.107596 2.41705 2.70206
-0.929211 0.271227 3.22454
1.96913 -1.03802 4.43791
3.48076 0.714581 3.5261
0.724155 3.92946 2.65652
2.04891 2.64414 2.94298
-0.599676 0.47828 3.32808
-1.42504 -0.158792 2.69156
3.38194 1.05661 3.56215
1.4035 3.88876 2.60108
4.63786 -1.68067 3.55618
0.0109769 0.969773 3.66657
0.401167 2.40713 2.59314
0.302105 1.26866 3.81886
1.00297 4.00722 2.61558
-0.583071 0.114327 1.2225
4.81 1.21352 3.86526
1.84502 2.69374 2.88093
0.682772 4.09551 2.6188
0.283097 0.282825 3.52691
4.90804 -1.88632 3.46046
2.31937 1.48845 3.47381
2.5519 4.07896 2.52554
1.10425 2.80048 2.74006
0.79339 1.29739 3.58664
-0.62858 1.55693 3.18007
-0.741851 3.84345 2.25448
-0.876814 2.73849 2.55589
-1.32186 0.653989 3.23863
2.20043 2.35474 2.92485
4.46819 0.914778 3.50296
4.42171 -2.0261 3.62126
0.0713715 1.24491 3.81275
-0.906186 3.58246 2.42968
-1.0638 2.34503 2.64445
3.20017 -1.23076 4.02039
0.69084 2.28355 2.73739
0.471931 3.75783 2.5839
3.69824 0.565174 3.60882
-0.864298 0.537405 3.21084
-1.06874 3.65312 2.3463
-0.612298 0.167066 1.14227
-0.00247919 2.44214 2.64818
-0.400125 1.24636 3.60895
0.933398 1.07051 3.55564
1.82764 1.32885 3.55851
0.209606 3.88249 2.5396
-0.210511 2.52322 2.54971
-0.27622 0.902362 3.55086
1.38261 3.94691 2.59134
3.39169 0.949194 3.53993
4.81294 -1.9821 3.44808
-0.554615 -0.618547 3.26261
1.49621 2.6118 2.9333
1.77527 3.96742 2.57929
-1.15724 -1.50635 2.81232
0.870592 2.71373 2.69581
3.99038 1.09243 3.36986
0.277938 -0.29546 3.27621
0.660338 1.60338 3.5208
0.129799 -0.64496 3.2296
-1.57989 0.245492 2.71108
-0.428883 2.65191 2.57286
0.0189852 3.99651 2.45382
0.166978 -2.39824 3.22871
1.90516 2.92574 2.853
0.454501 1.75081 3.29524
3.42276 -0.386398 4.33231
1.55701 4.03976 2.48837
-0.315976 2.81451 2.60811
-1.05482 -1.94747 3.10916
1.36251 1.67392 3.50007
-0.809228 -0.0521876 4.12175
-0.367056 4.01308 2.34529
4.69966 1.44103 3.39077
1.83273 -0.566282 4.73412
1.69372 4.14435 2.4591
-0.859851 2.86658 2.45811
2.09594 -0.421164 4.50887
0.719923 1.77211 3.2339
1.9832 -0.78913 4.97869
2.45117 1.6616 3.23724
0.423943 -1.37302 4.64556
-0.82254 2.95887 2.41008
-1.66985 2.99113 2.49219
2.16812 1.6466 3.29939
-0.55262 -0.577702 4.24187
-0.821221 3.01791 2.52258
-0.983554 0.372287 3.0483
0.39591 -1.14422 4.79838
-0.196816 1.97387 2.89782
1.0947 4.42264 2.49381
0.148964 3.16488 2.55289
4.82263 -0.675844 3.40084
2.37043 -0.907417 4.61372
1.55701 1.88788 3.20856
3.97517 -0.626735 4.12203
0.335896 -1.04217 -0.98536
0.350943 3.08777 2.5482
-0.153729 3.74242 2.47345
-0.165914 2.55455 2.67969
3.49584 2.23728 3.14286
4.16833 0.870195 3.61455
-0.822285 -0.910058 3.99847
-2.30709 3.74337 2.49263
3.82635 0.7419 3.52627
-0.894504 -0.7268 3.22889
1.97296 2.50395 2.98268
3.107 -0.908704 4.41145
1.11742 3.88637 2.59716
3.9242 -1.38511 4.37746
3.47974 2.55943 2.92654
-0.520419 -0.167209 3.2431
-1.41844 0.118489 2.68901
-1.59932 3.47187 2.41497
-0.645098 1.47191 3.31752
1.4313 3.9769 2.62099
-1.94731 2.36989 2.75583
3.45134 2.52228 2.90816
-1.32765 4.02053 2.30445
-0.849708 3.70338 2.25545
-0.466831 1.41762 3.50368
0.463658 -0.510675 3.26535
-0.478959 3.9397 2.39079
2.56979 2.69213 2.8702
1.0843 1.52931 3.36716
0.778775 4.18135 2.56034
-0.318192 1.84842 3.28313
0.314031 -2.39704 3.22936
-0.0674585 2.76534 2.50118
-0.612267 4.12226 2.32105
3.50323 1.20722 3.32844
-0.378905 -1.54234 3.15191
-0.48672 2.75692 2.53727
-0.123235 4.09347 2.35654
1.63581 1.70299 3.25623
-0.204109 2.87828 2.45377
-0.796102 1.24385 3.287
3.6656 1.46943 3.46496
2.85925 4.70059 2.74004
-0.828616 0.281069 4.15001
0.785116 2.91849 2.6576
4.31096 1.38539 3.37795
-0.830052 3.0262 2.41404
-0.865124 -0.318322 3.34727
1.26883 -0.00197178 4.56947
3.29013 1.61309 3.18498
1.06772 4.49666 2.49739
0.699247 3.08456 2.63704
2.34115 0.0223223 4.12917
3.31627 1.57246 3.30792
4.08608 2.07612 3.03768
1.94508 4.38547 2.54249
2.01278 -0.429421 4.57676
0.0802459 -2.14759 1.94251
-0.479998 0.881779 3.16002
3.49571 -0.792019 4.1975
-1.25007 -0.283811 4.11158
1.21142 3.31373 2.77111
0.766157 -1.96207 2.02928
-0.585776 2.06254 2.97048
0.390393 2.06078 2.92693
2.16328 4.13001 2.65368
-0.494074 3.26316 2.47931
-0.274332 -0.8558 4.99935
1.34143 2.00441 3.12297
0.421439 -0.674714 4.7872
-0.792113 3.21777 2.46867
4.21751 -0.385024 3.93614
-0.498585 -1.53673 3.15096
0.938691 2.94877 2.69583
0.809554 1.75244 3.23869
3.63276 -0.187048 3.87932
1.30232 4.11956 2.48667
4.08546 1.33335 3.49804
-0.55252 1.09021 3.40712
0.876275 4.20444 2.47132
3.82731 -0.066898 4.00549
0.248116 2.79927 2.555
-0.685085 3.01812 2.4669
-0.690764 1.59739 3.16312
-0.222417 4.52902 2.19145
2.98979 1.55498 3.19876
1.68723 3.16545 2.8977
3.97579 1.88896 3.29397
2.70386 -0.292573 4.3019
1.88679 1.71313 3.31625
1.34725 4.50208 2.51062
0.657735 1.94657 3.12062
1.65549 -1.93413 2.45849
-0.397812 -0.628777 4.57342
2.15484 3.29425 2.87839
1.99656 4.20322 2.55019
-0.535532 -0.385799 4.68657
4.51425 0.808113 3.41292
3.69036 -0.847089 4.23572
3.31959 1.78512 3.10729
2.88038 -0.998979 5.09979
0.03039 -2.26785 2.00034
-1.00484 3.24771 2.48523
0.461575 2.02632 3.09491
3.55788 -0.787133 4.39101
2.2964 3.28183 2.81468
4.03671 -0.804258 4.07795
1.2769 3.48171 2.71821
1.63093 2.11093 3.09563
0.722398 4.72451 2.38081
-0.986075 1.2435 2.97777
1.84979 2.09989 3.23072
-1.02324 4.3586 2.15714
1.70634 3.4597 2.79708
-0.503482 0.625427 3.06642
1.7682 0.828042 3.84649
4.02987 0.272475 3.73336
3.19014 -2.32944 3.59838
0.352966 2.2908 2.89785
-0.104991 3.39424 2.49058
0.32942 4.36465 2.44121
-0.472723 0.10699 3.02115
0.263241 2.24045 2.93682
-0.873551 3.45428 2.43702
-1.26077 0.421049 3.83797
-0.378675 4.33206 2.27182
1.1737 0.979501 3.58391
1.7572 3.69375 2.72665
2.43607 2.23114 3.04119
-0.771999 -1.38578 2.86282
3.57238 0.494887 3.85357
-0.634014 0.903012 3.63934
-0.497226 2.3741 2.61565
0.369896 3.68069 2.56575
-1.16741 3.56387 2.43081
0.214556 0.251436 4.38448
-0.746357 3.59874 2.38968
4.03764 0.12901 3.96014
-0.136931 0.873787 3.85665
0.135059 0.923971 3.3834
-1.09148 2.05909 2.61493
-0.0513462 2.35385 2.73824
1.77485 -1.59227 4.66164
1.71554 0.391239 4.31625
2.21331 1.79995 3.41147
-0.34312 1.47846 3.32323
-0.608836 3.08409 2.53677
1.21362 1.85296 3.37898
0.892901 4.64954 2.37528
0.884135 3.02522 2.69429
-0.862761 -0.168471 3.32248
3.44022 -0.0539105 4.19847
0.524002 3.22688 2.62397
1.48481 4.32433 2.50415
3.57753 1.7397 3.30909
4.59 0.792605 3.39048
0.355104 -1.04628 -0.96534
3.70335 0.056687 3.74023
2.85004 1.70641 3.23895
4.26979 -0.595775 4.14116
3.0717 3.41229 3.06776
-0.242941 0.804526 3.23009
-1.08394 3.34255 2.51772
1.60772 4.59237 2.52749
3.43355 -0.393152 3.97964
1.11167 -0.0463317 4.51885
-0.68206 2.15964 2.88372
2.19957 3.3557 2.82041
0.989328 2.06994 3.1489
4.06525 -0.255898 4.00628
-0.422716 -0.0303049 3.0256
2.43414 -0.617122 4.38154
0.931288 3.41035 2.65136
1.19271 -0.372361 4.66435
3.92763 1.94044 3.11271
4.1007 0.40914 3.7629
0.239822 -1.93829 1.80992
-0.29529 2.23241 2.75912
-0.645596 3.46929 2.5212
3.90166 0.0247927 3.84957
-1.08777 3.4992 2.47518
-0.0886933 2.228 2.87012
0.648585 1.21714 3.56851
0.125538 -0.840635 3.24705
0.398664 4.6632 2.35638
-0.00319167 0.20732 3.42927
-0.592348 3.5379 2.46325
-0.787666 2.39914 2.70671
2.59251 5.23331 2.68954
3.8313 0.58937 3.66259
-1.35423 2.40963 2.81812
4.10185 1.4243 3.32764
0.572999 2.26011 2.80574
0.11979 3.62856 2.51471
-0.138707 2.48725 2.69634
4.49609 0.541853 3.51664
2.62812 0.957673 3.52451
-0.129557 0.759066 3.92869
-0.0757438 3.65012 2.47176
3.55197 2.22793 3.13478
1.31179 2.40364 2.87074
1.81991 3.86089 2.67774
2.66559 0.858768 3.52595
-0.714549 -0.427302 3.26077
-1.21049 2.91232 2.46777
-0.469386 3.73681 2.39622
1.64957 0.460745 4.08158
-0.944555 -0.0765633 1.57934
1.79277 2.55401 2.91581
-0.264641 0.618877 4.14987
3.60214 0.937818 3.62154
-0.149514 -0.215068 3.17483
1.2989 2.21368 3.07466
-1.05333 4.19909 2.20545
-1.15482 0.29402 2.84213
-0.898593 3.35171 2.40677
-0.367932 2.13414 2.78745
3.93114 -0.277644 3.91859
2.10438 3.47912 2.78378
3.38205 -2.43914 3.62325
-0.708359 0.913624 3.07794
0.33938 4.61496 2.33961
0.802779 2.25187 2.83388
2.00668 3.63399 2.77373
-1.13571 0.794157 2.84258
-0.140854 4.18729 2.16472
-0.616075 2.26768 2.73643
1.29462 3.68023 2.68766
2.72129 0.561834 4.08294
1.68781 2.38623 2.90393
-1.421 2.73862 2.71975
1.81956 3.74529 2.6998
4.41016 0.699697 3.73689
4.07894 0.728614 3.4371
0.571699 0.860302 4.15296
0.909382 2.27461 2.76572
-1.0303 4.31921 2.17855
0.996183 0.881403 3.96012
1.84969 3.83302 2.71333
3.30189 0.92314 3.71424
1.03317 0.752369 3.5413
2.20729 2.44033 2.94373
1.25103 0.419499 4.19743
0.0561101 3.76411 2.49458
0.947544 0.974779 3.54979
4.1357 0.231987 3.98208
-0.938322 0.57112 3.24053
3.09181 1.00172 3.40228
0.312095 4.12814 2.47919
2.46694 2.57512 2.91274
-0.407367 0.929374 3.4725
0.533632 3.97906 2.57379
2.01524 1.2511 3.6451
-0.681655 -0.740132 3.2423
5.32112 -1.52228 3.26845
-0.658869 2.59893 2.6778
2.37981 -0.758439 4.48183
0.328533 0.553367 3.6314
4.09674 -1.16048 4.44936
1.10288 2.72728 2.74583
-1.27331 -1.0838 2.83879
0.547789 1.71587 3.5387
2.20499 4.17319 2.76368
2.82404 -0.976437 4.82813
0.1975 1.6833 3.58386
0.367913 1.16409 3.69759
-1.17409 2.95758 2.42797
-0.531345 2.67242 2.59899
0.932103 4.15004 2.60245
-0.716166 -2.24369 3.13916
-0.575745 2.84032 2.53174
3.89679 1.24339 3.33374
-0.503236 3.95397 2.35036
-0.826643 2.66682 2.44693
-0.962536 -1.31885 4.42154
-0.328707 -2.11827 3.10887
2.75379 1.31646 3.31266
-0.255501 3.95224 2.32255
3.75688 1.47574 3.51356
0.290144 2.8644 2.56206
-0.326257 4.0439 2.22812
-0.908917 0.33699 3.19677
-1.17578 0.0462107 3.83854
2.65989 1.4723 3.26196
-0.479605 2.98637 2.61558
-0.584818 4.05054 2.20416
4.90899 0.00192615 4.55624
-0.44538 1.05438 3.42067
2.6765 4.6628 2.78139
-0.0870282 1.89992 3.0634
-0.631735 3.02831 2.49138
3.82494 -0.424351 4.08409
0.211381 -0.0481847 4.32509
-0.185876 1.9042 3.15446
0.676538 4.50847 2.50665
-0.414037 1.2832 3.27808
1.85976 3.0883 2.83821
-1.01076 0.727846 3.25317
-0.517434 3.09141 2.43248
3.60514 1.98146 3.13553
2.12381 1.91947 3.28925
0.658998 -0.726135 4.9756
2.84482 2.06073 3.07433
0.416654 3.0269 2.51107
-1.54894 0.468347 3.0521
-0.16771 1.08944 3.31273
0.120409 1.95761 3.0413
3.22634 -1.02149 4.20957
1.09681 -2.07699 2.12509
0.951145 -0.448172 4.94623
-0.00132877 3.25412 2.51036
1.26511 2.03112 3.07102
-1.52544 -0.162239 4.08863
0.126338 3.22672 2.55629
3.25626 -1.63224 4.29848
0.446914 -0.783656 4.64511
1.87531 1.97807 3.21189
-0.552679 2.132 2.78611
0.538653 1.33256 3.57964
-0.748707 3.26933 2.41261
4.24575 1.24972 3.41957
2.901 3.17989 2.91072
-1.08004 1.00728 2.9137
2.95254 2.055 3.03622
-0.254989 3.31516 2.4228
-0.0431058 0.742416 3.95157
3.8767 -0.287511 3.89033
-0.773745 2.19035 2.74784
0.29 3.45942 2.53152
3.99777 0.183588 3.68687
1.67253 3.70322 2.7431
0.848284 2.29627 2.80523
-1.19352 0.324739 3.8947
-1.46747 4.01478 2.29015
2.28118 0.93817 3.81576
-1.45167 0.861162 2.05337
3.28198 -0.298637 4.07348
-0.630431 2.38252 2.80261
1.06963 3.69158 2.62526
2.84984 0.650343 3.90431
1.56167 2.45963 2.90679
0.204794 -0.291607 3.34778
-1.34267 -0.10904 3.25562
2.52449 0.991568 3.58844
2.90254 3.84454 2.67337
-0.947567 0.370832 2.96092
-0.570089 1.1037 3.50301
1.02786 1.11708 3.57812
0.411801 2.40721 2.75435
-1.15539 0.253087 3.94247
-0.652311 3.60272 2.34709
-0.494784 0.92709 3.77135
-1.8042 3.13168 4.81892
2.14099 4.78071 2.64108
1.35792 3.38468 2.72208
-0.215788 0.552988 3.36766
4.13235 0.117013 3.81776
0.821249 2.03229 3.05376
-0.740463 0.902225 3.03472
2.06333 3.41688 2.85919
-0.999772 0.582788 3.65984
2.6432 2.03125 3.06344
-1.46542 1.72738 2.83595
-1.01668 4.22896 2.20372
-0.242634 0.712579 3.98057
1.40029 3.53314 2.71343
-0.889377 0.197902 1.75841
2.28773 2.05057 3.14278
-1.4102 0.45563 3.32439
-0.301399 3.23969 2.42496
0.14628 2.24238 2.73649
-1.51192 2.01955 3.10971
2.05053 3.61 2.76226
-0.155009 0.282007 4.25785
-0.503154 4.35647 2.25867
-0.648737 3.55541 2.47767
0.690178 2.20055 2.84875
-0.514648 0.403324 4.2445
1.01229 1.19652 3.55853
-1.30341 3.10071 2.52542
1.08538 0.121891 4.43235
0.0837043 3.62427 2.51139
0.0637944 0.945486 3.39425
2.23101 2.27704 2.97554
3.35609 0.57792 3.64245
3.13908 0.0946446 3.75068
3.49472 -2.42324 3.6169
2.54611 -1.08363 4.29938
-1.06436 3.6049 2.38361
1.46346 1.26899 3.71724
-1.21046 -1.2714 2.81458
1.20374 2.53072 2.92002
3.73666 -0.873805 4.00673
-1.04764 2.20418 2.52056
2.53173 0.941936 3.65435
1.51418 3.82563 2.6375
0.319542 4.54574 2.49028
0.989815 2.41012 2.83916
-0.884876 0.925058 3.2234
0.864332 1.52747 3.63484
-0.598337 3.69794 2.38159
-0.977913 0.059923 1.58972
1.3839 2.57545 2.7995
-0.935381 0.0323258 3.27044
1.07824 1.40163 3.63405
1.66554 3.92473 2.59739
3.62138 -1.4323 4.25789
-0.158444 0.860071 3.58492
0.167782 2.42798 2.59069
0.353301 0.248998 3.50876
0.370333 0.933032 3.70477
2.49047 2.71507 2.89306
1.93591 1.39096 3.435
