ply
format ascii 1.0
element vertex 1926
property float x
property float y
property float z
end_header
2.46047 2.82314 2.81723
-0.64788 0.294973 4.04336
-0.474884 3.53595 2.4944
1.06447 1.36611 3.52479
0.505111 2.05827 2.9505
-0.131975 2.3247 2.98587
0.919219 4.27547 2.38105
-0.331029 1.58331 3.34799
-0.00529798 3.43758 2.3708
0.0143976 2.86324 2.51675
0.861144 -0.196679 4.61936
-1.13519 3.27588 2.45755
2.46825 -0.149113 4.18072
-0.247872 2.22716 2.99004
-0.463727 4.20881 2.25089
3.30708 1.28457 3.43162
0.510888 3.64763 2.48402
-0.412373 2.83166 2.56903
0.0321069 3.84801 2.35567
1.99402 3.4493 2.72539
1.30391 4.59265 2.29971
-0.113653 2.59958 2.73019
0.000803214 1.92114 3.11213
6.02171 0.30211 4.83063
4.07121 0.888613 3.66853
-0.822285 -0.910058 3.99847
3.59201 0.788296 3.6657
-0.0404975 1.81643 3.06546
3.36546 0.423576 4.07559
1.93436 2.5807 2.96326
3.10457 -0.913088 4.41522
1.36297 3.2909 2.63073
3.9242 -1.38511 4.37746
3.26768 2.7717 2.9014
3.81508 0.118898 3.91005
-0.121673 3.38263 2.4532
1.20001 3.96299 2.42172
-0.665718 1.31761 3.37525
1.48746 4.07191 2.44442
1.504 2.03848 3.15174
0.402775 3.27287 2.46618
3.637 -0.916866 4.22946
3.30936 2.65169 2.89184
4.12957 -0.716317 4.09754
2.42636 1.93494 3.22671
-0.640524 3.85017 2.18031
2.45908 5.17586 2.52688
-0.495789 1.25523 3.5674
2.01278 -0.429421 4.57676
0.224121 4.08493 2.46175
3.49571 -0.792019 4.1975
-0.498304 2.57656 2.68749
-1.25007 -0.283811 4.11158
1.25845 3.39348 2.65332
3.1072 0.940132 3.65288
-0.59913 1.94088 3.08666
0.402868 2.02623 3.031
2.14556 4.24862 2.46827
0.488542 1.33644 3.64185
1.03363 4.02698 2.39869
-0.357533 3.39066 2.45137
-0.274332 -0.8558 4.99935
1.22817 2.71965 2.73762
1.525 0.707598 4.13512
1.33536 1.98297 3.19827
3.42969 0.982996 3.56458
-0.745383 3.84871 2.18088
0.421439 -0.674714 4.7872
-0.655931 3.35004 2.46061
2.5648 2.69616 2.89428
0.593779 3.76859 2.51463
-1.09308 0.768024 3.77132
0.0815498 4.20036 2.20461
1.60788 1.64096 3.35064
4.21751 -0.385024 3.93614
1.77949 2.38883 2.97865
-0.112393 2.98911 2.46721
1.95806 3.8487 2.54901
3.49264 1.5362 3.55488
2.83229 4.82414 2.60592
0.886318 2.28517 2.91109
-0.828616 0.281069 4.15001
0.838459 2.98028 2.59798
-0.710609 3.16464 2.42824
1.25334 -0.0278197 4.56816
1.68005 2.59902 2.9711
3.11959 1.71818 3.25639
2.19237 3.96621 2.58046
3.22359 0.809684 3.63619
0.770967 3.15167 2.56569
1.19728 4.59312 2.29716
-0.520473 2.43577 2.72849
2.31227 -0.019227 4.15497
3.15153 1.65228 3.37897
-0.777228 0.910447 3.61305
-0.631801 3.74813 2.26489
3.80758 0.528589 3.90732
1.95798 4.49271 2.3451
4.33952 -0.762446 4.38093
-0.820336 3.7386 2.2962
3.61125 1.73329 3.36527
2.84886 -0.572186 4.08354
1.05525 2.48181 2.86534
0.549847 3.0667 2.4521
1.37026 0.944166 3.84524
1.43834 1.81868 3.37608
2.99236 1.79976 3.16303
1.3645 4.60651 2.30592
2.09693 1.09797 3.77388
1.99935 -1.03469 4.76691
0.583743 3.26353 2.4927
3.5076 0.271706 3.80704
1.18919 2.60489 2.77934
1.22466 1.88527 3.2923
2.98004 0.501047 4.12092
4.52359 1.02627 4.0681
0.682538 -0.850816 4.50236
-0.103538 3.91816 2.3832
2.13916 3.37744 2.72594
-0.16789 2.58033 2.76954
1.34003 4.00926 2.43939
-0.63671 2.97391 2.5797
-0.622237 3.57067 2.4211
0.879421 2.22537 2.91351
-0.464826 4.13579 2.23713
0.223244 -0.15674 4.58265
-1.04234 -1.16737 4.14783
4.81306 0.402002 3.62382
2.18442 1.39617 3.26727
-0.249392 1.547 3.38689
1.71661 2.1804 3.04999
0.375936 4.14257 2.22034
1.96174 -0.0778598 4.16549
0.97456 3.65119 2.48359
-0.0168548 2.80672 2.52939
-0.715501 2.41575 2.76943
0.978791 3.12941 2.6142
3.69148 -0.412764 3.84058
4.99462 0.70543 4.34275
0.181117 4.30191 2.24339
-0.971062 1.80553 3.23617
0.283694 3.6727 2.40984
-0.458882 3.01438 2.53109
-0.633128 2.36877 2.84724
0.733603 3.74636 2.41831
-0.943949 1.71158 3.25399
2.86076 4.7564 2.55207
2.87226 0.250584 4.08568
4.63903 -1.39831 4.72443
0.574887 3.46221 2.33528
0.87688 4.25259 2.30385
-0.539118 -1.09236 4.80127
0.767474 2.23746 2.91521
3.45941 0.29354 3.94238
1.90183 1.49735 3.43542
1.96482 2.99482 2.72923
-0.230643 4.13048 2.10404
3.74067 1.53695 3.29833
-0.234504 3.71024 2.41446
3.44936 0.626383 3.71943
0.207127 3.02256 2.48202
3.95141 -0.0825659 4.21137
2.30235 2.45125 3.05382
3.07694 1.48175 3.32089
1.13094 -1.56715 4.79268
0.464623 3.82534 2.4601
1.90239 3.04936 2.68186
2.74743 0.123464 4.00507
-0.857707 2.32507 2.76792
-0.46618 1.40144 3.55493
-0.674283 3.42938 2.43552
1.32872 4.04435 2.40685
-0.523872 2.70919 2.58718
4.91002 -0.714791 4.06399
1.16831 0.737351 3.96554
2.72615 1.97767 3.13549
4.27328 -0.768036 4.56615
-0.309308 1.30522 3.5641
2.4909 5.09092 2.53166
2.58658 1.95134 3.22319
2.30328 2.74415 2.89629
3.16782 -0.602117 4.05008
1.69165 3.49294 2.66462
3.21445 -0.797857 3.98684
-0.142296 2.85279 2.56472
2.02452 0.541235 3.99133
-0.0270918 4.00907 2.28502
-1.42722 0.6106 3.32998
3.6643 1.31151 3.47212
-0.852037 3.91923 2.15413
0.174686 2.25832 3.02154
1.94782 3.62268 2.62932
-1.08727 3.09026 2.47227
2.22786 2.91051 2.86715
-0.117543 2.13606 2.95575
1.87727 3.71182 2.63107
-0.870396 1.44505 3.31194
1.53699 4.15866 2.32018
-0.902155 -0.0826187 4.17757
1.93662 2.86111 2.80174
1.12863 3.55028 2.54302
0.88999 4.80615 2.32353
-1.66346 1.70861 4.45343
-0.721453 3.89628 2.19113
-0.646499 2.08833 2.84237
2.43462 0.0214339 4.1554
1.50357 2.82412 2.82831
2.30499 3.59196 2.68892
2.43371 1.17519 3.49965
1.30712 2.06396 3.14141
-0.158301 2.18947 2.90334
1.55584 4.09937 2.34558
3.09523 1.29919 3.36331
3.32415 -0.450329 4.06018
2.13478 3.00907 2.84882
-1.09094 2.54902 2.78264
1.13816 4.18237 2.31963
1.76845 3.65428 2.58435
-0.162172 -0.141132 4.46272
-1.49131 0.963822 3.40121
1.55359 1.01274 3.81382
1.15836 3.86819 2.46151
1.01605 1.87981 3.26325
4.67407 0.0691037 4.0284
-0.208302 2.50762 2.68846
1.73587 3.36739 2.6976
3.54901 0.732216 3.69931
1.16972 3.90594 2.42643
-0.66018 1.85716 3.19382
4.28498 1.9666 3.44002
-0.412593 2.44257 2.72008
0.463201 0.528426 4.16577
1.30809 3.2262 2.62479
3.72433 -1.02584 4.29636
-0.552209 3.33715 2.44079
1.21746 2.69778 2.78556
1.53835 0.238708 4.21291
1.44002 1.97786 3.15378
0.819465 -1.78456 4.72027
-1.2066 1.28638 3.57022
2.89943 -1.30798 4.45075
-0.454451 3.23129 2.41453
2.0662 0.29135 3.98477
1.00166 2.59512 2.75513
1.1443 1.94788 3.22806
1.01469 3.96975 2.40173
0.334704 1.20045 3.73928
1.11912 4.00034 2.37395
-0.23189 2.60439 2.69189
4.61844 0.217677 3.71699
0.512182 3.22918 2.46772
3.08726 -0.613393 4.51891
4.34077 0.960128 3.80369
0.382317 3.93223 2.41037
0.666381 1.92332 3.1333
-0.666059 2.63522 2.79564
2.65506 -0.413897 4.54984
1.66476 4.54137 2.31438
1.57262 3.3568 2.68025
-0.078764 1.13781 3.83825
0.881391 3.98538 2.41238
0.88252 1.81998 3.14064
-1.46542 -0.969235 4.17919
0.55199 1.95845 3.03086
2.59483 1.13538 3.7074
1.9625 3.52997 2.71133
2.84893 -0.837311 4.23794
0.424695 0.697722 4.23322
0.691254 2.6363 2.68546
5.01234 -0.807626 4.05729
-0.0288802 4.00217 2.33157
3.75381 -0.715652 4.04974
1.78168 0.661834 3.88003
-0.0789688 3.60641 2.40826
1.82434 4.16563 2.28392
-0.247421 1.69361 3.29993
2.41794 2.37842 3.09406
1.07341 3.03654 2.63074
1.68886 1.534 3.49419
-0.387253 3.68407 2.38566
-0.666476 4.08988 2.10489
0.802481 0.161916 4.41998
0.467358 2.21723 2.8681
1.25434 2.98982 2.69007
0.888275 3.16937 2.55815
-0.415262 -0.248709 4.43597
2.39466 2.44538 2.92053
2.83959 5.12464 2.53006
0.291969 1.78494 3.19155
-0.853978 3.80612 2.39815
2.79591 0.774686 3.64708
1.22946 3.14501 2.64394
1.68692 2.40232 2.94947
-0.971005 -0.0344092 4.06438
0.281709 1.69487 3.18266
1.05442 4.47689 2.30381
3.44177 0.659454 3.86752
0.66052 3.86586 2.44219
0.941032 1.952 3.19378
2.25662 4.27961 2.56287
3.56339 -0.462991 4.03954
-1.02469 1.11235 3.37903
1.70482 3.42194 2.66563
0.778066 2.59031 2.72874
-0.356737 3.80916 2.29791
2.39214 1.84299 3.33432
3.50792 3.13576 2.88152
1.21693 1.06952 3.85978
0.483884 4.10495 2.4632
2.0082 3.39824 2.72892
0.753973 2.51927 2.75904
4.07336 1.17077 3.74496
-0.484036 0.757432 3.82127
2.04534 2.022 3.13722
2.90049 -0.736632 4.50076
0.184021 2.65968 2.568
1.5327 4.01784 2.39452
1.39433 3.51893 2.59076
4.57271 0.272976 3.71854
1.51463 4.09615 2.39407
4.36322 -0.678939 4.55511
1.27082 1.19951 3.55701
-1.91011 3.46029 5.44392
0.441145 2.59632 2.62098
4.12417 -0.249265 3.96972
0.583119 3.34185 2.49246
2.47152 2.37366 2.9547
0.164391 3.02156 2.47625
3.21562 0.661577 3.75859
-0.26264 -0.68954 4.4528
0.22461 0.148948 4.39909
0.523335 1.73508 3.24731
0.378503 3.65491 2.39228
0.171446 2.94082 2.49723
0.380372 2.29833 2.8282
0.177945 3.74882 2.39225
2.8185 1.49957 3.29118
1.75516 0.225512 4.13127
0.961391 -1.51806 4.78893
0.563411 -0.170192 4.75328
0.517227 3.90873 2.46168
1.45149 4.53568 2.30968
2.97931 2.44071 2.94998
0.187836 3.09456 2.44999
1.40006 -0.00246616 4.32962
-0.17909 1.01157 3.68551
0.981655 1.84398 3.33405
3.56487 1.60259 3.38908
2.93977 -0.860065 4.40974
2.79277 0.6542 3.63048
3.62065 0.450448 4.0951
-0.147272 -1.23236 4.64971
-0.542952 3.06124 2.4711
2.40225 2.37988 2.956
-0.804943 -0.553865 4.00237
1.38637 -1.46168 4.70636
2.99675 0.569073 3.81559
0.146192 3.73054 2.38035
0.760387 0.41897 4.21055
0.449661 1.09505 3.77742
-0.754196 -1.27467 4.48755
1.18662 1.90441 3.30963
0.693717 2.51856 2.75346
-0.149541 3.30602 2.55679
0.0121939 3.8102 2.373
1.70484 0.471816 4.12466
0.414878 3.86716 2.36759
-0.60566 -1.10536 5.02982
-0.958153 1.00696 3.63943
2.29954 1.72513 3.30112
2.93888 2.44376 2.95182
0.0542965 3.16525 2.50942
2.07356 4.37416 2.40173
1.35882 4.46142 2.29898
0.477159 2.8351 2.58167
-1.08527 3.69682 2.39171
0.761233 2.18246 2.95371
3.03815 -0.428968 4.39495
1.17314 1.50684 3.52789
1.70558 4.14036 2.36804
1.02017 3.53626 2.52259
-0.663768 2.8595 2.6425
4.20459 0.321733 3.75291
1.41394 2.15605 3.10742
0.461561 4.19177 2.29747
2.11616 -0.228583 4.76168
3.61422 1.18912 3.40879
-0.0411947 2.29869 2.79904
0.764883 3.62746 2.52263
-0.0783716 3.01223 2.54839
-0.484777 3.66067 2.42532
0.418938 4.19486 2.24676
3.32603 1.52919 3.43461
-0.741163 2.28033 2.84214
0.0858144 2.89521 2.53378
1.60395 1.53388 3.46593
0.0738398 3.63177 2.36549
3.7476 -0.632173 4.23763
-0.819818 2.1505 2.78551
0.0313902 0.288483 4.29754
0.133146 1.54288 3.43975
0.405185 2.82062 2.56567
3.82622 -1.32897 4.56997
1.20349 4.18493 2.31744
0.633008 0.433957 4.25357
-0.326446 3.56562 2.42649
3.59395 3.26151 2.85667
3.87163 -0.224334 3.87714
1.07774 4.21388 2.28157
2.42532 1.61375 3.48487
1.32343 3.72621 2.54719
-0.0705832 2.28905 2.79043
-0.429029 3.08897 2.60266
1.56289 3.76668 2.52626
-0.538583 0.176547 4.21441
3.65075 1.46814 3.6106
1.61405 4.23731 2.25577
1.92975 3.02801 2.75576
1.71329 2.26546 3.02749
2.36039 3.50479 2.70333
0.168461 2.61961 2.62587
3.17438 0.480857 4.08663
2.15701 1.98608 3.22401
1.97882 -0.827157 4.78959
0.74788 1.26906 3.66348
0.123147 3.95697 2.35592
1.1161 3.41861 2.64105
-1.20479 1.41589 3.37378
0.116978 2.55477 2.64616
0.242166 1.98157 3.16981
-1.47924 -0.617307 4.63184
4.20384 0.888283 3.49215
0.457326 0.817894 4.03201
0.970146 2.79603 2.67444
0.0757464 3.96214 2.30625
0.944014 3.55694 2.53904
4.66 0.157035 3.94199
2.55393 1.30833 3.52768
1.20245 4.11352 2.39173
1.12566 2.1136 3.03756
2.39858 5.14619 2.52497
-0.0630696 2.69847 2.59073
-1.10462 3.73865 2.31231
1.31163 3.51498 2.58908
-0.0568806 0.533087 4.15332
2.32499 1.19746 3.52809
3.31031 -0.987642 4.05139
0.108442 2.09115 3.05092
0.932188 -0.149086 4.6198
3.03551 1.88817 3.16131
0.330533 1.31712 3.7358
1.26372 4.09774 2.32842
1.73626 3.47283 2.65335
-0.643901 2.63147 2.59496
1.16547 -1.7391 4.73807
2.73451 -0.147007 4.0536
0.014427 4.00086 2.33119
1.62238 1.43479 3.67625
0.653469 4.11638 2.37585
-0.00744334 2.12558 2.94421
3.24282 -0.560023 3.97153
-0.239211 2.85772 2.67114
2.13565 3.65539 2.66103
-0.944764 -0.35079 4.43798
3.2327 2.00175 3.22205
1.47395 1.30974 3.64623
0.668455 4.1822 2.35641
0.0120579 3.46993 2.50486
-1.23686 4.13993 2.13732
1.26154 2.75173 2.73195
3.87922 -0.250679 3.94261
-0.377093 3.14464 2.46639
1.9996 3.88229 2.55531
1.48381 2.52083 2.94279
2.72952 4.9432 2.58858
-0.445507 0.207174 4.13529
1.95197 1.80246 3.40463
2.44996 0.80332 3.64682
2.38444 0.714617 3.76637
2.70417 1.63529 3.35536
0.892511 4.45224 2.32699
2.99262 -1.22354 4.13555
1.95229 2.43135 2.98344
4.17355 0.160004 3.94606
-0.84933 2.60524 2.64543
1.07374 3.08075 2.57165
0.920988 3.31664 2.55059
-0.0249252 3.80768 2.37188
2.71087 1.00451 3.62331
0.316491 4.00879 2.46277
-0.372171 1.94727 3.05286
1.84712 4.41894 2.32651
0.152727 2.49169 2.68949
-1.8694 0.026027 5.43603
-0.964637 1.94375 3.14607
-0.665199 3.18703 2.42925
-0.390779 1.12854 3.71091
1.75557 3.97575 2.43054
2.99992 3.01682 2.80468
0.41209 -1.85113 4.6688
2.15432 2.21648 3.01341
-0.192209 4.03589 2.19551
4.05716 -0.455856 3.91052
0.0206702 1.56285 3.31593
3.75098 0.0157837 3.82473
-0.187088 3.50185 2.39887
2.0349 2.95797 2.79734
-1.11768 -1.21993 4.22988
1.98796 2.15522 3.05182
3.84604 0.134752 3.86526
-0.672311 1.53005 3.32154
3.02306 3.818 2.68532
-0.934267 2.43022 2.78415
0.74418 4.27912 2.31686
1.94322 3.19354 2.72277
1.05212 3.77294 2.52163
2.96193 0.653231 3.75227
-0.0923515 4.18436 2.17788
0.813386 1.73629 3.36654
1.53265 2.36121 3.01917
-0.798323 2.97145 2.48209
2.14155 0.0215822 4.06752
-0.904225 3.67476 2.3075
1.20303 1.67824 3.50416
2.54683 5.06161 2.47345
1.62019 1.96966 3.16827
-0.650402 -0.619829 4.25298
-1.84966 1.55797 4.94554
3.72342 0.550376 4.02805
0.30847 3.30641 2.46788
-0.317066 3.79903 2.24494
2.15322 2.68442 2.84173
-1.62985 -1.33819 4.16656
3.4765 -0.649424 4.6434
1.66932 -1.58678 4.70308
-0.509228 3.7834 2.18025
-0.813028 3.32196 2.47432
2.13684 1.32857 3.54368
3.82184 0.246345 3.82487
1.98213 2.09947 3.11468
3.47709 -1.0749 4.4306
0.554508 2.75368 2.61442
-0.670017 3.84443 2.16645
1.1759 3.52028 2.53265
0.741179 4.78951 2.31934
3.78744 0.354546 3.74586
1.84117 1.27362 3.66333
1.11204 -0.947959 4.95123
-0.0561538 2.05819 3.0154
-0.292978 3.96931 2.21147
-0.41456 2.7122 2.6076
4.10419 0.115154 3.65499
-0.902107 3.50041 2.48579
1.88386 3.52664 2.63258
-0.708552 3.88687 2.23776
0.966078 2.69549 2.67705
3.39698 -0.363937 4.43108
-0.733139 2.09323 2.99251
1.76656 1.29898 3.70787
-1.19797 0.21001 3.50228
2.64329 1.08621 3.61709
0.116318 2.05307 3.14722
4.27653 -0.0576787 3.83972
1.12371 2.68216 2.7769
3.44005 -0.195478 4.34787
0.110722 3.34432 2.49052
-0.323459 2.90377 2.62511
0.948897 4.16279 2.42556
-1.12096 3.85714 2.23115
3.84277 1.29285 3.46049
0.966766 2.19543 3.0187
-0.770282 3.88867 2.14685
2.28687 2.81824 2.78328
3.90129 0.219743 3.83123
0.342809 3.47667 2.47086
3.04279 -0.456331 4.26086
0.569567 3.60697 2.51708
3.57622 1.1808 3.44503
-0.487602 2.16115 2.96669
3.62598 0.162266 4.00399
-0.174163 1.78708 3.16063
-1.19844 -1.12226 4.02658
-1.18852 0.842664 3.64079
-0.806664 3.11673 2.44238
1.03093 4.16398 2.30957
0.0725127 2.44408 2.7625
2.64403 -0.909573 3.74654
3.03189 0.316094 3.94434
1.69987 3.8715 2.48795
2.02225 4.17396 2.46675
-0.446362 1.19371 3.60616
1.72825 4.45269 2.31828
2.66346 1.8306 3.21123
1.10974 3.89983 2.42476
1.06199 2.59562 2.77867
3.65245 -0.0854942 4.23922
0.142294 3.22819 2.45479
3.85288 0.052844 4.09241
1.62398 1.85842 3.30158
3.71482 0.778388 3.59673
-0.938227 3.29059 2.51102
-0.343818 3.80052 2.24551
3.84878 2.65078 3.09083
-0.895069 2.62922 2.78258
0.948844 3.8795 2.46579
2.3016 3.33386 2.70697
1.61648 2.64373 2.9699
4.04242 -1.17894 4.53147
3.33879 0.527101 3.84036
1.08715 1.88673 3.2932
-1.25824 -0.602748 4.2106
3.4095 0.853371 3.77812
3.5047 0.684076 3.56723
-0.419503 1.7934 3.14998
2.96964 -0.597082 4.10716
-0.22402 2.53888 2.85617
0.538609 3.13416 2.52954
0.761585 3.95845 2.44777
-0.352152 2.6741 2.67548
2.01995 4.11997 2.47447
0.0329387 3.33515 2.48397
1.72866 1.17495 3.67346
3.82906 -1.08392 4.31968
-0.509286 3.87718 2.28761
2.83656 1.91 3.19267
0.788387 3.25967 2.51085
-0.813665 2.64542 2.71452
3.59904 0.45758 4.17509
0.983419 1.94038 3.22141
-1.16417 -0.923471 4.97042
3.55582 0.892553 3.55685
2.53322 -0.140351 4.14466
0.866149 4.13462 2.45555
-0.121683 1.64253 3.43918
2.07553 3.04262 2.78972
-0.935531 4.03884 2.16079
1.36261 2.28943 3.05116
1.23606 4.14411 2.26105
2.6148 -0.0250444 3.99358
1.71412 3.71884 2.56938
0.543773 0.887088 3.92679
0.0550812 4.19794 2.19216
3.50852 1.57833 3.41711
0.152643 3.67511 2.41218
1.29971 2.39906 2.92722
-0.348179 3.10557 2.53632
-0.686655 -0.458358 4.84411
2.47737 -0.281092 4.449
0.234132 1.66207 3.35434
2.33095 3.92656 2.60379
1.34961 -1.36824 4.68769
1.47714 3.09565 2.71108
1.3226 2.33722 2.97829
1.17007 3.03251 2.63763
0.815737 3.64793 2.48521
0.734753 2.29338 2.87975
0.935222 4.29366 2.33724
-0.0215801 1.64094 3.26339
3.88318 0.250936 4.71723
4.36187 -1.37387 4.6157
4.12813 1.55566 3.85766
1.03083 0.49298 4.10538
0.312161 2.24697 2.91065
2.90322 -1.03933 4.18531
2.0292 3.03645 2.77869
1.21074 2.51647 2.93966
-0.778751 3.73963 2.42906
2.65294 0.127293 4.10445
-0.897421 3.11747 2.44227
1.02901 1.0016 4.01237
-0.625685 4.14992 2.15048
2.23367 1.6626 3.25982
2.09817 3.87532 2.56646
1.38402 -1.68502 4.6893
2.2343 3.16074 2.71198
0.181691 2.38901 2.82869
3.36731 1.55079 3.3326
-0.736375 3.74968 2.31845
-0.319736 0.891581 4.06527
0.926356 4.48963 2.31522
1.80721 4.87031 2.351
2.66593 -0.610446 4.66747
0.156231 4.12268 2.37298
0.126442 2.68681 2.61133
-0.888676 -0.314263 3.95632
0.742072 3.47197 2.54683
1.64886 1.24794 3.56911
2.24418 2.03975 3.21413
0.637877 2.13949 2.91426
1.41689 4.08427 2.3424
0.623751 1.52807 3.52167
0.921892 -0.953567 4.92293
-0.379258 2.86806 2.58482
2.1055 0.522132 3.94681
0.822618 3.63255 2.54772
3.80123 0.467629 3.74836
2.95415 2.09766 3.20218
2.40145 1.27355 3.50584
3.14257 -0.740352 4.18865
0.20299 3.45834 2.44943
-0.136881 4.05235 2.20547
0.793449 2.74705 2.62804
-1.12488 4.33583 2.16527
0.790063 2.35459 2.82648
4.20612 0.202832 3.77287
0.101431 3.12349 2.57133
3.35996 -1.0946 4.6594
3.08698 0.677942 3.83411
-0.645196 0.516935 3.92703
1.72417 1.70804 3.39442
-0.156808 3.69312 2.40598
0.138938 0.687756 4.09996
0.259891 2.96895 2.53348
2.47594 -0.879012 4.81376
-0.917524 2.29895 2.74791
-1.15284 1.76044 3.34736
2.19165 3.86273 2.5523
1.43674 4.26136 2.2648
1.87845 1.77977 3.38062
0.276978 -1.49778 4.63411
1.25035 0.946128 3.84716
1.36905 0.26828 4.2952
1.80902 3.2949 2.71504
2.22571 2.49609 2.97065
1.15276 4.53277 2.29553
-0.159631 3.81068 2.36873
2.7 -1.35011 4.60358
-0.02555 0.411383 4.29002
0.43019 1.47051 3.56996
1.81606 4.04184 2.37394
-1.58459 2.94899 4.22882
1.90735 2.87504 2.81047
0.741028 3.5305 2.52198
0.278448 2.06176 3.03403
4.06402 0.0674783 3.78301
2.18518 1.22035 3.58204
-0.0145018 4.07399 2.27416
0.58492 -0.496385 5.32682
2.2322 3.58617 2.68324
-0.213772 2.74359 2.64716
-1.1001 3.66075 2.40965
-0.36021 0.739386 3.89859
0.717772 2.92733 2.60218
3.87201 -0.76496 4.2071
-0.975816 2.31727 2.88334
1.35493 3.66838 2.58057
-0.235925 4.18297 2.27893
4.21136 -0.65023 3.89721
1.22386 1.58271 3.52642
1.91512 1.46503 3.56937
1.97761 -0.552445 4.85495
-0.992208 2.29131 2.97513
1.8994 2.92657 2.75586
1.7793 4.19953 2.30392
-0.282243 3.64337 2.42911
0.975772 2.84814 2.63262
3.5062 2.76933 2.95382
1.59412 1.48529 3.5625
-0.616601 3.91041 2.15439
3.19246 -0.038737 4.371
2.43699 2.15344 3.08225
0.918603 0.274452 4.22692
1.40347 2.89397 2.80841
0.0627992 3.50045 2.4677
2.22302 2.05124 3.05502
0.414288 3.51871 2.43414
3.94669 1.19567 3.50387
1.49887 4.15265 2.32026
4.88069 -0.836956 3.81795
-0.616415 -0.239659 4.36538
-0.197905 3.57089 2.38469
-0.34001 4.23867 2.25762
1.92994 2.25152 3.03565
0.669128 2.90201 2.57805
1.06884 1.54759 3.42279
-1.02917 -0.0796649 3.7917
2.06409 -0.869049 4.71166
1.60707 1.09457 3.68984
-0.447538 0.628003 3.91738
-0.450819 1.94915 3.0592
0.24761 3.97206 2.43747
0.649414 2.57925 2.7291
1.2732 4.67608 2.30196
0.279794 3.24206 2.46897
-0.606654 1.86881 3.06816
0.167243 3.95999 2.36341
-0.820344 1.03443 3.578
0.270677 3.18827 2.49019
-1.34022 -0.8544 4.23598
1.47371 2.60703 2.91304
-0.670865 0.31462 4.08652
1.94735 3.54453 2.64426
1.95338 -1.1532 3.9382
1.44355 2.79424 2.8038
-0.0528028 3.96748 2.30816
-0.925895 2.10189 2.99391
2.4221 -1.42385 4.64713
1.60932 1.29621 3.67111
1.25141 -1.082 4.84066
-0.0166095 2.0274 3.07808
4.23176 0.253429 3.89182
-0.438143 1.27806 3.51444
-0.320265 2.6815 2.67405
-0.233775 3.28709 2.42659
1.34398 4.11462 2.39975
1.51179 4.83392 2.32377
0.331925 2.58725 2.61842
2.05402 3.42439 2.63566
2.12612 1.20791 3.80411
3.91183 -1.15886 4.26669
0.589723 -0.456423 4.77492
1.67564 1.98393 3.19266
-0.770931 3.29129 2.45194
0.0449636 3.97627 2.37261
0.26396 2.58661 2.7025
-1.02142 2.04691 3.15404
-0.222536 3.91333 2.27424
2.68466 -0.283901 4.50029
0.954146 1.17003 3.75098
-0.899517 4.35643 2.12965
2.36257 5.21936 2.48313
1.45305 4.07422 2.38311
-1.01874 0.77285 3.71772
4.56587 -0.825062 4.81013
0.619376 2.67756 2.63225
1.51421 3.51053 2.59581
3.11187 1.14405 3.55516
-0.700179 -0.582112 4.45167
1.2243 2.09331 3.19219
0.344663 4.29651 2.245
3.74822 1.49967 3.19855
-0.405945 0.203463 4.30015
1.68244 0.789202 3.86277
-0.797788 3.64234 2.34363
-0.881033 2.97946 2.40165
-0.326533 2.44467 2.86184
3.47277 1.44482 3.30928
1.52577 -1.55135 4.71527
2.13746 3.89251 2.57324
0.201694 2.92757 2.49028
2.05456 2.3183 3.01003
-0.415256 3.76131 2.32913
4.03099 -0.236323 4.18856
4.22111 0.765332 3.54722
1.04116 2.53411 2.80299
-0.775781 1.91774 3.12054
-0.198667 3.19543 2.46961
3.49707 1.80883 3.26642
1.12528 0.953421 3.83756
2.21148 0.0216462 4.09662
1.49844 1.78767 3.35556
1.36956 2.4898 2.90545
0.995712 4.55617 2.30805
1.51758 3.28716 2.69474
-0.65405 3.74603 2.25277
1.20387 3.22096 2.62681
0.582995 2.44666 2.79739
0.24574 -1.26427 4.57735
1.35217 -0.972972 5.05818
0.84733 1.83589 3.34667
4.12383 0.356159 3.73453
0.184358 1.02912 3.87043
2.38697 3.13275 2.68996
-0.894204 2.42099 2.77766
-0.146783 3.72907 2.37139
2.21147 -0.717591 4.43314
2.01891 1.71974 3.49719
-1.16935 0.791805 3.92949
0.460149 0.91582 3.96872
1.92069 2.62567 2.86656
2.76679 4.07828 2.6564
2.27111 4.06836 2.57215
3.44247 0.191809 4.0148
4.39766 0.947061 3.65158
-0.31943 -1.20147 4.41515
0.0833924 2.52406 2.72663
0.164874 1.96279 3.1603
1.47 3.93031 2.45778
2.61617 3.36726 2.73705
2.19309 0.389439 3.98101
3.99663 0.769921 3.59186
-1.07385 -0.77768 3.72333
2.61219 1.73584 3.20212
2.20298 2.13803 3.04502
2.29993 4.25983 2.46814
-0.835369 -0.191032 4.08211
1.37649 1.44287 3.43768
2.13729 4.44869 2.44706
0.041741 2.78812 2.52599
-1.15592 3.78961 2.28134
0.542109 2.0991 2.96638
0.064859 4.13123 2.25414
3.34393 -0.206832 4.06471
2.20444 1.3339 3.57525
2.31843 3.66323 2.6869
0.311048 3.59166 2.48424
0.68997 2.75585 2.62538
-0.854981 3.64389 2.40301
4.42411 -0.391566 3.86397
0.835477 4.23977 2.30152
-0.737412 -0.484994 3.92886
1.47276 1.61862 3.41409
1.73644 2.38367 3.06251
-0.605654 3.02354 2.53807
0.152912 -0.299987 4.4942
0.33978 1.60754 3.43202
2.0333 3.85709 2.61169
-0.546752 2.28922 2.88589
0.811255 4.2762 2.25919
0.244569 2.87168 2.53003
0.1701 2.32774 2.81239
2.78993 3.17173 2.81084
3.48611 -1.09531 3.79687
1.5209 4.24893 2.30263
4.23043 0.167627 3.83319
-0.396785 1.70986 3.2463
-0.376865 3.6548 2.4112
2.1057 0.43584 3.94207
1.10726 2.98556 2.65632
3.51383 -0.952619 4.28271
0.564601 2.2574 2.8766
0.418339 3.70022 2.4197
-0.180396 1.66022 3.3889
3.15586 -1.54218 4.2195
0.301923 0.197685 4.38216
1.46283 3.85943 2.50956
3.03991 4.85471 2.50592
2.0686 2.40929 2.94517
1.70286 3.22957 2.71389
3.268 -1.60277 4.48316
0.693732 0.89792 3.84875
-1.81035 0.218531 4.89709
-0.466623 1.78309 3.20825
0.445454 1.42329 3.68064
0.0431241 4.01703 2.32641
0.225255 -0.605987 4.97677
-0.951233 2.09526 2.93147
1.16672 2.77157 2.73094
4.94423 -0.733913 4.06423
1.45702 3.54767 2.60252
0.469342 1.98881 3.03462
-0.522527 3.93918 2.20993
2.827 1.10563 3.56384
-0.0650289 3.35309 2.45687
4.24163 -0.635575 4.0133
0.863685 2.68489 2.72234
1.59234 0.635861 4.14628
-0.690753 2.9099 2.57984
-0.98438 -0.6444 4.03817
0.789844 3.55283 2.51909
0.230839 4.04072 2.24427
-0.222696 2.20571 2.88597
4.16029 2.24593 3.28964
5.13731 1.63149 4.12554
-0.25235 1.47342 3.38422
0.962456 -0.7751 5.04113
0.956053 2.16248 3.06271
-0.0413325 0.855617 4.02666
1.46083 2.90796 2.79461
0.422941 4.15796 2.26617
-0.93172 3.59224 2.40934
-1.11866 2.74356 2.73024
-0.0855615 2.84016 2.63071
2.40654 5.205 2.52815
-0.507652 1.48266 3.36208
2.04097 -0.0583946 4.18817
0.666916 2.12789 2.98351
0.657892 3.36702 2.43461
0.388663 4.08024 2.33276
0.662598 2.71219 2.63872
-1.10561 3.69291 2.35306
-0.715848 3.50011 2.41186
3.12136 2.0252 3.2029
0.758557 4.22336 2.3792
2.14803 0.0740149 4.24146
-0.199006 1.38191 3.47788
0.819774 -1.34774 4.33443
-0.756804 -0.259139 4.07495
1.66717 3.67047 2.5721
1.87931 4.22645 2.3584
2.78838 3.00194 2.8623
3.38098 1.35382 3.47237
3.54355 -0.322919 4.0133
-0.570099 2.19613 2.84069
1.72704 -0.926913 4.66112
0.425295 1.90498 3.19583
0.312932 0.589507 4.22767
2.83882 0.911826 3.68045
1.32089 3.32668 2.62296
1.76558 3.89973 2.48936
1.40093 4.56028 2.30647
2.05764 2.58722 2.91441
2.14402 1.89681 3.54064
1.5899 4.49112 2.31013
2.71799 0.817715 3.68067
0.494889 3.93998 2.39946
0.31739 3.17058 2.51442
0.213339 2.44707 2.75403
0.976482 1.22473 3.51342
2.38039 0.179882 4.03234
2.89226 -1.59021 4.33348
-0.411559 2.00186 2.96558
3.30808 2.714 2.89765
0.41554 3.96393 2.35603
3.30075 3.60708 2.72896
-0.990562 0.310494 3.88663
3.17898 0.248193 3.99859
2.29984 1.10518 3.74143
1.94465 -1.19587 4.43359
-0.664831 1.95228 3.00446
2.28643 2.6453 2.86883
4.62116 -1.15145 4.11959
1.80576 3.43866 2.67349
1.0262 3.39019 2.60459
-0.318224 3.9687 2.27713
1.6105 2.71637 2.90542
-0.0905944 1.94845 3.055
1.92407 4.34829 2.34491
2.27063 -0.53171 4.38371
-0.631587 1.21942 3.50981
-0.517449 3.77752 2.26217
1.21121 3.2785 2.57849
1.90522 2.61224 2.93327
-0.346385 1.94024 3.16385
3.9873 -0.822888 3.95016
2.65095 0.896582 3.60283
-1.03331 -0.275145 4.19247
-0.13841 2.71312 2.59036
1.95876 4.05433 2.48101
0.633785 3.4857 2.52005
2.78639 1.17112 3.4901
2.21486 0.547184 3.98666
2.3075 2.02656 3.13445
-1.21128 -0.6801 4.24701
0.770223 4.17387 2.45543
2.5062 2.75731 2.90335
3.89907 -1.17457 4.06276
2.26403 3.50104 2.67434
-0.417229 0.796622 3.93865
2.40347 1.11227 3.52827
2.10449 -0.719095 4.86617
3.17155 1.94373 3.22942
1.10321 4.08895 2.37017
-0.611919 1.72531 3.26336
1.97417 0.0842305 4.18466
1.81365 3.77053 2.58391
-0.746533 4.11899 2.16373
1.50687 3.13584 2.71488
1.02264 4.78108 2.31638
0.0320558 2.34987 2.8393
-0.384749 -0.825883 4.49106
1.14506 0.324695 4.33872
-0.956061 1.66715 3.33715
0.584663 2.93357 2.58503
-0.430196 3.723 2.39689
1.14767 2.26932 2.95018
3.99157 -0.352978 4.09799
0.512372 1.04115 3.86181
1.12846 3.82085 2.47132
3.71377 1.64081 3.27192
2.51868 4.98155 2.5533
-0.151115 2.4838 2.77675
-0.597406 3.16494 2.4631
3.49971 0.652514 3.72335
0.22447 0.0326108 4.42799
-0.547749 1.77017 3.18607
1.58623 3.88763 2.47545
-0.642532 2.40033 2.73745
1.22159 4.42142 2.29298
0.0344188 3.10719 2.53007
0.656786 3.07831 2.53571
-0.83058 2.43144 2.75328
3.39814 0.327352 3.97817
-0.591681 1.78696 3.211
0.572898 -1.08094 5.01778
2.76101 0.699788 3.7299
0.663353 3.05952 2.60152
1.3994 3.78697 2.52154
-0.183782 2.40924 2.89554
1.01891 -0.810317 4.76109
3.46506 1.57749 3.49168
2.76159 -0.824036 4.35595
0.456065 -1.55018 4.66491
1.20677 0.641013 4.05991
-0.0780143 3.76574 2.38555
1.42284 2.63355 2.92794
0.560978 3.20019 2.48627
1.85883 1.00283 3.75586
0.375653 3.84887 2.40225
2.81718 1.81199 3.31299
-0.890307 2.59349 2.84624
2.82343 -1.48029 4.55976
-0.63966 3.10039 2.40517
4.4572 0.835596 3.60155
1.28237 0.421899 4.17503
3.29415 1.69361 3.32974
-0.86853 -1.11914 4.30284
0.210935 3.95579 2.40684
2.63727 2.06578 3.06937
-1.41423 -0.327367 4.26894
1.86189 1.38309 3.53261
4.32839 0.495504 3.81832
1.75992 2.90602 2.80897
1.78254 4.17919 2.38404
1.29515 3.5954 2.57102
0.431211 -0.144742 4.80823
-1.29769 4.03734 2.15696
1.49115 1.55669 3.45022
0.344004 0.856029 4.18557
1.56045 3.73086 2.61272
1.05943 -0.771105 4.93505
1.69975 4.17871 2.325
0.736287 2.27654 2.92461
3.6987 -0.0542417 3.97945
0.525047 2.93815 2.58556
3.87977 2.17562 3.18264
0.811311 -0.498581 4.75811
-0.400448 1.6017 3.45477
1.21125 3.74557 2.54275
-0.500849 4.1421 2.17168
1.72567 3.00395 2.80345
2.49937 0.55316 4.03245
1.6438 -0.767596 4.50048
1.06781 3.79969 2.45307
2.67022 4.46359 2.53727
4.94581 0.570359 4.0918
0.0457921 2.39258 2.76838
2.82567 -0.686432 4.40888
1.2863 3.20891 2.66649
-1.06635 0.894855 3.6951
1.21651 1.7747 3.4119
-0.876071 1.94302 3.11439
1.89956 4.57096 2.33943
2.01687 1.00713 3.73912
0.756778 3.30042 2.57067
3.29379 -1.28736 4.77083
0.16068 3.76878 2.33623
-0.109209 0.452765 4.19657
2.75058 1.69325 3.24212
1.66049 2.66188 2.96379
1.51915 0.974334 3.87059
1.23457 3.90803 2.40898
1.17327 -0.997957 4.84551
-0.472957 3.2622 2.53724
0.139692 0.582716 4.01639
2.79346 2.47945 2.958
3.06673 1.36174 3.42619
-0.0502704 3.37705 2.34349
0.51791 2.165 2.87754
1.17509 4.12552 2.32612
-1.28354 -0.303557 4.08882
4.63072 0.661628 3.76546
-1.40953 0.427116 3.32549
-0.0631512 2.86203 2.56085
3.10633 1.26583 3.43604
-0.295942 3.55487 2.40394
-0.70715 2.14136 2.87405
-0.548543 3.98962 2.12878
-1.21211 -0.037957 4.12774
0.752487 2.79527 2.63037
-0.526383 2.42312 2.87525
1.80504 3.15085 2.7377
2.79275 -0.531285 4.23958
1.10204 4.23445 2.27349
2.71226 1.55351 3.34561
1.59594 3.70064 2.52243
-0.055265 2.98102 2.57939
2.17412 2.2393 2.98284
-0.588322 3.68502 2.36522
0.769196 -0.854063 4.7187
3.36117 1.47712 3.51833
1.68837 0.265311 4.16369
-0.846658 -1.4168 4.3704
2.07648 2.2485 2.99248
1.7325 1.49928 3.35274
-0.675183 3.00755 2.57697
-0.39737 3.55705 2.40343
1.7424 4.2018 2.33654
-0.398355 0.458907 4.13447
2.83155 -1.21801 4.53567
1.76019 2.98633 2.7799
-1.0399 1.59299 3.35899
1.1323 3.70753 2.50404
1.14384 2.20889 2.99561
2.6741 1.56708 3.37146
0.782302 4.34455 2.32986
0.449921 2.96242 2.50572
0.338793 0.0448816 4.43541
-0.588756 2.36908 2.80847
0.625912 -0.963943 4.75311
0.994311 3.74729 2.47498
3.42284 -0.0283222 4.0771
3.83073 1.0628 3.62672
1.20857 3.97247 2.38896
-0.19549 2.01046 2.98112
-1.32926 1.30843 3.39037
1.51381 2.77761 2.85613
0.911494 3.40526 2.54397
2.81975 1.0346 3.63981
0.474376 4.08539 2.38359
1.04227 -1.66998 4.65776
0.615699 1.95079 3.11481
2.69056 0.621633 3.81781
-0.682411 2.67628 2.70375
2.73179 -0.677243 4.36136
0.0858123 3.307 2.48873
-0.704245 -0.878204 4.12185
-0.867185 2.89576 2.64613
2.38014 0.410031 3.91142
-0.742941 2.15374 2.88934
4.12147 -0.446678 4.0012
1.81051 1.41251 3.578
1.54553 4.09972 2.38407
0.577485 -0.877422 4.82556
-0.251691 3.44472 2.45449
3.37804 0.464204 3.95183
-0.689654 2.79764 2.6422
-1.19074 3.73158 2.26368
1.9854 2.04586 3.12921
-0.145101 3.98701 2.19743
2.24433 1.21684 3.50047
4.29499 -0.31723 4.03732
-0.748378 2.80507 2.64743
1.76754 3.5864 2.64254
-0.337456 3.54704 2.4596
0.752663 1.35765 3.5756
0.282813 4.13988 2.41402
-0.474199 2.10609 2.98009
4.68871 0.226188 3.7641
1.39365 0.0349314 4.5946
0.243009 2.61786 2.6084
0.514276 3.24115 2.39521
0.586149 4.11923 2.36183
3.21604 1.02015 3.42161
1.84803 4.88335 2.35016
0.716747 2.05954 3.17061
2.32932 2.09631 3.08372
0.721553 1.43841 3.46365
0.14158 -0.410818 4.56807
2.05399 2.89791 2.81001
0.815867 4.14449 2.33373
-0.422457 3.52341 2.43956
2.65891 -0.378932 4.18383
3.92842 -0.366454 3.96851
-0.384686 1.04049 3.66311
0.989467 3.87045 2.49785
0.211762 1.84563 3.21693
4.46199 -0.264641 4.1454
1.08212 2.49302 2.85911
0.360103 3.12812 2.47641
2.17453 3.97637 2.54909
0.239283 1.72523 3.19459
1.9521 4.44076 2.34255
1.27765 0.884766 3.97485
-0.780787 0.376843 3.83857
-0.601258 3.10697 2.48509
-0.761718 -1.05798 4.31561
1.53937 2.47388 2.97702
2.18465 3.44975 2.69402
2.32218 0.0635339 4.20737
-0.288466 2.62539 2.6739
-0.512708 1.97606 3.03751
3.38049 2.07153 3.23987
2.57995 1.02052 3.5693
0.814701 4.00639 2.45909
3.95726 -1.53654 4.34665
-0.29585 0.336277 4.29331
1.14579 2.61845 2.88614
2.84292 1.76983 3.22172
-0.304396 3.26106 2.49021
-0.284123 1.12184 3.62947
0.646943 4.06064 2.42652
-0.468057 2.60871 2.75934
3.92621 -0.63946 3.90838
2.34163 3.3925 2.71686
2.04767 -0.708467 4.99775
0.642595 1.12897 3.85421
2.19814 0.719498 4.07586
2.41827 1.84419 3.31204
-1.03883 -0.417775 4.21638
-0.505914 3.22795 2.51493
1.43098 3.94049 2.50045
0.748783 2.4906 2.82999
-0.205724 3.80822 2.28939
-0.494226 1.84086 3.1383
2.00135 4.22263 2.4117
3.69608 0.755463 3.68844
0.884078 4.60319 2.31891
2.30167 0.431224 4.0363
1.27823 3.39385 2.61387
4.57084 -1.05874 4.80964
3.37859 2.70903 3.00131
3.98546 -0.743066 3.91194
0.840522 4.07818 2.44399
0.0395444 -0.818103 4.72031
0.333554 1.98141 3.14267
2.83831 0.507586 3.97112
2.33589 1.01565 3.51485
0.116153 1.65118 3.40555
1.25911 4.2104 2.32523
-0.596059 0.0569576 4.17395
1.63815 2.37722 3.1163
-0.572507 3.62344 2.44548
1.34506 3.03774 2.72069
-0.923422 2.25345 2.88766
-0.334872 3.65336 2.40516
-2.38571 2.69493 6.39351
0.35297 4.20054 2.23184
0.54073 2.83373 2.57447
1.87623 3.25002 2.73895
1.55706 -0.287938 4.6601
0.922322 2.3923 2.82949
0.909043 3.74354 2.46331
0.00063548 1.78769 3.27847
0.892674 -0.849414 4.75542
1.18038 0.865598 3.85713
3.98097 -0.320072 4.17163
0.980353 1.692 3.38936
1.60132 2.38041 2.99183
0.930464 3.8542 2.48236
-0.300192 3.05947 2.5554
-0.759981 1.35467 3.35121
-0.884207 3.87315 2.21382
2.4006 2.04673 3.19277
2.08147 4.78494 2.43113
-0.264428 2.78109 2.66659
3.20344 -1.62497 4.30722
-0.0744802 3.41058 2.44455
2.4599 4.28604 2.53831
4.04776 1.08545 3.76774
0.163487 2.05466 3.11196
-1.24113 -0.110855 4.28722
1.38086 2.71513 2.8027
3.48408 -1.49609 4.14246
1.15313 3.43981 2.5902
2.93874 3.00457 2.86944
1.95804 -0.33892 4.60559
0.506897 -2.09675 4.43745
1.3564 2.23971 3.07774
0.390014 4.17932 2.34464
1.75886 1.47335 3.52908
0.463687 3.5097 2.48236
1.77547 -0.195595 4.29567
-0.282103 2.84612 2.64657
-1.12356 2.36372 3.169
-0.277723 4.1425 2.244
0.762106 1.39985 3.43497
0.855049 3.63204 2.52333
-0.281762 0.438752 4.2782
-0.831347 2.62272 2.76486
-1.29402 -1.06169 4.20621
0.929648 3.29823 2.59233
0.221828 1.16652 3.92941
-0.594826 3.71661 2.28078
0.0618622 1.89887 3.15681
3.4898 0.276714 3.72503
0.287407 2.43186 2.74401
3.96176 -1.0952 4.7978
0.81161 3.20952 2.57332
-0.228715 1.00836 3.65521
2.08406 4.03924 2.54112
-0.365805 1.83868 3.16485
4.23416 2.10508 3.33463
2.58027 1.84703 3.18524
1.66833 4.4581 2.31218
1.74863 1.11176 3.69133
0.850897 -1.39054 4.46237
2.41413 0.0401801 4.21279
1.32823 3.34364 2.58209
0.200085 2.55249 2.63985
-1.56177 -0.585422 4.18002
1.11867 4.05522 2.45307
1.85556 0.217 4.08636
2.24801 0.992885 3.86504
0.810892 4.5362 2.31424
-0.148003 1.85163 3.05524
1.22567 3.87174 2.45524
2.52888 2.60615 2.97268
0.876033 3.30479 2.60203
2.55462 1.71245 3.29394
1.81809 4.01037 2.51242
4.07813 0.725872 3.73001
4.13995 -1.24079 4.42548
-0.188451 3.13944 2.46784
-0.957393 -0.469247 4.36566
0.150526 2.48253 2.79547
-0.488197 -0.736838 4.37116
0.671201 3.39697 2.53479
3.9137 0.382961 3.8345
-0.44645 2.71625 2.69308
-0.633836 2.0319 2.99248
1.06388 3.97511 2.40008
3.37219 1.0378 3.52344
-0.491702 -0.718514 4.59238
0.895323 1.20262 3.76193
2.96937 0.596067 3.89257
1.55991 1.87489 3.13104
2.74343 2.70461 2.97823
-0.671557 0.32291 3.94506
0.491468 3.28386 2.50393
2.52465 4.29759 2.59972
1.69299 -1.57774 4.69719
1.84789 2.37993 3.0312
0.513893 2.98204 2.54384
1.54783 3.81924 2.61823
0.570392 4.30844 2.31553
4.04025 -0.220331 3.9708
1.67977 0.113503 4.34795
1.9512 2.25844 3.01687
1.74939 1.61518 3.37312
2.27577 3.02188 2.75969
-0.269786 1.63485 3.37453
-0.653574 3.71524 2.39579
0.293345 -1.01719 4.59607
0.949987 1.76235 3.3519
1.02735 0.892715 3.9913
1.98854 3.22673 2.73869
-0.661113 -0.305352 4.40139
-0.182555 2.47903 2.88414
2.42173 4.91669 2.54132
0.376882 3.78369 2.4213
1.44835 -0.153102 4.2719
3.34041 -0.98542 4.33001
0.318983 4.16286 2.22095
1.70002 1.60858 3.35629
0.875487 3.63982 2.46383
0.481417 2.30252 2.84632
0.908612 3.02301 2.61165
2.09429 3.82358 2.57985
4.10087 1.44995 3.60142
0.360265 -0.54536 4.59395
2.94572 0.363191 4.02359
1.60776 3.04967 2.75025
2.25248 2.22439 3.00405
0.35857 0.343293 4.36138
0.722629 3.17777 2.54882
-0.638089 2.48489 2.73622
-0.822956 3.86446 2.43391
2.1231 1.7444 3.29957
0.631017 -1.49251 4.72158
3.94319 0.724419 3.68409
2.80019 -1.19749 4.17718
-0.0665431 0.946838 3.96782
-0.380149 0.349812 4.19671
0.895936 1.75794 3.34626
-0.579854 2.36446 2.71268
4.19248 -1.31813 4.37646
1.73991 3.20904 2.70906
-0.732741 2.85306 2.6299
2.02726 3.92253 2.52482
-0.198615 3.43829 2.3958
1.06739 4.74882 2.31186
-1.1225 -0.448984 4.38619
-0.321195 1.47554 3.43559
0.868564 4.12463 2.3863
2.27142 2.07534 3.0661
-0.759825 -0.297382 4.64653
-0.732392 3.45713 2.44728
-0.346945 2.75857 2.63815
-1.35875 0.0409227 3.30674
1.03168 2.1125 3.16925
0.394114 1.38361 3.62586
0.172514 4.1741 2.33072
0.567101 2.14791 2.88308
3.49767 1.33254 3.47259
3.541 0.403809 3.80017
1.8326 2.99638 2.81072
-0.538581 -0.718274 4.31094
0.163749 4.14169 2.25232
-0.239358 3.51409 2.39368
3.17406 -0.7446 4.41889
4.25272 0.130717 3.77355
1.59684 0.756635 4.12045
1.70149 2.15777 3.13657
3.82184 1.19491 3.4548
1.39667 0.138821 4.25511
1.48378 3.598 2.58554
-0.144255 3.93998 2.23271
1.67891 2.91003 2.82749
4.15501 -0.238258 3.93394
0.165796 2.0946 3.05413
-0.0367115 4.05882 2.25472
-0.0332549 1.38922 3.56363
1.58998 3.57069 2.63781
0.490641 2.68358 2.61635
3.81909 1.5196 3.72179
0.709076 -0.122286 4.67927
1.41336 3.02986 2.72757
1.91252 3.68643 2.60397
0.00683527 4.01276 2.17589
1.29679 2.28837 3.01674
-1.07164 3.72637 2.35503
-1.47864 1.18715 3.30014
1.47784 1.48364 3.52553
2.58723 -0.127072 4.06177
2.24427 2.15334 3.03665
-0.269957 4.21289 2.23919
1.17431 2.9159 2.69459
-0.160321 3.63457 2.41792
2.24245 2.64957 2.8797
1.74739 3.43353 2.67881
0.464524 1.2468 3.81458
1.6003 -0.978988 4.62941
1.26682 2.00642 3.319
1.79246 0.439557 3.99103
-0.900377 3.31384 2.52286
1.27692 3.9036 2.4202
3.89504 1.7536 3.35608
1.2702 2.58343 2.86558
3.29248 -0.887124 4.58769
3.38187 1.8664 3.46356
3.75736 0.369765 3.77118
1.24971 1.03325 3.75693
0.788455 4.03417 2.43305
-1.61027 -0.31248 4.29843
0.580117 4.33332 2.56423
-1.0839 0.205697 4.07711
-0.932764 4.33132 2.1588
1.5524 2.76419 2.86971
0.445802 3.29441 2.45278
4.34869 0.152797 3.92783
1.39642 1.22981 3.66215
3.25198 -1.25404 4.21607
1.90604 2.03583 3.26392
0.811254 2.8684 2.6291
1.31502 4.12461 2.33903
-0.615607 0.189531 4.23826
2.09097 2.13899 3.00514
4.95716 1.6008 4.18085
-0.777464 1.48756 3.37552
4.08884 -0.718211 3.92093
1.46168 2.16226 3.11314
4.46735 -1.15544 3.83718
0.604838 2.75867 2.60203
0.906455 4.25467 2.34464
0.550874 3.56344 2.52314
-1.65909 0.205988 4.5989
0.328714 2.32058 2.82985
0.378402 3.57466 2.46296
-0.153433 2.93512 2.44969
2.44013 1.53992 3.31005
1.47292 3.76938 2.57606
1.31817 4.29706 2.3307
-0.419806 3.05297 2.6424
-0.171586 2.32638 2.91995
4.17089 -0.208349 4.05132
1.2142 3.78095 2.50953
2.30388 1.4592 3.36856
0.439052 -1.08204 4.66655
1.02025 0.66172 4.08278
-0.150138 1.93745 3.03404
-0.654077 -0.646658 4.00338
2.42343 1.02522 3.57117
0.185131 3.24153 2.44452
0.0410765 2.58115 2.65607
-1.24115 -0.748132 4.88449
4.29976 -0.271679 3.9524
0.0459937 0.842649 4.06679
0.610266 4.18497 2.52121
-1.23564 0.932727 3.47936
1.2624 1.31621 3.57815
0.238357 4.09264 2.38747
1.38469 2.07072 3.11661
4.09457 -1.2346 4.42825
2.13193 2.78675 2.80544
0.284021 0.461288 4.21601
-0.367227 3.42602 2.43717
2.51222 1.98489 3.23356
2.04858 0.447851 4.09874
0.572339 1.30472 3.6905
-0.783132 -0.835352 4.00047
1.05369 3.39834 2.54798
-0.30651 4.04664 2.29095
1.82365 2.71326 2.81925
4.24579 -0.356574 3.92346
-0.708071 3.80565 2.22302
-0.376649 3.31648 2.42424
-1.51685 -0.42121 4.28467
-0.836752 2.69258 2.63241
2.57577 -0.380436 4.5354
1.96722 1.97156 3.16069
-0.391437 1.32344 3.55111
3.06871 1.06919 3.83506
2.88701 1.78044 3.10731
-0.499307 2.64564 2.69269
4.6418 0.27998 3.76603
4.6514 -0.379605 4.50544
-0.321918 3.26872 2.44839
-0.122707 3.91124 2.25458
0.0376647 2.71665 2.52487
0.127114 -0.638806 5.05008
1.85621 3.62722 2.6212
2.01279 1.34047 3.49335
-0.345849 3.89819 2.19788
1.24748 2.16137 3.09556
1.05231 3.46594 2.53028
1.36187 4.7674 2.31402
2.05343 2.80656 2.82059
-1.33216 0.0800003 3.31243
1.76858 2.1381 3.2631
1.11809 1.30245 3.51663
0.998937 4.1961 2.3732
3.88739 0.0333889 3.85268
-0.703436 1.78878 3.19332
-0.185528 3.12209 2.53479
2.36578 2.40889 2.97907
-0.27615 -1.20025 4.54172
1.54198 3.84748 2.51114
1.95652 0.33334 4.06474
1.24767 -1.56265 4.77499
1.47626 0.850579 3.95223
1.13659 1.08004 3.80238
1.85659 4.65014 2.33887
2.21758 1.79297 3.2213
-0.346482 3.75783 2.31419
0.932039 2.5228 2.76473
1.82809 -0.0291637 4.32031
-0.782606 0.179 4.06141
2.626 1.68699 3.24494
0.520374 3.16789 2.46004
3.79723 0.72582 3.62899
0.0914502 3.90384 2.36931
2.00169 3.32658 2.7253
1.00631 4.62339 2.30791
1.28071 2.48504 2.88072
1.1088 3.23079 2.60647
0.462874 1.0276 3.8471
0.891115 3.81649 2.46072
0.0160226 1.79507 3.13653
1.63187 -1.54817 4.67327
0.625105 0.702569 4.19908
0.362159 2.44408 2.76503
-1.10518 -0.697864 4.29822
-0.542884 0.872353 3.76271
3.27979 1.60837 3.36129
4.73709 0.668685 4.23444
0.477136 2.39881 2.83078
3.79507 -0.715912 4.30107
1.79557 3.23042 2.72907
-1.57233 -0.950426 4.54831
1.71046 2.71583 2.91505
0.525936 0.554246 4.10739
3.28075 3.49724 2.78556
2.01538 1.10847 3.72844
-0.499919 3.73432 2.29475
2.75935 1.85503 3.21439
-0.387176 3.7981 2.28646
-0.562483 3.19827 2.43306
-1.30956 0.797455 3.74778
1.78042 4.40363 2.3222
-0.777644 2.62311 2.76506
1.87268 1.90602 3.36852
3.95755 0.818242 3.66612
-0.767382 3.88129 2.27021
2.79313 -0.282291 4.20905
5.12597 -0.762016 4.2326
4.2918 0.102703 3.77492
0.198177 3.59078 2.46401
0.67217 4.21037 2.30576
1.77908 -0.0239361 4.56396
0.0932319 2.78689 2.51069
2.16786 1.43697 3.50467
1.46155 2.25428 3.10689
1.72142 4.20681 2.29566
0.375861 1.6836 3.3022
-0.129308 3.62287 2.40819
-0.210975 -0.551268 4.69725
1.53614 3.12183 2.70853
2.64016 2.31457 3.00241
0.378806 -0.702302 4.60973
2.17486 1.51877 3.47008
-0.759221 2.92208 2.50453
0.738843 3.6744 2.41586
1.81558 2.27997 3.02311
2.32238 -0.363915 4.39416
1.00109 1.57379 3.43218
1.19561 3.63844 2.53958
0.58917 4.21646 2.30871
4.24247 -0.381383 3.84479
2.96864 0.132687 4.0409
-0.392939 2.24222 2.80537
1.05584 2.97415 2.64969
2.03388 1.41576 3.43782
1.55729 3.67336 2.51512
1.38852 2.23774 3.07775
0.941668 0.454435 4.28648
0.615218 4.29196 2.30813
-0.211298 -1.29231 4.64026
-0.431452 2.8721 2.56164
-0.797348 3.20715 2.58187
-1.08304 0.053524 4.07743
0.365525 2.38985 2.8153
1.62401 1.68493 3.30084
-0.0876341 3.67343 2.37981
3.62238 0.652056 3.80854
0.320891 2.97645 2.52185
0.226574 -0.790083 4.54418
-1.00745 2.39469 2.82949
-0.434746 1.6838 3.21382
0.630966 -0.406509 4.70214
0.563303 3.82761 2.45994
3.40888 0.544972 3.78811
3.50076 -0.794701 4.69842
-0.274132 3.95195 2.27748
4.71416 0.130597 3.93418
2.59534 2.70698 2.86634
-0.539715 -0.52291 4.54116
1.22782 3.42198 2.57854
4.43753 1.07167 3.71383
0.668043 2.01404 3.10221
-0.531878 2.17522 2.94869
0.881239 1.42331 3.49388
-0.464575 3.94733 2.22388
0.666491 3.42351 2.42177
2.39483 -1.00818 4.75757
0.412188 2.78069 2.61847
-0.802155 0.480205 3.91875
2.81761 5.30675 2.54419
0.955108 2.14087 3.19525
0.865919 4.17736 2.35487
-0.101955 1.36448 3.48321
0.878 -0.940648 5.01449
0.170139 3.37853 2.42968
-0.538459 0.662611 3.92075
0.550118 2.70087 2.62868
-1.37258 2.79774 2.6663
-0.491814 2.81615 2.55998
0.984816 0.0901029 4.42339
0.843285 2.17367 3.03911
-0.739033 3.94584 2.19595
2.75148 1.3284 3.48872
-0.817312 1.37784 3.32652
1.0775 4.65503 2.30663
2.65216 2.04513 3.15096
4.42044 0.778248 3.65546
0.36559 2.70221 2.5866
1.4424 0.218166 4.29323
2.1472 3.6125 2.67098
-0.650267 3.54551 2.43189
2.48577 2.28235 3.04614
1.89519 4.21543 2.39234
1.94608 3.04511 2.72391
-1.38683 -0.174275 4.07511
1.82206 1.53711 3.3949
-0.631824 3.99851 2.1211
-0.432144 3.58275 2.41371
1.45471 2.98871 2.7403
2.61594 2.2034 3.07682
0.81968 3.66578 2.45711
0.533304 1.52731 3.39823
-0.673324 4.06863 2.1226
1.13585 0.595795 4.11856
0.981001 -0.980467 4.77202
-0.74185 2.68047 2.79473
3.82027 -0.839149 4.22432
-0.871683 3.3661 2.53035
-0.285472 0.711491 4.00846
1.28523 3.95447 2.42264
1.39723 1.08138 3.74644
4.10111 -1.19106 4.30042
1.99141 1.91643 3.33012
4.54753 -0.338958 4.08754
1.33031 1.25544 3.62107
-0.580099 3.87122 2.24423
0.220596 2.05931 3.07752
-0.645975 -1.38417 4.33367
4.77408 0.0699024 4.12762
0.467035 2.62163 2.59974
2.54205 3.55344 2.70642
4.15275 0.211911 3.97124
-0.862891 1.23504 3.45995
3.12757 -1.07475 4.028
1.78762 2.01502 3.31669
-0.0760489 3.29033 2.45226
0.847249 2.63514 2.73675
0.585877 4.09377 2.38351
1.78136 4.78489 2.33716
-1.10227 1.15421 3.39836
1.3953 1.96818 3.20739
-0.178812 3.87533 2.31535
-1.17038 -0.378236 4.43223
-0.745883 2.58135 2.58007
-0.421338 3.28011 2.42348
1.48663 4.48878 2.31098
-0.873672 1.07157 3.47286
-0.795355 3.7542 2.1678
3.33272 1.83526 3.34686
4.79218 0.302222 3.935
2.21995 -0.302852 4.31477
-0.411389 2.61289 2.74366
2.08575 3.44353 2.73073
0.145132 -0.767028 5.21452
0.852496 2.72034 2.64305
0.504868 3.4407 2.48288
2.49758 2.05715 3.15483
1.45961 4.73434 2.31811
-0.930112 1.375 3.31245
-0.0513547 4.00385 2.30111
3.96988 0.0855411 3.79056
-0.430362 3.35442 2.42928
-0.31135 2.71912 2.65641
3.67525 1.9875 3.30343
1.34869 4.06983 2.34861
0.813632 1.30252 3.64525
3.13887 0.0372337 4.01359
0.0396153 3.67472 2.36161
0.191186 -1.25037 4.58012
3.1107 0.169469 4.11899
-0.262419 2.41829 2.88186
-1.42208 -1.26831 4.13468
-0.62289 3.09407 2.54895
0.207667 0.860084 3.99646
2.23548 1.59464 3.34839
3.05125 1.69792 3.23668
1.38932 3.85517 2.49032
2.05026 0.930672 3.7875
1.19701 4.42775 2.29356
-0.422638 3.22397 2.49842
3.87711 -0.279654 4.18187
-0.706851 2.56007 2.78637
-0.840418 1.83006 3.23525
1.9913 4.24388 2.3786
3.33511 0.727202 3.82423
-0.537293 3.73794 2.27765
1.62436 3.27025 2.72618
-0.328958 2.50502 2.83756
0.625966 0.0942493 4.55056
1.69757 3.83094 2.53786
1.83438 0.818319 3.76073
1.18431 -0.607497 4.77436
2.03338 1.75347 3.44914
3.27996 0.413737 4.09885
1.74492 2.45241 2.93717
4.25025 -0.947717 4.3642
-0.906964 0.796434 3.74347
1.40421 3.22055 2.66919
2.14886 1.61981 3.39431
-0.296144 3.75416 2.35283
-0.833821 0.716477 3.84346
-0.430965 2.39162 2.83197
2.63573 -0.825941 4.71585
2.5739 3.22594 2.82627
1.14546 3.2572 2.54112
3.0646 -1.22393 4.72943
2.26443 2.5776 2.88453
3.30946 0.266634 4.03356
1.05356 4.52217 2.30568
0.925697 1.87406 3.16035
1.61927 4.50084 2.31016
3.9415 0.793198 3.33928
0.754789 3.23334 2.5687
1.64597 3.94246 2.50007
1.15136 2.54902 2.91116
2.45976 1.75964 3.29408
3.47544 1.98954 3.26407
-0.692139 1.00822 3.65589
1.54843 3.96036 2.43907
1.30949 -0.238151 4.66451
-1.4321 0.650953 3.33097
-0.854115 3.51237 2.40164
1.11006 4.16244 2.33214
2.52884 2.89702 2.81148
3.45551 -0.267124 4.11886
2.32286 1.38501 3.54115
0.404338 2.2007 3.03265
-0.76021 3.90281 2.06745
0.544591 1.60196 3.35628
1.50084 3.75986 2.623
-0.0275375 -0.621734 4.58365
1.88024 3.10351 2.774
0.677137 2.25959 2.87163
2.38 2.22094 3.08361
1.23123 4.24899 2.27599
0.281431 1.60021 3.49689
-0.530628 2.92822 2.5815
0.0745383 3.62741 2.39592
3.48298 -0.550433 4.0504
-0.718909 1.54947 3.26054
1.40744 4.15015 2.33675
1.26206 2.26385 3.05371
1.19451 3.58245 2.53968
3.81932 0.00592052 3.85222
1.6361 3.01851 2.78336
2.18884 2.17859 3.16767
0.904065 3.65754 2.52734
-0.0599983 1.53654 3.51859
-0.657982 3.56565 1.87756
1.01712 0.365637 4.31713
4.13689 -1.4834 4.54219
0.854473 2.80656 2.64059
1.25164 3.09887 2.65095
-0.429982 0.131933 4.3031
-0.484733 2.42163 2.85892
1.14792 4.25564 2.27852
2.02479 1.62129 3.37871
0.0471178 3.61519 2.38875
3.12958 0.597331 3.8109
2.20334 3.04431 2.747
-0.00455085 2.31742 2.89928
3.5771 0.00453419 4.11498
2.14171 -1.3217 4.49213
3.01919 1.42104 3.33945
-0.739671 2.70671 2.61019
0.852678 3.71591 2.42636
0.864652 3.39553 2.52514
-0.720372 1.2853 3.35885
1.88543 -0.823755 4.88732
-1.20996 0.734147 3.83001
2.32192 1.99172 3.19187
1.84512 4.04208 2.44578
1.7974 2.71442 2.88827
1.52224 -0.566451 4.42068
1.50169 3.41286 2.62237
3.65266 0.982221 3.63526
1.72853 4.05047 2.40229
4.81528 0.239145 3.94236
-0.820296 2.01031 3.04242
0.696924 4.66447 2.31731
0.735828 2.0844 3.03748
4.39524 1.17683 3.67078
2.29383 0.326506 3.95721
0.386444 3.50623 2.52086
-0.984381 -0.992697 4.18879
0.280246 2.70071 2.58606
-0.8022 3.85398 2.14667
-1.14492 -0.892706 4.27282
