ply
format ascii 1.0
element vertex 1927
property float x
property float y
property float z
end_header
2.57932 0.868692 3.71012
3.44712 0.0220562 3.90193
2.71873 1.77824 3.30717
1.4189 2.57917 2.92962
2.95119 3.60063 2.94419
-0.037394 3.94277 2.34903
-0.0926714 2.51398 2.7654
4.26979 -0.595775 4.14116
1.65339 3.31249 2.64909
3.2336 -0.807915 4.17295
2.46309 0.854033 3.62711
-0.137271 0.73412 3.93294
1.66155 1.76984 3.20347
0.117194 3.7539 2.34853
2.08741 3.27275 2.71634
1.28833 4.50889 2.27877
2.15392 -0.60956 4.31644
1.3176 2.45366 2.88246
1.7686 1.72135 3.34994
1.83429 3.97048 2.49571
2.50185 0.749021 3.6592
2.77688 -1.34133 4.54447
-0.239954 3.86839 2.29284
1.61518 0.389883 4.1188
-0.670903 0.00912105 4.18389
3.85996 -1.11832 4.30589
1.76798 2.63425 2.88733
-0.180372 3.22574 2.44397
-0.264641 0.618877 4.14987
3.39402 0.951648 3.75299
1.87729 -0.924566 4.76614
2.42986 1.8342 3.23638
-0.532691 3.95686 2.13057
-0.0844745 1.58456 3.46562
0.774441 -0.0604849 4.53193
-0.282257 2.22584 2.87859
-0.479248 3.61341 2.47907
2.21671 2.9715 2.73119
-0.894702 3.65471 2.43336
-0.07313 2.19357 2.98309
-0.455845 4.09546 2.17432
2.40518 1.3697 3.49719
2.45162 2.8924 2.77188
-0.209811 3.07132 2.53179
1.57637 -0.430538 4.64232
-0.761368 2.35807 2.7714
-0.39791 3.67714 2.39565
0.567531 1.665 3.28973
-0.558776 4.11108 2.12483
3.59261 0.593192 3.84117
2.70005 1.50706 3.41144
0.0508581 -0.20037 4.30929
5.01801 -0.617982 4.27139
0.592369 2.26392 2.86822
0.289451 3.73022 2.39142
-0.740919 2.99594 2.53351
0.65565 1.82048 3.17949
-0.397812 -0.628777 4.57342
-0.0159865 1.11102 3.9767
2.11719 3.42423 2.75518
-0.352887 2.49506 2.70992
2.00125 4.3176 2.35398
-0.535532 -0.385799 4.68657
0.594113 3.97284 2.44477
0.62219 1.20706 3.69897
3.69036 -0.847089 4.23572
2.1869 4.1311 2.54056
3.21838 1.84692 3.13028
2.88796 -1.00018 5.09714
-0.537663 2.65195 2.66488
4.77777 0.382097 4.09112
-0.846821 3.39864 2.48863
2.5073 0.544849 3.77722
0.465608 1.9041 3.16413
3.55788 -0.787133 4.39101
0.0611496 1.15304 3.74105
2.22702 3.41277 2.68354
-0.0157765 2.56331 2.69981
-0.640817 3.8704 2.22535
4.03671 -0.804258 4.07795
0.991497 3.0202 2.62365
0.292628 2.28773 2.87259
0.796536 1.60917 3.37633
3.44294 -0.231722 4.00762
0.0651754 3.57394 2.40043
1.38818 4.20896 2.28997
3.9473 1.41505 3.55492
0.813188 2.20807 2.92111
1.02554 4.29979 2.2738
3.65034 -0.118764 4.13462
0.326022 2.87831 2.54377
1.86668 3.77897 2.542
-0.0973481 2.43726 2.77438
-0.567315 3.14103 2.48546
0.619945 3.80044 2.45151
2.24069 0.832345 3.83794
-0.222417 4.52902 2.19145
2.82724 1.63554 3.27878
1.00872 2.38846 2.91951
1.69868 3.27463 2.79134
2.63129 -0.337163 4.33282
0.753599 0.806003 3.91619
1.84272 1.66464 3.41661
0.311432 3.82366 2.39697
-1.26077 0.421049 3.83797
1.46548 4.60889 2.29382
-0.621301 -1.09413 4.77999
1.76958 3.80344 2.55882
0.280785 4.29887 2.24706
4.03782 -1.00684 4.88073
2.34878 2.32187 3.0481
3.35179 0.410103 4.01445
0.718182 3.01519 2.60791
-0.700566 1.64493 3.28373
0.128722 1.74889 3.21007
0.541668 -1.39672 4.67053
-0.634014 0.903012 3.63934
-0.46708 2.41327 2.72511
0.530584 3.77703 2.43133
1.15798 3.15574 2.57661
0.214556 0.251436 4.38448
3.61014 1.56881 3.40901
4.03764 0.12901 3.96014
-0.144569 0.848523 3.86105
-0.642069 -1.22285 4.27316
0.746741 3.08655 2.58429
-0.538898 3.74757 2.31989
-0.0199775 2.37678 2.83603
1.77343 4.52708 2.30245
-0.434651 3.90428 2.21109
1.3366 3.56379 2.56579
-0.557206 2.76143 2.58055
1.60665 2.12353 3.13694
0.808129 4.77903 2.30787
4.01186 -0.627378 4.0455
0.870784 1.24534 3.525
2.96103 1.2598 3.58558
1.82672 2.10174 3.27615
-1.00863 4.36331 2.14174
0.683773 2.695 2.6666
3.1632 -0.504641 4.21896
1.7218 3.56581 2.65308
0.46617 4.09485 2.30198
2.24844 -0.810437 4.90968
1.69327 0.628946 3.94454
0.194901 2.84614 2.51288
3.0266 1.49511 3.62863
-0.65497 3.90812 2.09227
0.378125 2.2757 2.98001
0.0522083 3.50851 2.41616
0.615133 2.7957 2.58583
0.282838 2.18616 2.99491
-0.685627 3.60034 2.3921
3.63042 1.33181 3.55968
-0.17631 4.11585 2.19231
2.97572 -0.0749631 4.17367
4.19403 0.228007 3.82757
-0.236654 4.06641 2.26149
2.45418 2.83774 2.8108
-0.655212 0.273148 4.04693
-0.456157 3.54227 2.49273
1.05581 1.34869 3.53237
0.5033 2.05196 2.95373
-0.130547 2.31404 2.99123
0.940268 4.28317 2.36658
-0.33881 1.55538 3.35513
0.010662 3.44294 2.36523
0.0221515 2.86506 2.5161
0.840208 -0.228716 4.62754
2.44037 -0.164439 4.19872
-0.24941 2.21699 2.9965
-0.436538 4.21713 2.24201
3.28686 1.30113 3.44083
0.530211 3.65529 2.47337
-0.405411 2.83091 2.57113
0.0537733 3.85427 2.3476
1.9978 3.46045 2.71476
1.32522 4.60139 2.28426
-0.109456 2.59678 2.73249
-0.00278248 1.90698 3.12082
6.02171 0.30211 4.83063
4.04436 0.911162 3.68153
-0.822285 -0.910058 3.99847
3.56615 0.805394 3.68096
-0.046322 1.80249 3.07586
3.34308 0.426243 4.09246
1.93197 2.58974 2.95963
3.10457 -0.913088 4.41522
1.36931 3.29727 2.61957
3.9242 -1.38511 4.37746
3.25338 2.79479 2.89831
3.81508 0.118898 3.91005
-0.106471 3.38749 2.44934
1.21456 3.96953 2.40752
-0.678326 1.28342 3.38479
1.50091 4.08076 2.43039
1.5005 2.04035 3.15486
0.414327 3.27836 2.45609
3.637 -0.916866 4.22946
3.29218 2.67578 2.889
4.12957 -0.716317 4.09754
2.41574 1.94444 3.22979
-0.618344 3.85807 2.17551
2.47674 5.18889 2.50593
-0.504828 1.22622 3.57953
1.99834 -0.448159 4.58821
0.246511 4.09271 2.45138
3.49571 -0.792019 4.1975
-0.495304 2.57404 2.69441
-1.25007 -0.283811 4.11158
1.26693 3.40154 2.6414
3.08498 0.949755 3.66352
-0.604976 1.92016 3.09453
0.401424 2.01852 3.03752
2.15302 4.25963 2.45409
0.480337 1.30917 3.65019
1.05112 4.03356 2.38522
-0.342459 3.39554 2.4488
-0.274332 -0.8558 4.99935
1.23041 2.72316 2.73092
1.51138 0.681028 4.14619
1.3315 1.98129 3.20085
3.40593 0.998393 3.57695
-0.723665 3.85746 2.17603
0.421439 -0.674714 4.7872
-0.644689 3.35344 2.46066
2.55738 2.71058 2.88893
0.612451 3.77561 2.50365
-1.09308 0.768024 3.77132
0.106312 4.20677 2.19253
1.60024 1.63898 3.3566
4.19011 -0.386543 3.95512
1.77634 2.39609 2.97632
-0.103278 2.99195 2.46629
1.96565 3.85832 2.53549
3.47388 1.55342 3.56266
2.84332 4.83767 2.59056
0.886194 2.28404 2.91136
-0.828616 0.281069 4.15001
0.845032 2.98308 2.59143
-0.700719 3.16782 2.43025
1.22994 -0.0727431 4.58433
1.67961 2.6053 2.96604
3.102 1.73535 3.26084
2.19784 3.97819 2.56588
3.19963 0.820708 3.64923
0.78014 3.15536 2.55831
1.22024 4.6021 2.28132
-0.520102 2.42822 2.73515
2.28575 -0.0351574 4.17216
3.13338 1.66875 3.38352
-0.777228 0.910447 3.61305
-0.611917 3.75498 2.26055
3.78145 0.543452 3.9251
1.97012 4.50262 2.32818
4.33952 -0.762446 4.38093
-0.800573 3.74507 2.29236
3.59053 1.756 3.37096
2.84886 -0.572186 4.08354
1.05637 2.48325 2.86427
0.559225 3.07013 2.44609
1.35912 0.922863 3.85635
1.43412 1.81554 3.38151
2.97528 1.81572 3.16745
1.38566 4.61487 2.29034
2.08381 1.09016 3.78278
1.99935 -1.03469 4.76691
0.59552 3.26776 2.48459
3.48307 0.283773 3.81528
1.19042 2.60889 2.77493
1.2217 1.88005 3.2972
2.95672 0.498277 4.13551
4.52359 1.02627 4.0681
0.682538 -0.850816 4.50236
-0.0808214 3.92491 2.37479
2.14039 3.38912 2.71439
-0.163592 2.57706 2.77253
1.35428 4.01589 2.42483
-0.628505 2.97492 2.58199
-0.604665 3.57665 2.41855
0.878663 2.22437 2.9143
-0.438852 4.14413 2.22855
0.223244 -0.15674 4.58265
-1.04234 -1.16737 4.14783
2.16918 1.40067 3.27214
-0.25765 1.51794 3.39604
1.71229 2.18539 3.04918
0.399184 4.14799 2.20798
1.93751 -0.102815 4.18259
0.988199 3.6572 2.47187
-0.00994656 2.80869 2.52905
-0.716207 2.40628 2.77653
0.986157 3.13345 2.60486
3.69148 -0.412764 3.84058
4.98087 0.720787 4.35017
0.206086 4.30827 2.23122
-0.980025 1.7766 3.24528
0.300138 3.67799 2.39995
-0.448832 3.01653 2.53109
-0.634137 2.35851 2.85379
0.75031 3.75194 2.40717
-0.95449 1.6814 3.26343
2.86076 4.7564 2.55207
2.84807 0.245213 4.10211
4.63903 -1.39831 4.72443
0.587166 3.46894 2.32367
0.89823 4.25924 2.28925
-0.539118 -1.09236 4.80127
0.767336 2.23445 2.91629
3.42983 0.302064 3.9592
1.89224 1.49572 3.44315
1.96386 3.0049 2.72101
-0.230643 4.13048 2.10404
3.7175 1.56171 3.30523
-0.215284 3.71617 2.40851
3.4238 0.638821 3.73547
0.216328 3.0239 2.47715
3.95141 -0.0825659 4.21137
2.29702 2.46331 3.05112
3.05925 1.49699 3.3287
1.13094 -1.56715 4.79268
0.484089 3.83159 2.44994
1.90228 3.05901 2.67316
2.72314 0.117722 4.02188
-0.860519 2.31558 2.77698
-0.473953 1.37263 3.56531
-0.659828 3.43477 2.43442
1.34295 4.05075 2.39266
-0.518529 2.70824 2.59124
4.91002 -0.714791 4.06399
1.15487 0.708839 3.97734
2.71402 1.99082 3.13807
4.27328 -0.768036 4.56615
-0.319334 1.26982 3.57285
2.5066 5.10298 2.51108
2.57523 1.96376 3.22532
2.29827 2.75662 2.89065
3.16782 -0.602117 4.05008
1.69774 3.50237 2.65347
3.21445 -0.797857 3.98684
-0.134805 2.85364 2.56492
2.00803 0.526969 4.00614
-0.00343588 4.01512 2.27458
3.63973 1.33297 3.48001
-0.830278 3.92741 2.14797
0.174751 2.24759 3.02346
1.95241 3.63371 2.61747
2.22478 2.92282 2.8599
-0.11873 2.12482 2.96173
1.88442 3.72181 2.6185
-0.882804 1.41157 3.32259
1.54991 4.1672 2.30561
-0.902155 -0.0826187 4.17757
1.9357 2.87119 2.79461
1.13943 3.55645 2.53145
0.918112 4.81649 2.30809
-1.66346 1.70861 4.45343
-0.699091 3.90479 2.1862
-0.651965 2.07717 2.85206
2.40941 0.00686571 4.17136
1.50549 2.83106 2.82144
2.30779 3.60469 2.67831
2.41715 1.17775 3.50942
1.30482 2.06292 3.14381
-0.159603 2.17933 2.90966
1.56751 4.10738 2.33093
3.07487 1.31355 3.37172
3.32415 -0.450329 4.06018
2.13476 3.01985 2.84191
1.1557 4.18954 2.30531
1.7751 3.66408 2.57244
-0.162172 -0.141132 4.46272
1.5434 0.99826 3.82825
1.17264 3.87453 2.44824
1.0134 1.87348 3.26826
4.67407 0.0691037 4.0284
-0.205834 2.50446 2.69184
1.74067 3.37719 2.68706
3.52418 0.748537 3.71523
1.18404 3.91242 2.41292
-0.665711 1.83337 3.20236
4.28498 1.9666 3.44002
-0.411919 2.43781 2.727
0.458589 0.513934 4.16867
1.31393 3.23222 2.61448
3.72433 -1.02584 4.29636
-0.53916 3.34142 2.4408
1.21962 2.70158 2.77985
1.52075 0.209218 4.22803
1.43714 1.9791 3.15834
0.819465 -1.78456 4.72027
-1.2066 1.28638 3.57022
2.89943 -1.30798 4.45075
-0.441338 3.2366 2.41507
2.04498 0.275932 3.9992
1.00415 2.59762 2.75189
1.1419 1.94335 3.23226
1.03131 3.97615 2.38858
0.323976 1.1703 3.74744
1.13474 4.00717 2.3601
-0.22801 2.60147 2.69522
4.61844 0.217677 3.71699
0.524366 3.23321 2.46016
3.06812 -0.619199 4.52923
4.31192 0.978051 3.81797
0.403885 3.93829 2.40012
0.663828 1.91562 3.14154
-0.664006 2.62836 2.80146
2.6387 -0.426288 4.56255
1.68058 4.55039 2.29743
1.57879 3.36515 2.67007
-0.088103 1.10604 3.84847
0.900353 3.99205 2.3984
0.878337 1.81245 3.14677
-1.47092 -0.983021 4.18277
0.549446 1.95026 3.03692
2.57932 1.13834 3.7175
1.96755 3.5412 2.69989
2.84893 -0.837311 4.23794
0.418838 0.671472 4.24409
0.695146 2.63799 2.68375
5.01234 -0.807626 4.05729
-0.00507725 4.00846 2.32153
3.75381 -0.715652 4.04974
1.76467 0.644827 3.89056
-0.0608949 3.61137 2.40207
1.8332 4.17392 2.26865
-0.253844 1.66815 3.30799
2.41077 2.39057 3.09121
1.07947 3.04033 2.62318
1.68107 1.52966 3.50074
-0.367701 3.69096 2.38243
-0.639754 4.0996 2.09673
0.786724 0.134877 4.42585
0.467667 2.21411 2.87151
1.25929 2.99496 2.68222
0.89643 3.17262 2.54919
-0.415262 -0.248709 4.43597
2.38608 2.45816 2.91739
2.83959 5.12464 2.53006
0.287045 1.76962 3.19727
-0.833604 3.81166 2.39602
2.77517 0.779367 3.66155
1.2356 3.15041 2.6342
1.68456 2.40932 2.94657
-0.971005 -0.0344092 4.06438
0.275958 1.68017 3.19149
1.07704 4.48546 2.28963
3.41942 0.669523 3.8823
0.679958 3.87156 2.43108
0.938196 1.94519 3.1989
2.26512 4.29158 2.54678
3.56339 -0.462991 4.03954
-1.02469 1.11235 3.37903
1.71057 3.43131 2.65508
0.781065 2.59204 2.72679
-0.334016 3.81569 2.2915
2.38155 1.85086 3.33642
3.49115 3.16172 2.87531
1.20723 1.04622 3.87087
0.506637 4.11133 2.4517
2.01126 3.40926 2.71828
0.756534 2.52034 2.75807
4.04985 1.19165 3.75333
-0.484036 0.757432 3.82127
2.03738 2.02811 3.13807
2.90049 -0.736632 4.50076
0.188828 2.66144 2.57032
1.54447 4.02612 2.38038
1.40321 3.52562 2.57858
4.57271 0.272976 3.71854
1.52732 4.10483 2.37963
4.36322 -0.678939 4.55511
1.26084 1.18395 3.56769
-1.91011 3.46029 5.44392
0.444888 2.59858 2.6225
4.09509 -0.246901 3.9863
0.596282 3.34643 2.48402
2.46153 2.38749 2.95178
0.173934 3.02362 2.47167
3.19007 0.669245 3.77586
-0.26264 -0.68954 4.4528
0.22461 0.148948 4.39909
0.519515 1.7206 3.25626
0.395823 3.65977 2.3839
0.179701 2.94257 2.49404
0.380314 2.29509 2.83185
0.198052 3.75489 2.38352
2.8017 1.51071 3.29733
1.73498 0.19982 4.14533
0.961391 -1.51806 4.78893
0.563411 -0.170192 4.75328
0.537474 3.91576 2.45214
1.47063 4.54453 2.29384
2.96613 2.46035 2.94807
0.198705 3.09737 2.44567
1.37803 -0.0394899 4.34533
-0.188588 0.979898 3.69433
0.977669 1.83152 3.33724
3.5445 1.6239 3.39667
2.93977 -0.860065 4.40974
2.76963 0.658619 3.64366
3.59587 0.456658 4.11095
-0.147272 -1.23236 4.64971
-0.534884 3.06392 2.47262
2.39228 2.39125 2.95127
-0.804943 -0.553865 4.00237
1.38637 -1.46168 4.70636
2.97386 0.573678 3.831
0.165637 3.73693 2.37202
0.755405 0.401069 4.21742
0.440072 1.06344 3.7883
-0.754196 -1.27467 4.48755
1.18375 1.89936 3.31442
0.696267 2.51926 2.75286
-0.135635 3.30991 2.55367
0.0338685 3.81659 2.36551
1.68893 0.447077 4.13759
0.435055 3.87228 2.35754
-0.60566 -1.10536 5.02982
-0.963996 0.982885 3.64281
2.28802 1.7314 3.30483
2.92576 2.46286 2.94872
0.0666813 3.16881 2.50464
2.08281 4.38441 2.38614
1.37814 4.4696 2.28317
0.483738 2.83713 2.57892
0.760105 2.17853 2.9561
3.01949 -0.432638 4.40783
1.16665 1.49293 3.53429
1.71665 4.14987 2.35393
1.03237 3.54168 2.51163
-0.657083 2.85852 2.64557
1.41216 2.15701 3.1087
0.485002 4.19779 2.2849
2.11104 -0.250273 4.77391
3.58908 1.21067 3.41867
-0.0413082 2.29246 2.80348
0.779914 3.63258 2.51119
-0.0691482 3.01486 2.54746
-0.465605 3.66826 2.4222
0.442569 4.20003 2.23447
3.30709 1.54716 3.44257
-0.744429 2.26971 2.85075
0.0943427 2.89683 2.53106
1.59606 1.52899 3.47181
0.0921281 3.63728 2.35905
3.7476 -0.632173 4.23763
-0.82586 2.13976 2.79561
0.0313902 0.288483 4.29754
0.127111 1.51368 3.44559
0.411765 2.82251 2.56284
3.82622 -1.32897 4.56997
1.22057 4.1919 2.30331
0.622891 0.412133 4.25848
-0.308679 3.57098 2.42392
3.87163 -0.224334 3.87714
1.09594 4.22047 2.26709
2.41375 1.61888 3.49011
1.33493 3.7332 2.53404
-0.0708391 2.28336 2.79442
-0.418147 3.09111 2.60215
1.57234 3.77509 2.51328
-0.538583 0.176547 4.21441
3.63145 1.48602 3.62062
1.6261 4.24565 2.24039
1.92926 3.03834 2.74722
1.70988 2.27096 3.02706
2.36109 3.5183 2.69196
0.173049 2.61956 2.62815
3.15162 0.481756 4.10176
2.14896 1.99295 3.22598
1.95121 -0.854655 4.80319
0.73888 1.24352 3.67042
0.14601 3.96302 2.34694
1.1266 3.42367 2.6293
-1.20479 1.41589 3.37378
0.120536 2.55528 2.64987
0.24005 1.96547 3.17175
-1.47924 -0.617307 4.63184
4.18341 0.904202 3.50464
0.444345 0.77584 4.03884
0.974139 2.79915 2.66948
0.0989734 3.96765 2.29623
0.957108 3.56275 2.52807
4.66 0.157035 3.94199
2.53791 1.31298 3.53474
1.21925 4.1203 2.37766
1.12357 2.11264 3.03968
2.41565 5.15853 2.5049
-0.057346 2.69725 2.59205
1.32107 3.52162 2.57722
-0.0568806 0.533087 4.15332
2.3099 1.19904 3.53685
3.31031 -0.987642 4.05139
0.107486 2.07856 3.05572
0.911534 -0.180744 4.62802
3.01964 1.90466 3.16392
0.32167 1.28705 3.74341
1.27875 4.10394 2.3139
1.74207 3.48202 2.6417
-0.641121 2.63002 2.60091
1.16547 -1.7391 4.73807
2.70663 -0.154938 4.07351
0.038203 4.00706 2.32099
1.61458 1.42469 3.68204
0.675473 4.12315 2.36333
-0.00846847 2.11418 2.94901
3.24282 -0.560023 3.97153
-0.230948 2.85636 2.6716
2.13958 3.66764 2.64927
-0.944764 -0.35079 4.43798
3.21718 2.01957 3.22282
1.46484 1.29582 3.65303
0.69075 4.189 2.34385
0.026717 3.47573 2.49901
-1.23686 4.13993 2.13732
1.26378 2.75516 2.72485
-0.365143 3.14845 2.46837
2.00671 3.89149 2.54207
1.48434 2.52574 2.93939
2.74603 4.95151 2.57403
-0.445507 0.207174 4.13529
1.94572 1.80481 3.40817
2.42972 0.802771 3.65708
2.36511 0.710569 3.77611
2.69045 1.64646 3.36176
0.916696 4.46084 2.31225
2.99262 -1.22354 4.13555
1.94863 2.43965 2.98167
4.17355 0.160004 3.94606
-0.848491 2.60134 2.65176
1.07974 3.0847 2.56329
0.93095 3.321 2.54026
-0.00285496 3.8141 2.36409
2.69132 1.00785 3.63368
0.33789 4.01639 2.4528
-0.377378 1.93043 3.06153
1.85989 4.42842 2.31005
0.155136 2.49024 2.69134
-1.8694 0.026027 5.43603
-0.97078 1.91621 3.15543
-0.655008 3.19067 2.43134
-0.399481 1.09801 3.72062
1.76436 3.98511 2.41675
2.99061 3.03649 2.80038
0.41209 -1.85113 4.6688
2.14693 2.22614 3.01314
-0.167076 4.04219 2.18518
0.0111005 1.53848 3.32256
3.74223 0.0200348 3.82536
-0.170017 3.5075 2.39496
2.03494 2.96862 2.79011
-1.11768 -1.21993 4.22988
1.98164 2.16281 3.05175
3.84604 0.134752 3.86526
-0.683834 1.49943 3.33305
3.01816 3.83847 2.67372
-0.934764 2.42162 2.79508
0.767393 4.28725 2.30374
1.94503 3.2037 2.71355
1.06697 3.77883 2.50943
2.94066 0.658415 3.76697
-0.064895 4.1894 2.16781
0.809248 1.72383 3.37484
1.53174 2.36634 3.0186
-0.790439 2.97427 2.48568
2.11668 0.00592396 4.08426
-0.885428 3.68101 2.30506
1.19761 1.66576 3.50628
2.54683 5.06161 2.47345
1.61555 1.97136 3.1715
-0.650402 -0.619829 4.25298
-1.84966 1.55797 4.94554
3.70221 0.556909 4.0439
0.320621 3.31018 2.46332
-0.295313 3.80573 2.23824
2.14822 2.69599 2.83593
-1.62985 -1.33819 4.16656
3.4765 -0.649424 4.6434
1.66932 -1.58678 4.70308
-0.487559 3.79112 2.17524
-0.801756 3.32579 2.47588
2.12543 1.32778 3.55371
3.82184 0.246345 3.82487
1.97527 2.10617 3.11436
3.47709 -1.0749 4.4306
0.55998 2.75568 2.61196
-0.648339 3.85293 2.16149
1.18512 3.52669 2.52071
0.770911 4.80024 2.30558
3.76379 0.368789 3.75709
1.83059 1.26477 3.66888
1.11204 -0.947959 4.95123
-0.0578689 2.0444 3.01955
-0.270195 3.9762 2.20198
-0.409354 2.7114 2.61179
4.10419 0.115154 3.65499
-0.886708 3.50562 2.48604
1.88889 3.53695 2.62012
-0.686325 3.89501 2.23312
0.968572 2.69859 2.67311
3.37768 -0.361398 4.44342
-0.738869 2.07494 3.00161
1.7573 1.28878 3.71449
-1.19797 0.21001 3.50228
2.6257 1.09037 3.62631
0.114552 2.0385 3.15141
4.26912 -0.043424 3.85105
1.12627 2.68582 2.7727
3.41176 -0.19601 4.36715
0.124878 3.34826 2.48503
-0.315524 2.90305 2.62527
0.96981 4.17 2.41215
-1.12096 3.85714 2.23115
3.81807 1.3176 3.46995
0.965425 2.1922 3.01918
-0.749523 3.897 2.14176
2.28056 2.83062 2.77563
0.357819 3.48104 2.46178
3.02565 -0.458156 4.27287
0.587593 3.61237 2.50562
3.55251 1.20187 3.45468
-0.490969 2.14837 2.97597
3.59395 0.170503 4.02414
-0.18068 1.76805 3.16872
-1.19844 -1.12226 4.02658
-1.18852 0.842664 3.64079
-0.796486 3.11955 2.44505
1.04916 4.17 2.29492
0.0746957 2.43933 2.76351
2.64403 -0.909573 3.74654
3.00541 0.315376 3.96129
1.70891 3.8811 2.47443
2.03045 4.18468 2.45177
-0.454671 1.16518 3.61665
1.74267 4.46192 2.3018
2.65078 1.84292 3.2156
1.12443 3.90605 2.41102
1.06412 2.59852 2.77592
3.6349 -0.0807798 4.25158
0.154693 3.23226 2.44935
3.85288 0.052844 4.09241
1.61884 1.8587 3.30601
3.68663 0.798144 3.61313
-0.928128 3.2959 2.51506
-0.322263 3.80722 2.23892
3.84878 2.65078 3.09083
-0.894015 2.621 2.78835
0.965852 3.88504 2.45324
2.30034 3.3476 2.6966
1.6175 2.64994 2.96552
4.04242 -1.17894 4.53147
3.31247 0.534742 3.85931
1.08431 1.88048 3.29794
-1.25824 -0.602748 4.2106
3.38688 0.864775 3.79069
3.47804 0.700971 3.58421
-0.426128 1.77324 3.15946
2.96964 -0.597082 4.10716
-0.220364 2.53277 2.86047
0.549117 3.13765 2.52346
0.781211 3.96605 2.43687
-0.347243 2.67333 2.68092
2.02774 4.13081 2.45941
0.0476843 3.34125 2.47748
1.71757 1.16407 3.68139
3.82906 -1.08392 4.31968
-0.486605 3.88424 2.2824
2.82332 1.92395 3.19674
0.797933 3.264 2.50138
-0.811961 2.64067 2.72179
3.57358 0.461791 4.19215
0.980637 1.93384 3.22655
-1.16417 -0.923471 4.97042
3.53094 0.911029 3.5721
2.50537 -0.15189 4.16271
0.887278 4.14162 2.44152
-0.129876 1.61366 3.44695
2.07562 3.05284 2.78211
-0.919282 4.04332 2.1482
1.36144 2.28937 3.0482
1.25152 4.15074 2.24604
2.5881 -0.0335661 4.01115
1.72166 3.72828 2.55662
0.53079 0.849735 3.93488
0.0797843 4.20382 2.17968
3.48842 1.60095 3.42418
0.17121 3.68123 2.40535
1.30024 2.40164 2.9253
-0.337155 3.10911 2.53676
-0.686655 -0.458358 4.84411
2.4489 -0.302098 4.46654
0.224582 1.64482 3.36277
2.33503 3.93968 2.59121
1.34961 -1.36824 4.68769
1.48187 3.10311 2.70323
1.3218 2.33829 2.97526
1.17547 3.03724 2.62951
0.830177 3.65303 2.47339
0.734879 2.29087 2.8809
0.956327 4.30125 2.32258
-0.0296853 1.61799 3.27146
3.86691 0.236822 4.72756
4.36187 -1.37387 4.6157
4.11118 1.572 3.86884
1.0149 0.457195 4.11691
0.312775 2.24117 2.91349
2.90322 -1.03933 4.18531
2.02891 3.04661 2.77011
1.21227 2.51925 2.93702
-0.757838 3.74671 2.42505
2.62965 0.117951 4.12193
-0.890427 3.12034 2.44597
1.01963 0.971207 4.02517
-0.598647 4.15943 2.14136
2.22124 1.66981 3.26361
2.10342 3.88816 2.55308
1.38402 -1.68502 4.6893
2.23396 3.1716 2.70281
0.183673 2.38337 2.83036
3.34821 1.56865 3.34096
-0.716352 3.75642 2.31455
-0.319736 0.891581 4.06527
0.950208 4.49884 2.30142
1.8253 4.87962 2.33151
2.65206 -0.624425 4.67923
0.181125 4.12938 2.3629
0.131842 2.68778 2.61394
-0.888676 -0.314263 3.95632
0.75566 3.47671 2.53802
1.6385 1.23821 3.57603
2.23581 2.04805 3.21472
0.636366 2.13547 2.91746
1.4301 4.09151 2.32809
0.618159 1.50959 3.53354
0.921892 -0.953567 4.92293
-0.371656 2.86706 2.58581
2.08733 0.508822 3.96036
0.837148 3.63815 2.53631
3.77115 0.483562 3.76608
2.94024 2.11474 3.20212
2.38555 1.27655 3.51226
3.14257 -0.740352 4.18865
0.219765 3.46282 2.44193
-0.111451 4.05839 2.1949
0.797691 2.74946 2.62422
-1.1152 4.33946 2.14988
0.790523 2.35371 2.82648
0.112885 3.1268 2.56748
3.35996 -1.0946 4.6594
3.06492 0.682983 3.84886
-0.645196 0.516935 3.92703
1.71763 1.70681 3.40007
-0.13709 3.69869 2.40033
0.131662 0.666249 4.10413
0.268413 2.97058 2.52915
2.44537 -0.898268 4.83156
-0.920287 2.28963 2.75749
-1.16178 1.72893 3.3575
2.19661 3.87471 2.53981
1.45145 4.26919 2.24918
1.87171 1.78148 3.38517
0.276978 -1.49778 4.63411
1.23835 0.922289 3.85712
1.35093 0.232815 4.30837
1.81299 3.30415 2.70458
2.22023 2.50803 2.96761
1.17488 4.54178 2.28014
-0.138265 3.81693 2.36189
2.7 -1.35011 4.60358
-0.02555 0.411383 4.29002
0.423692 1.44473 3.57804
1.82374 4.05083 2.35883
-1.58459 2.94899 4.22882
1.90674 2.88527 2.80386
0.755268 3.53561 2.51178
0.277432 2.05276 3.04166
4.04528 0.0789361 3.80068
2.17257 1.22051 3.59271
0.0096736 4.07925 2.26382
0.58492 -0.496385 5.32682
2.23471 3.599 2.67212
-0.207278 2.74193 2.6483
-0.36021 0.739386 3.89859
0.724107 2.9304 2.59736
3.87201 -0.76496 4.2071
-0.976741 2.30432 2.89225
1.36553 3.67548 2.56775
-0.209509 4.18889 2.2684
1.2178 1.57012 3.53101
1.90551 1.46194 3.57655
1.95336 -0.581658 4.86636
-0.994892 2.27445 2.98522
1.8988 2.93684 2.74867
1.78943 4.20897 2.28923
-0.263006 3.64948 2.42359
0.979872 2.85096 2.62663
3.48846 2.79535 2.95294
1.58591 1.47711 3.56723
-0.594013 3.91931 2.1489
3.17461 -0.0373488 4.38634
2.4272 2.16483 3.08224
0.91338 0.255934 4.23229
1.40739 2.90119 2.80182
0.0790252 3.50576 2.46216
2.21353 2.0617 3.05614
0.427316 3.52452 2.42277
3.92147 1.22114 3.51438
1.51194 4.16108 2.30517
-0.616415 -0.239659 4.36538
-0.180548 3.57645 2.37951
-0.312931 4.24541 2.24824
1.92574 2.26037 3.03689
0.675797 2.90463 2.57358
1.06252 1.53397 3.42927
-1.02917 -0.0796649 3.7917
2.06409 -0.869049 4.71166
1.59634 1.08227 3.70363
-0.447538 0.628003 3.91738
-0.455456 1.93074 3.06681
0.271353 3.97937 2.42613
0.652831 2.58011 2.72743
1.29604 4.68492 2.28631
0.292129 3.24641 2.46322
-0.61289 1.84812 3.0763
0.189841 3.96665 2.35397
-0.820344 1.03443 3.578
0.282613 3.19296 2.4844
-1.34022 -0.8544 4.23598
1.47465 2.61166 2.90853
-0.670865 0.31462 4.08652
1.95179 3.55596 2.63231
1.95338 -1.1532 3.9382
1.44517 2.80099 2.79704
-0.0294915 3.97383 2.29864
-0.931203 2.08279 3.00423
2.4221 -1.42385 4.64713
1.60047 1.28535 3.67777
1.25141 -1.082 4.84066
-0.0183502 2.01136 3.08117
4.23176 0.253429 3.89182
-0.447237 1.24937 3.52627
-0.314949 2.6809 2.679
-0.220529 3.29143 2.42406
1.35913 4.12133 2.38566
1.53395 4.84301 2.30597
0.335729 2.58922 2.62008
2.05601 3.43543 2.62426
2.11435 1.19974 3.81188
3.91183 -1.15886 4.26669
0.589723 -0.456423 4.77492
1.67088 1.98536 3.196
-0.761196 3.29395 2.45296
0.0683418 3.98287 2.36298
0.268579 2.58467 2.70379
-1.02696 2.02035 3.16521
-0.199599 3.91948 2.26573
2.65649 -0.3038 4.51929
0.944329 1.14456 3.75946
-0.899517 4.35643 2.12965
2.36257 5.21936 2.48313
1.46633 4.08207 2.36913
-1.02478 0.747723 3.72105
4.56587 -0.825062 4.81013
0.623796 2.67928 2.62985
1.52227 3.51779 2.5842
3.09113 1.15477 3.56569
-0.700179 -0.582112 4.45167
1.22315 2.09127 3.19408
0.370343 4.3027 2.23254
3.73008 1.51813 3.20618
-0.405945 0.203463 4.30015
1.66827 0.77258 3.87419
-0.779306 3.64889 2.34271
-0.8709 2.98345 2.40452
-0.324913 2.43774 2.86734
3.45048 1.46521 3.31821
1.52577 -1.55135 4.71527
2.14279 3.90527 2.56016
0.209569 2.92883 2.48695
2.04981 2.32804 3.00886
-0.393947 3.76939 2.3249
4.03099 -0.236323 4.18856
4.22111 0.765332 3.54722
1.04288 2.53677 2.80078
-0.78132 1.89287 3.12942
-0.18667 3.19902 2.46758
3.4767 1.83142 3.27104
1.1146 0.928071 3.85005
2.18669 0.0051623 4.11285
1.4936 1.7852 3.36058
1.37016 2.49384 2.90281
1.01978 4.56528 2.29348
1.52354 3.29454 2.68481
-0.633898 3.7532 2.24857
1.21076 3.22607 2.61611
0.585101 2.44556 2.79797
0.24574 -1.26427 4.57735
1.35217 -0.972972 5.05818
0.844689 1.82295 3.35274
4.12383 0.356159 3.73453
0.172225 0.991163 3.87976
2.38246 3.14556 2.68094
-0.896022 2.41129 2.78609
-0.126747 3.73542 2.36549
2.21147 -0.717591 4.43314
2.01195 1.72189 3.502
-1.16935 0.791805 3.92949
0.447459 0.875974 3.97677
1.91784 2.63528 2.86225
2.77091 4.09381 2.64556
2.27709 4.08109 2.55787
3.44247 0.191809 4.0148
4.39766 0.947061 3.65158
-0.31943 -1.20147 4.41515
0.0864685 2.52176 2.72889
0.162255 1.94663 3.16088
1.48165 3.93802 2.44361
2.61539 3.38135 2.72757
2.17237 0.375951 3.99614
3.96893 0.79273 3.60576
-1.07385 -0.77768 3.72333
2.59852 1.74854 3.20745
2.19485 2.14849 3.04598
2.30569 4.27189 2.4519
-0.835369 -0.191032 4.08211
1.36861 1.43336 3.44315
2.14753 4.45921 2.43002
0.0485342 2.78961 2.52498
-1.15592 3.78961 2.28134
0.540377 2.0922 2.96917
0.0890508 4.13704 2.24293
3.31014 -0.202643 4.0851
2.19391 1.33435 3.58424
2.32028 3.67718 2.6745
0.329787 3.59635 2.47613
0.69481 2.75739 2.62097
-0.836933 3.65026 2.40185
0.856791 4.24672 2.28697
-0.737412 -0.484994 3.92886
1.46699 1.61437 3.42041
1.73474 2.38865 3.06051
-0.598461 3.0251 2.54107
0.152912 -0.299987 4.4942
0.334281 1.58469 3.43851
2.0422 3.86699 2.59782
-0.548979 2.27955 2.89414
0.833423 4.2831 2.24456
0.252105 2.87313 2.52646
0.170973 2.32213 2.81531
2.7849 3.18879 2.80157
3.48611 -1.09531 3.79687
1.53496 4.25763 2.28768
4.23043 0.167627 3.83319
-0.40392 1.68387 3.2534
-0.357591 3.66124 2.40727
2.08591 0.422111 3.95548
1.11273 2.98931 2.64917
3.51383 -0.952619 4.28271
0.564481 2.2544 2.87964
0.43621 3.70543 2.40995
-0.187816 1.63213 3.39629
3.15586 -1.54218 4.2195
0.298723 0.189363 4.38391
1.47412 3.8675 2.49658
3.03991 4.85471 2.50592
2.06374 2.41976 2.94342
1.70709 3.23831 2.7041
3.268 -1.60277 4.48316
0.681571 0.865198 3.85976
-1.81035 0.218531 4.89709
-0.472599 1.759 3.21644
0.438783 1.39575 3.68952
0.06713 4.02284 2.31589
0.225255 -0.605987 4.97677
-0.957634 2.07723 2.94142
1.16982 2.77576 2.72495
4.94423 -0.733913 4.06423
1.46564 3.55502 2.59025
0.466679 1.98021 3.03877
-0.499311 3.94776 2.20434
2.80922 1.11413 3.5746
-0.0501175 3.35813 2.4534
4.24163 -0.635575 4.0133
0.867045 2.68697 2.7187
1.57831 0.610499 4.15921
-0.684774 2.91131 2.58389
-0.98438 -0.6444 4.03817
0.803865 3.55788 2.50764
0.253385 4.04616 2.23405
-0.224761 2.19697 2.8925
5.13731 1.63149 4.12554
-0.261766 1.44419 3.39386
0.962456 -0.7751 5.04113
0.954705 2.1596 3.06363
-0.0497022 0.829729 4.03122
1.46435 2.91471 2.78683
0.446172 4.16341 2.25358
-0.915302 3.59899 2.40882
-0.0778029 2.83951 2.6313
2.42484 5.21775 2.50643
-0.518462 1.4519 3.37387
2.01595 -0.0801683 4.20552
0.66511 2.12267 2.98648
0.669757 3.37157 2.42618
0.410896 4.08609 2.32207
0.666938 2.71437 2.63618
-0.699626 3.50605 2.41052
3.10601 2.04309 3.20324
0.781126 4.2313 2.36622
2.12513 0.0522997 4.2593
-0.209826 1.35215 3.49186
-0.756804 -0.259139 4.07495
1.67486 3.67942 2.55984
1.88869 4.23574 2.34297
2.77978 3.01996 2.8542
3.36039 1.37115 3.48043
3.52241 -0.314755 4.02565
-0.57269 2.18594 2.84965
1.69765 -0.953234 4.67603
0.422492 1.88896 3.19679
0.304086 0.567405 4.23206
2.81831 0.915823 3.69195
1.32754 3.33302 2.61104
1.77439 3.91002 2.47599
1.42078 4.56883 2.29067
2.05364 2.598 2.90979
2.13943 1.89902 3.54382
1.60585 4.50012 2.29464
2.69726 0.821485 3.69249
0.514522 3.94485 2.38989
0.329744 3.17569 2.50803
0.215448 2.44353 2.7548
0.968417 1.20464 3.52301
2.35793 0.168014 4.04983
2.89226 -1.59021 4.33348
-0.416233 1.98883 2.97567
3.29275 2.73759 2.89556
0.437433 3.96897 2.34505
3.30075 3.60708 2.72896
-0.990562 0.310494 3.88663
3.15472 0.248559 4.01682
2.2857 1.10239 3.75307
1.94465 -1.19587 4.43359
-0.670729 1.93343 3.01245
2.28049 2.6579 2.86387
4.62116 -1.15145 4.11959
1.8111 3.44798 2.66311
1.03709 3.39521 2.59375
-0.297349 3.97528 2.26984
1.61174 2.72315 2.89985
-0.0939081 1.93356 3.06285
1.93463 4.35795 2.32845
2.2567 -0.544644 4.39544
-0.640857 1.1884 3.5193
-0.496241 3.78447 2.2569
1.21713 3.28549 2.56677
1.90295 2.62227 2.92952
-0.350225 1.9205 3.17243
3.9873 -0.822888 3.95016
2.63053 0.899664 3.61411
-1.03331 -0.275145 4.19247
-0.132444 2.7117 2.5917
1.96687 4.06444 2.46686
0.648663 3.49039 2.51088
2.76944 1.18031 3.50051
2.19637 0.535491 3.99911
2.29753 2.03572 3.13506
-1.21128 -0.6801 4.24701
0.792564 4.1815 2.44238
2.49966 2.77184 2.89771
3.89907 -1.17457 4.06276
2.26517 3.51369 2.66332
-0.417229 0.796622 3.93865
2.38729 1.11481 3.53904
2.10449 -0.719095 4.86617
3.155 1.96174 3.23259
1.1207 4.09539 2.3562
-0.619668 1.69788 3.26798
1.95181 0.0605905 4.20154
1.82148 3.78014 2.57098
-0.722589 4.12762 2.15517
1.51194 3.14324 2.70616
1.04887 4.79084 2.30037
0.0332578 2.34349 2.84193
-0.384749 -0.825883 4.49106
1.12876 0.284887 4.35063
-0.966225 1.63539 3.34533
0.591892 2.93629 2.58015
-0.409644 3.73031 2.39343
1.14633 2.26928 2.95001
3.99157 -0.352978 4.09799
0.501432 1.00823 3.87368
1.14238 3.82731 2.45887
3.69083 1.66492 3.27987
2.53342 4.99372 2.53432
-0.148793 2.47991 2.78028
-0.586728 3.16812 2.46445
3.47435 0.663587 3.73969
0.22447 0.0326108 4.42799
-0.553911 1.74619 3.19311
1.59685 3.89571 2.46173
-0.643196 2.39247 2.74478
1.24191 4.42934 2.2783
0.0452024 3.11071 2.52776
0.665363 3.08202 2.5301
-0.831902 2.42178 2.76129
3.37004 0.334139 3.99458
-0.598127 1.7618 3.21847
0.572898 -1.08094 5.01778
2.74011 0.702162 3.74359
0.672145 3.06259 2.5965
1.41038 3.7952 2.50866
-0.18267 2.40151 2.8998
1.01891 -0.810317 4.76109
3.44683 1.5949 3.49923
2.76159 -0.824036 4.35595
0.456065 -1.55018 4.66491
1.19221 0.611854 4.07142
-0.0569781 3.77197 2.37852
1.42497 2.6385 2.92344
0.572235 3.20392 2.47994
1.84592 0.993093 3.76893
0.396575 3.85478 2.39267
2.80397 1.82551 3.31716
-0.88929 2.58329 2.85202
2.82343 -1.48029 4.55976
-0.631224 3.10345 2.40707
4.4572 0.835596 3.60155
1.26582 0.388527 4.18756
3.27627 1.71294 3.33467
-0.86853 -1.11914 4.30284
0.232517 3.96356 2.39772
2.6255 2.07934 3.07076
-1.41423 -0.327367 4.26894
1.85303 1.37849 3.54105
4.30156 0.508152 3.83856
1.7614 2.91587 2.8027
1.79299 4.18844 2.36952
1.30569 3.60216 2.55875
0.431211 -0.144742 4.80823
1.48365 1.55078 3.45533
0.338736 0.835559 4.19288
1.5706 3.73889 2.60037
1.05943 -0.771105 4.93505
1.71068 4.18732 2.31008
0.73635 2.27302 2.9259
0.53262 2.94066 2.58074
3.85702 2.20394 3.185
0.811311 -0.498581 4.75811
-0.407416 1.57074 3.46357
1.22426 3.75223 2.53001
-0.474153 4.15048 2.16254
1.7284 3.01356 2.79727
2.48041 0.544172 4.04528
1.6438 -0.767596 4.50048
1.08169 3.80572 2.44039
2.67022 4.46359 2.53727
4.94581 0.570359 4.0918
0.0473363 2.38808 2.77047
2.80706 -0.693932 4.41969
1.29329 3.21443 2.65603
-1.06635 0.894855 3.6951
1.21254 1.7683 3.4188
-0.880341 1.91741 3.12454
1.91261 4.58146 2.32144
2.00361 0.99896 3.74976
0.768076 3.30456 2.56242
3.29379 -1.28736 4.77083
0.180423 3.77484 2.32724
-0.109209 0.452765 4.19657
2.73571 1.70578 3.24786
1.66172 2.66829 2.95931
1.50798 0.955746 3.88193
1.24791 3.91429 2.39504
1.17327 -0.997957 4.84551
-0.460121 3.26621 2.53695
0.132245 0.561056 4.02064
2.78185 2.49707 2.95329
3.04849 1.37539 3.43448
-0.0348277 3.38278 2.33819
0.517219 2.16109 2.88112
1.19134 4.13249 2.31186
-1.28354 -0.303557 4.08882
4.63072 0.661628 3.76546
-0.055289 2.864 2.56183
3.08592 1.27924 3.44471
-0.278762 3.55935 2.4007
-0.712354 2.12973 2.88481
-0.524943 3.99765 2.12227
-1.21211 -0.037957 4.12774
0.757497 2.79782 2.62676
-0.526107 2.41301 2.88162
1.80852 3.16038 2.72926
2.7762 -0.536705 4.25292
1.1202 4.24124 2.25926
2.69715 1.56482 3.35287
1.60352 3.70895 2.50889
-0.0460995 2.98298 2.57883
2.16625 2.24886 2.98156
-0.56841 3.69142 2.36122
0.769196 -0.854063 4.7187
3.34311 1.49474 3.52591
1.66811 0.23819 4.178
-0.846658 -1.4168 4.3704
2.06969 2.25785 2.99107
1.72254 1.4985 3.35923
-0.667139 3.00767 2.58024
-0.379427 3.56338 2.40008
1.75305 4.211 2.32182
-0.398355 0.458907 4.13447
2.83155 -1.21801 4.53567
1.76165 2.99608 2.77288
-1.05421 1.55739 3.36852
1.14528 3.71404 2.49235
1.14251 2.20868 2.99688
2.66018 1.57762 3.37885
0.805946 4.3522 2.31624
0.457643 2.96518 2.50093
0.338793 0.0448816 4.43541
-0.589334 2.36023 2.81485
0.625912 -0.963943 4.75311
1.0085 3.75286 2.46281
3.39224 -0.0249473 4.09758
3.80456 1.0844 3.63982
1.22278 3.97846 2.37485
-0.198916 1.99882 2.99243
-1.32926 1.30843 3.39037
1.51564 2.784 2.84904
0.92225 3.40975 2.53343
2.80036 1.04086 3.64935
0.496944 4.0918 2.3713
1.04227 -1.66998 4.65776
0.61335 1.94217 3.1218
2.66904 0.620108 3.83055
-0.679843 2.67387 2.70973
2.71341 -0.686392 4.37171
0.0996867 3.31129 2.4839
-0.704245 -0.878204 4.12185
-0.860658 2.8943 2.65007
2.35831 0.400866 3.92596
-0.747808 2.14209 2.90052
4.10684 -0.447059 4.01293
1.80253 1.40771 3.58593
1.55796 4.10833 2.36969
0.577485 -0.877422 4.82556
-0.235157 3.45033 2.45067
3.35143 0.471148 3.9703
-0.683847 2.79581 2.64711
1.97777 2.05202 3.12884
-0.120323 3.99271 2.1874
2.22933 1.21868 3.50817
4.29499 -0.31723 4.03732
-0.743122 2.8024 2.65253
1.7739 3.59617 2.6309
-0.319539 3.55215 2.45649
0.745199 1.33642 3.58508
0.309071 4.14626 2.40332
-0.478075 2.09292 2.98925
4.68871 0.226188 3.7641
1.37742 -0.00179367 4.60642
0.247428 2.6191 2.61003
0.526021 3.24446 2.38761
0.607578 4.12582 2.34905
3.19128 1.03544 3.43315
1.86549 4.89599 2.33381
0.715941 2.05157 3.17429
2.3196 2.1069 3.08477
0.715401 1.42123 3.47491
0.14158 -0.410818 4.56807
2.05283 2.90848 2.80273
0.836278 4.15147 2.32012
-0.404822 3.52976 2.43664
2.63944 -0.387146 4.19544
-0.394099 1.01091 3.6702
1.00609 3.87701 2.486
0.208117 1.83139 3.22542
4.46199 -0.264641 4.1454
1.08323 2.49436 2.85667
0.369835 3.13214 2.46946
2.17986 3.98992 2.53333
0.233441 1.71048 3.20393
1.96376 4.45075 2.3259
1.26539 0.86011 3.98492
-0.780787 0.376843 3.83857
-0.59232 3.11037 2.48755
-0.761718 -1.05798 4.31561
1.53947 2.47904 2.97426
2.18649 3.46169 2.68314
2.29775 0.047093 4.22349
-0.284589 2.62341 2.67906
-0.517684 1.95667 3.04452
3.3622 2.09225 3.24148
2.56163 1.02503 3.58015
0.835783 4.01303 2.44674
3.95726 -1.53654 4.34665
-0.29585 0.336277 4.29331
1.14831 2.62146 2.88186
2.82746 1.78292 3.22552
-0.291677 3.26498 2.48879
-0.292865 1.0928 3.64133
0.667602 4.06751 2.4138
-0.464569 2.60426 2.76653
3.92621 -0.63946 3.90838
2.34145 3.40608 2.70681
2.04767 -0.708467 4.99775
0.632574 1.09736 3.85962
2.18307 0.706541 4.08732
2.40706 1.85262 3.3137
-1.03883 -0.417775 4.21638
-0.493558 3.23229 2.51413
1.44412 3.94875 2.48716
0.751616 2.49032 2.82938
-0.185713 3.81403 2.28234
-0.501102 1.82101 3.14897
2.00977 4.23321 2.39581
3.67042 0.772938 3.70374
0.910337 4.61309 2.30533
2.28237 0.419843 4.04994
1.28658 3.40074 2.60251
4.57084 -1.05874 4.80964
3.36438 2.7315 2.99832
3.98546 -0.743066 3.91194
0.861148 4.08501 2.43153
0.0395444 -0.818103 4.72031
0.331532 1.96788 3.14734
2.81439 0.505476 3.98602
2.31893 1.01816 3.52588
0.111343 1.62328 3.41276
1.27555 4.21745 2.31042
-0.596059 0.0569576 4.17395
1.63754 2.38112 3.11487
-0.55599 3.62861 2.44204
1.35064 3.04362 2.71225
-0.927217 2.23958 2.898
-0.314973 3.65942 2.40086
-2.38571 2.69493 6.39351
0.377001 4.20625 2.21947
0.547421 2.83612 2.57098
1.87887 3.26047 2.72884
1.54558 -0.319945 4.67138
0.922957 2.39244 2.82979
0.924036 3.7493 2.45247
-0.00392706 1.7684 3.28815
0.892674 -0.849414 4.75542
1.16802 0.840378 3.86961
3.98097 -0.320072 4.17163
0.975868 1.68102 3.39754
1.5995 2.38582 2.98966
0.947333 3.8604 2.47058
-0.289805 3.06256 2.55544
-0.772598 1.32116 3.36115
-0.863534 3.88182 2.20924
2.39037 2.0559 3.19301
2.09755 4.79466 2.41279
-0.257102 2.77975 2.6676
3.20344 -1.62497 4.30722
-0.058965 3.41576 2.43953
2.46731 4.30053 2.52408
4.02345 1.10654 3.77866
0.162081 2.04206 3.11735
-1.24113 -0.110855 4.28722
1.38282 2.72044 2.79704
3.48408 -1.49609 4.14246
1.16269 3.44636 2.57844
2.93177 3.02091 2.86567
1.94502 -0.357343 4.61876
1.35509 2.23968 3.07604
0.41419 4.18585 2.33261
1.75028 1.46881 3.5366
0.481302 3.51455 2.47122
1.76041 -0.214147 4.30303
-0.274327 2.84527 2.64716
-1.12453 2.34372 3.18087
-0.251476 4.14889 2.23295
0.755077 1.38269 3.44483
0.869632 3.63726 2.51213
-0.281762 0.438752 4.2782
-0.830268 2.61602 2.77141
-1.29402 -1.06169 4.20621
0.939335 3.30281 2.58269
0.211766 1.12885 3.93535
-0.574431 3.72368 2.27651
0.0575436 1.8855 3.16637
3.4898 0.276714 3.72503
0.289357 2.42804 2.74487
3.96176 -1.0952 4.7978
0.82148 3.21371 2.56426
-0.238356 0.979854 3.66557
2.09078 4.05129 2.52621
-0.37152 1.81807 3.17424
4.21274 2.12805 3.34107
2.56757 1.85897 3.18861
1.68316 4.46662 2.29612
1.73707 1.10129 3.70147
2.38964 0.0238612 4.22968
1.33407 3.35011 2.57012
0.203534 2.55203 2.64245
-1.56177 -0.585422 4.18002
1.13554 4.06251 2.43926
1.83526 0.195738 4.10143
2.23443 0.98506 3.87711
0.83631 4.54643 2.30107
-0.153525 1.83699 3.0652
1.23955 3.87823 2.44179
2.52166 2.62137 2.96834
0.886457 3.30884 2.59248
2.54149 1.72193 3.29926
1.8276 4.02034 2.49771
4.04991 0.747913 3.74525
4.13995 -1.24079 4.42548
-0.177488 3.14296 2.46621
-0.957393 -0.469247 4.36566
0.153696 2.47804 2.79678
-0.488197 -0.736838 4.37116
0.684164 3.4015 2.52661
3.89286 0.392423 3.84234
-0.441149 2.71421 2.69667
-0.638625 2.01279 3.00033
1.08002 3.98195 2.38691
3.34885 1.0536 3.53481
-0.491702 -0.718514 4.59238
0.886482 1.17616 3.76966
2.94645 0.599654 3.90884
1.5541 1.87707 3.13488
2.73534 2.72092 2.97388
-0.671557 0.32291 3.94506
0.503942 3.28823 2.49628
2.53244 4.31111 2.58545
1.69299 -1.57774 4.69719
1.8447 2.38709 3.02964
0.521779 2.98462 2.53906
1.55959 3.82766 2.60608
0.59471 4.31533 2.30288
4.04025 -0.220331 3.9708
1.6591 0.0799363 4.36073
1.9467 2.26705 3.0179
1.74197 1.6143 3.38006
2.27249 3.03441 2.75175
-0.276728 1.60567 3.38085
-0.633566 3.72086 2.39291
0.293345 -1.01719 4.59607
0.945733 1.74943 3.35682
1.01561 0.862269 4.00309
1.9902 3.23731 2.72902
-0.661113 -0.305352 4.40139
-0.180072 2.47111 2.88805
2.43572 4.92889 2.52194
0.396696 3.78932 2.41197
1.42224 -0.188126 4.28478
3.34041 -0.98542 4.33001
0.342952 4.16871 2.20887
1.69263 1.60776 3.3632
0.889654 3.64493 2.45219
0.481985 2.29921 2.84745
0.91513 3.0265 2.60381
2.09953 3.83607 2.56706
4.07942 1.47267 3.61096
0.360265 -0.54536 4.59395
2.92265 0.360995 4.03918
1.61087 3.05683 2.74202
2.24465 2.23479 3.0037
0.348767 0.321434 4.36602
0.731679 3.18178 2.54101
-0.637022 2.47745 2.74318
-0.79991 3.87077 2.43076
2.11338 1.74784 3.30382
0.631017 -1.49251 4.72158
3.91396 0.745089 3.70176
2.80019 -1.19749 4.17718
-0.0764007 0.918106 3.97751
-0.380149 0.349812 4.19671
0.891776 1.74431 3.35041
-0.580854 2.3563 2.71899
4.19248 -1.31813 4.37646
1.74357 3.21708 2.69962
-0.726272 2.85024 2.63149
2.03306 3.93298 2.51045
-0.182869 3.44332 2.39265
1.09321 4.75797 2.29603
-1.12732 -0.465491 4.38967
-0.330923 1.44493 3.44368
0.888604 4.13118 2.3726
2.26183 2.08534 3.06751
-0.759825 -0.297382 4.64653
-0.717371 3.46309 2.4466
-0.34046 2.75702 2.6402
1.03012 2.1071 3.17023
0.387622 1.35681 3.63504
0.197471 4.18065 2.32032
0.565964 2.14395 2.88664
3.47458 1.35107 3.4829
3.51333 0.41429 3.81731
1.83455 3.00655 2.80382
-0.538581 -0.718274 4.31094
0.188291 4.14821 2.24152
-0.221388 3.52 2.39001
3.17406 -0.7446 4.41889
1.58315 0.732973 4.13319
1.6972 2.16068 3.13489
3.7974 1.2203 3.46408
1.37607 0.102022 4.27119
1.49252 3.60554 2.57347
-0.121467 3.94631 2.22374
1.68056 2.91847 2.8195
4.13101 -0.2304 3.95077
0.165221 2.08431 3.061
-0.0133712 4.06473 2.24452
-0.0425597 1.35868 3.57487
1.59785 3.57868 2.62578
0.495319 2.68523 2.61433
3.80112 1.53863 3.73015
0.687605 -0.156665 4.68684
1.41841 3.03711 2.72028
1.91893 3.69658 2.59127
0.0297586 4.01806 2.16534
1.29552 2.28834 3.01424
1.47051 1.47454 3.5311
2.55974 -0.136312 4.07789
2.23612 2.16342 3.03739
-0.24365 4.21905 2.22795
1.17895 2.9201 2.6878
-0.141547 3.63964 2.41236
2.23765 2.66137 2.87551
1.75348 3.44279 2.66778
0.455847 1.21588 3.82124
1.57497 -1.00186 4.64169
1.26519 2.00333 3.32128
1.77424 0.42103 4.0053
-0.889279 3.31847 2.5252
1.29001 3.91014 2.40666
3.873 1.77947 3.36181
1.27207 2.5869 2.86174
3.29248 -0.887124 4.58769
3.36802 1.88357 3.46807
3.73418 0.382895 3.78259
1.23896 1.01186 3.76757
0.808406 4.04124 2.42
-1.61027 -0.31248 4.29843
0.599133 4.3421 2.55188
-1.0839 0.205697 4.07711
-0.918416 4.33503 2.14119
1.554 2.77053 2.86289
0.457548 3.29915 2.4442
4.34869 0.152797 3.92783
1.38669 1.21503 3.67282
3.25198 -1.25404 4.21607
1.90107 2.0393 3.26549
0.816766 2.87148 2.62356
1.32981 4.13155 2.32476
-0.615607 0.189531 4.23826
2.08318 2.14898 3.0053
4.93863 1.6146 4.19264
-0.789654 1.45384 3.38589
1.45969 2.16358 3.11416
0.610243 2.76023 2.59756
0.927608 4.26205 2.33024
0.567643 3.56918 2.51315
-1.66158 0.190927 4.60215
0.329309 2.31775 2.83387
0.396672 3.58059 2.45272
-0.145111 2.93801 2.45035
2.42514 1.54874 3.31568
1.48377 3.77817 2.56418
1.33477 4.30518 2.31498
-0.40906 3.05351 2.64229
-0.170787 2.31744 2.92515
4.17089 -0.208349 4.05132
1.22714 3.78775 2.49656
2.28988 1.46417 3.37411
0.439052 -1.08204 4.66655
1.00488 0.627554 4.09233
-0.154635 1.92356 3.04399
-0.654077 -0.646658 4.00338
2.40642 1.02735 3.58227
0.197352 3.24567 2.43927
0.0449608 2.58122 2.66043
-1.24115 -0.748132 4.88449
4.29976 -0.271679 3.9524
0.0397365 0.822013 4.07094
0.633865 4.19368 2.5082
-1.23564 0.932727 3.47936
1.25416 1.30072 3.58705
0.262029 4.0997 2.37702
1.38218 2.07162 3.11959
4.09457 -1.2346 4.42825
2.12837 2.79829 2.79928
0.279195 0.446386 4.2189
-0.35162 3.43104 2.43537
2.50169 1.99546 3.2354
2.03173 0.430277 4.11288
0.56487 1.27762 3.69858
-0.783132 -0.835352 4.00047
1.06282 3.40351 2.53667
-0.281341 4.05314 2.28253
1.82209 2.72193 2.81315
4.24579 -0.356574 3.92346
-0.68706 3.81424 2.219
-0.361514 3.32127 2.42127
-1.51685 -0.42121 4.28467
-0.835944 2.68947 2.63917
2.56086 -0.392778 4.54702
1.95945 1.97647 3.16215
-0.402489 1.28842 3.56298
3.0518 1.07606 3.84482
2.86858 1.79683 3.11152
-0.495105 2.64422 2.69896
4.6418 0.27998 3.76603
4.6514 -0.379605 4.50544
-0.308808 3.27289 2.44643
-0.100078 3.91773 2.24564
0.0432808 2.71779 2.52597
0.127114 -0.638806 5.05008
1.86257 3.63715 2.60889
2.00174 1.33835 3.50207
-0.324877 3.90431 2.19097
1.24568 2.16134 3.0976
1.0628 3.47078 2.51945
1.38452 4.77646 2.29729
2.05129 2.81721 2.81451
1.76493 2.14048 3.26276
1.1084 1.28668 3.52706
1.0187 4.20289 2.35941
3.8687 0.0476759 3.8628
-0.710995 1.76184 3.20254
-0.174073 3.12565 2.53379
2.35745 2.4206 2.97559
-0.27615 -1.20025 4.54172
1.55268 3.85579 2.4978
1.93805 0.313981 4.08157
1.24767 -1.56265 4.77499
1.46415 0.830238 3.96492
1.12622 1.05553 3.81444
1.87211 4.66006 2.32152
2.2062 1.79962 3.22339
-0.325631 3.76422 2.30885
0.933935 2.52487 2.76346
1.80491 -0.0612442 4.33454
-0.782606 0.179 4.06141
2.61256 1.69876 3.25031
0.531645 3.1718 2.45338
3.76913 0.745053 3.64587
0.113703 3.91009 2.36108
2.00351 3.3378 2.71478
1.03079 4.6326 2.29293
1.28147 2.48771 2.87775
1.11589 3.23534 2.5959
0.452199 0.994439 3.85787
0.908075 3.82264 2.44926
0.00995861 1.78112 3.1478
1.63187 -1.54817 4.67327
0.6176 0.676014 4.20665
0.364868 2.43903 2.76345
-1.10518 -0.697864 4.29822
-0.542884 0.872353 3.76271
3.26151 1.6281 3.36796
4.73709 0.668685 4.23444
0.478443 2.39557 2.83165
3.79507 -0.715912 4.30107
1.79902 3.23988 2.71922
-1.57233 -0.950426 4.54831
1.71139 2.72285 2.90965
0.519248 0.526762 4.1165
3.2725 3.51921 2.77774
2.00306 1.10044 3.7368
-0.478973 3.74228 2.29039
2.74613 1.86901 3.21824
-0.365353 3.80487 2.28094
-0.548077 3.20158 2.43308
-1.30956 0.797455 3.74778
1.79324 4.41277 2.306
-0.776506 2.61688 2.77248
1.86644 1.90721 3.37026
3.93088 0.838585 3.67969
-0.744957 3.88953 2.26586
2.77628 -0.287491 4.22111
5.12597 -0.762016 4.2326
0.217054 3.59576 2.4548
0.695268 4.21671 2.29322
1.76797 -0.0473694 4.57329
0.0997403 2.78792 2.50912
2.15677 1.43872 3.51083
1.46039 2.2554 3.10495
1.73208 4.21565 2.28041
0.370998 1.66635 3.31124
-0.1108 3.62802 2.40201
-0.210975 -0.551268 4.69725
1.54097 3.12919 2.7
2.62888 2.32959 3.00047
0.378806 -0.702302 4.60973
2.16356 1.52115 3.47411
-0.75329 2.92444 2.50813
0.753946 3.67956 2.40508
1.81227 2.28573 3.02246
2.30844 -0.376902 4.40674
0.994679 1.5594 3.43836
1.20715 3.64494 2.52758
0.61259 4.22308 2.29612
2.94398 0.129028 4.0584
-0.394533 2.23391 2.81205
1.06125 2.97775 2.64233
2.0231 1.41572 3.44479
1.5651 3.68142 2.50242
1.38727 2.23818 3.0758
0.926638 0.412357 4.29528
0.639099 4.2986 2.29466
-0.211298 -1.29231 4.64026
-0.424249 2.87149 2.56375
-0.787486 3.20903 2.58454
-1.08304 0.053524 4.07743
0.367136 2.38646 2.8167
1.61676 1.68376 3.30673
-0.0676594 3.67954 2.37372
3.59911 0.667387 3.82318
0.329 2.97775 2.51652
0.226574 -0.790083 4.54418
-1.00952 2.38359 2.83903
-0.442854 1.65908 3.22149
0.630966 -0.406509 4.70214
0.582529 3.83415 2.45034
3.38429 0.554525 3.80476
3.50076 -0.794701 4.69842
-0.251345 3.95838 2.26952
4.69774 0.159081 3.95199
2.58767 2.72179 2.8609
-0.539715 -0.52291 4.54116
1.23587 3.42879 2.56753
4.43753 1.07167 3.71383
0.66589 2.00572 3.10622
-0.535227 2.16283 2.95799
0.874142 1.40569 3.50398
-0.44178 3.95541 2.21725
0.679495 3.42783 2.41275
2.36452 -1.02755 4.77519
0.418203 2.78294 2.61666
-0.802155 0.480205 3.91875
2.81761 5.30675 2.54419
0.954071 2.13513 3.19683
0.88677 4.18395 2.34192
-0.111457 1.33555 3.49326
0.878 -0.940648 5.01449
0.185171 3.38343 2.42326
-0.538459 0.662611 3.92075
0.555062 2.70262 2.62664
-0.485483 2.8161 2.56327
0.962394 0.0495528 4.43674
0.842563 2.16898 3.03995
-0.717391 3.95447 2.1901
2.73514 1.33643 3.49679
-0.830202 1.34453 3.33567
1.10199 4.66394 2.29178
2.64105 2.05911 3.15292
0.37066 2.70421 2.5863
1.42284 0.182605 4.30746
2.15046 3.6247 2.65908
-0.63344 3.55155 2.42927
2.47587 2.29483 3.0434
1.90465 4.22538 2.37667
1.94581 3.05478 2.71532
-1.38683 -0.174275 4.07511
1.81265 1.53571 3.40261
-0.607123 4.00716 2.11604
-0.413481 3.58995 2.41097
1.45908 2.99589 2.73319
2.60524 2.21704 3.07642
0.834878 3.67087 2.44526
0.526873 1.51042 3.40836
-0.646965 4.07761 2.11398
1.11978 0.560898 4.12619
0.981001 -0.980467 4.77202
-0.739777 2.6751 2.80061
3.82027 -0.839149 4.22432
-0.859531 3.37068 2.53165
-0.285472 0.711491 4.00846
1.29878 3.9609 2.40862
1.3857 1.06197 3.75576
4.10111 -1.19106 4.30042
1.98497 1.91962 3.33383
4.54753 -0.338958 4.08754
1.32162 1.23931 3.63014
-0.558034 3.87855 2.23904
0.219695 2.04865 3.08503
-0.645975 -1.38417 4.33367
4.77408 0.0699024 4.12762
0.470519 2.62338 2.60002
2.54125 3.56855 2.69578
4.12283 0.217798 3.99405
-0.871246 1.20016 3.46552
3.12757 -1.07475 4.028
1.78356 2.01708 3.31902
-0.0615647 3.29554 2.44858
0.850127 2.63734 2.73366
0.605124 4.10094 2.36994
1.79884 4.7946 2.31973
-1.10227 1.15421 3.39836
1.39251 1.968 3.21155
-0.156811 3.88142 2.30723
-1.17038 -0.378236 4.43223
-0.742282 2.57856 2.58677
-0.407725 3.28557 2.42376
1.50434 4.49704 2.29499
-0.873672 1.07157 3.47286
-0.776135 3.76298 2.16438
3.3164 1.85346 3.35162
4.79218 0.302222 3.935
2.19308 -0.327 4.33387
-0.407866 2.6088 2.74936
2.08852 3.45505 2.72016
0.145132 -0.767028 5.21452
0.856166 2.72344 2.63906
0.520163 3.44381 2.47137
2.4873 2.06909 3.15507
1.4805 4.74354 2.30116
-0.942775 1.34117 3.32175
-0.027517 4.01005 2.29106
3.94294 0.0930643 3.8119
-0.415073 3.35992 2.42803
-0.305253 2.71752 2.65984
3.65344 2.01227 3.30715
1.36309 4.07638 2.33384
0.805017 1.27887 3.65357
3.11101 0.0378916 4.03022
0.0591355 3.68067 2.35482
0.191186 -1.25037 4.58012
3.0838 0.16595 4.13811
-0.260845 2.41129 2.88548
