ply
format ascii 1.0
element vertex 1926
property float x
property float y
property float z
end_header
-0.795454 3.90271 2.12057
-0.234914 0.181127 4.32763
1.55522 3.59679 2.6457
-0.345254 2.86174 2.68092
4.10184 -0.732255 3.90976
-0.577177 2.997 2.53089
-0.257621 -0.0127598 4.29839
0.98054 2.29678 2.90034
0.907786 3.63085 2.50967
3.28974 1.48511 3.43096
0.234015 4.18383 2.28081
-0.85377 4.11667 2.15562
0.768498 1.59357 3.39585
-0.701892 2.24944 2.79933
0.51837 0.146655 4.43167
-0.185797 4.19165 2.22384
-0.373165 4.2929 2.24883
0.1643 3.66449 2.43857
2.14762 2.99629 2.78727
0.918501 2.6432 2.7304
-0.551231 3.30304 2.44317
3.37158 -0.922804 4.5631
4.19623 0.971422 3.68405
1.95014 0.622332 4.09114
3.28897 1.87976 3.24727
0.813227 4.01034 2.46275
0.278387 0.786885 4.1491
2.15044 2.63045 2.92051
2.8231 -0.734832 4.22331
3.4231 0.874091 3.51069
0.2941 3.18834 2.45554
0.794755 1.89902 3.09475
1.48821 4.01982 2.44383
1.92015 4.66368 2.38977
0.572224 2.00227 2.96362
4.48905 0.0513342 3.85069
3.13192 1.14206 3.57001
-0.883014 0.281672 3.88181
2.14396 3.53803 2.69759
-1.16784 -1.38389 4.7925
0.384834 2.66438 2.61399
0.145281 4.10348 2.39618
2.26107 -1.06732 4.64166
1.42667 4.76782 2.35447
3.76268 0.220502 3.80542
2.7025 0.528969 4.11062
1.67731 2.44958 2.91336
2.83729 -0.900513 4.376
0.284544 3.1707 2.58423
4.41016 0.699697 3.73689
1.81371 3.83038 2.56966
2.98013 1.56121 3.21316
0.571699 0.860302 4.15296
0.927136 2.33522 2.83535
-0.351314 -0.791539 4.60727
1.5657 3.17057 2.73191
0.996183 0.881403 3.96012
1.84187 3.91943 2.57689
1.57175 1.69505 3.39522
0.74143 -1.10887 4.76058
3.12299 1.76336 3.3581
1.23581 4.42204 2.32074
3.18507 0.871714 3.8192
-1.37366 2.73421 2.74115
-1.0303 4.31921 2.17855
-0.319735 -1.35611 4.38201
2.1578 2.52216 2.93619
1.25103 0.419499 4.19743
-0.762963 3.14022 2.4141
1.38408 4.49749 2.33894
0.187432 3.84517 2.3861
3.71308 -1.07629 4.17537
4.1357 0.231987 3.98208
2.82969 1.34664 3.48862
1.31183 2.22706 3.12396
1.82537 4.08244 2.39775
-0.637623 2.90664 2.63403
-1.03466 4.2067 2.1904
1.86516 1.33963 3.54749
-0.780679 3.46677 2.37619
-0.355962 2.11768 2.89791
3.95032 -0.371678 3.99045
1.87036 2.82302 2.80706
-0.698771 3.88431 2.1154
2.06719 3.5714 2.6658
3.88435 -0.294418 3.9766
4.02259 -0.6439 4.13518
0.641541 2.98378 2.59808
0.824335 2.2952 2.90341
0.972763 4.20829 2.33304
2.05547 1.58044 3.44001
1.98176 3.72803 2.64903
0.35062 4.6338 2.30813
-0.36079 2.9412 2.58005
1.36169 -0.3789 4.67127
-0.122398 4.20711 2.13906
-0.603439 2.25522 2.81615
-0.0455806 4.09003 2.16603
-0.765087 1.62804 3.23738
1.33304 3.74512 2.55626
-1.50683 1.84686 3.2322
-0.509647 2.91931 2.55247
3.71094 1.32513 3.41951
0.082414 3.49107 2.4465
2.51911 2.18071 3.04029
3.81892 0.0121891 3.99017
-0.33439 4.0557 2.24396
4.07138 0.108846 3.87578
-0.826643 2.66682 2.44693
-0.962536 -1.31885 4.42154
-0.761164 4.1801 2.1466
2.64868 1.29988 3.35928
1.85441 3.7011 2.6177
0.353199 2.20404 2.97918
3.62234 1.52525 3.59326
-0.094334 4.04107 2.20129
0.352296 2.9329 2.54015
-0.0520912 -0.030858 4.28023
0.923082 2.27931 2.8958
-0.242152 4.08925 2.16944
0.50356 3.68115 2.47897
3.44418 -0.0977802 4.1634
2.51851 5.29072 2.58018
2.97117 0.996453 3.50182
4.48479 -0.28312 4.1276
0.312095 4.12814 2.47919
1.0935 1.99769 3.1735
2.39468 2.66815 2.8867
2.23159 3.43221 2.69819
-0.813516 2.03922 3.13506
0.654606 4.05915 2.4416
1.99587 1.11932 3.78003
0.944276 3.31273 2.59846
3.57543 0.473996 3.79415
-0.621722 2.64707 2.74418
2.37981 -0.758439 4.48183
1.7851 3.56413 2.64143
4.09674 -1.16048 4.44936
1.12431 2.79545 2.72687
3.67064 0.206126 3.76524
-0.595185 2.08575 2.83915
4.5376 -1.11563 4.11837
0.562317 1.51806 3.65002
2.1808 4.27969 2.60779
2.82404 -0.976437 4.82813
0.19987 1.43344 3.67771
0.0236709 0.646368 4.06419
-0.448789 2.0449 2.93695
-0.483101 2.73401 2.64531
0.292385 3.36763 2.49664
1.02503 4.22371 2.45534
2.06109 4.92231 2.44615
-1.03582 4.14855 2.18952
1.6298 2.77677 2.84986
-0.96813 3.46254 2.50353
1.64831 4.67877 2.35626
-0.485571 1.39379 3.41534
0.340793 3.9674 2.37159
3.43355 -0.393152 3.97964
1.11167 -0.0463317 4.51885
-0.679179 2.09458 2.97513
0.990692 2.6555 2.76619
2.15313 3.4538 2.71426
1.00738 2.03119 3.21744
1.6168 4.01922 2.40679
1.52746 1.20037 3.64349
4.06525 -0.255898 4.00628
2.43414 -0.617122 4.38154
0.915297 4.14753 2.40796
-0.00271652 2.64692 2.50958
0.988553 3.47302 2.54399
1.33465 1.39762 3.55999
1.19271 -0.372361 4.66435
3.90486 1.93575 3.1201
-1.29798 -1.19616 4.22994
2.66118 0.775565 3.68435
1.71554 0.391239 4.31625
2.18258 1.77465 3.46579
1.63157 2.46185 2.92617
1.76721 3.81347 2.55971
-0.524768 3.18505 2.5445
1.77485 -1.59227 4.66164
0.77724 3.80222 2.4467
1.22339 1.7531 3.44409
4.1007 0.40914 3.7629
0.970102 0.911929 4.05447
0.89886 4.66914 2.34264
0.925199 3.08772 2.63609
3.03375 -0.851071 3.85887
0.594051 2.35681 2.83592
1.04976 3.93278 2.49112
3.41653 -0.0822371 4.22763
0.598647 3.29156 2.55941
2.0382 2.63279 2.93783
3.43888 1.828 3.36423
1.5207 4.40315 2.33587
-0.558447 1.29243 3.64434
4.64285 0.456227 3.54263
2.63819 0.884746 3.68085
3.53157 0.0188005 3.85038
2.75797 1.75183 3.29156
1.42001 2.56929 2.93615
2.96786 3.54851 2.98065
-0.105049 3.91585 2.37359
-0.100369 2.52311 2.75346
4.26979 -0.595775 4.14116
1.64618 3.29009 2.6777
4.45492 0.545997 3.55079
3.2336 -0.807915 4.17295
2.52363 0.872136 3.59658
-0.129557 0.759066 3.92869
1.68273 1.78009 3.18328
0.0578796 3.73159 2.37279
2.09171 3.24318 2.74289
1.23402 4.48389 2.32265
2.15392 -0.60956 4.31644
1.32095 2.45031 2.88437
1.78925 1.73441 3.33143
1.81425 3.94327 2.53613
2.56329 0.767885 3.62194
2.77688 -1.34133 4.54447
-0.309532 3.84185 2.31238
1.64957 0.460745 4.08158
-0.670903 0.00912105 4.18389
3.85996 -1.11832 4.30589
1.77691 2.62105 2.89972
-0.217468 3.20745 2.44934
-0.264641 0.618877 4.14987
3.45805 0.930199 3.71917
1.87729 -0.924566 4.76614
2.46734 1.81884 3.22931
-0.60647 3.92424 2.14833
-0.0607683 1.67287 3.44403
0.794298 -0.0271789 4.52457
-0.27915 2.2436 2.85321
-0.532137 3.5831 2.48667
2.23533 2.94118 2.75452
3.90166 0.0247927 3.84957
-0.953427 3.61934 2.43552
-0.0701079 2.22303 2.96519
-0.53434 4.06312 2.19819
2.44956 1.37669 3.48266
0.408524 4.68228 2.32433
2.47998 2.85602 2.79285
-0.241071 3.05079 2.52318
1.58996 -0.400448 4.63188
-0.760045 2.37504 2.74507
-0.45614 3.6471 2.40479
0.581926 1.70188 3.2386
-0.638046 4.07751 2.14685
3.66342 0.567227 3.79737
2.58291 5.28707 2.60952
2.74489 1.49194 3.39488
0.0508581 -0.20037 4.30929
-1.35397 2.34107 2.87724
5.01801 -0.617982 4.27139
0.594686 2.27514 2.85783
0.236219 3.70801 2.41519
-0.76763 2.97502 2.51817
0.668391 1.8569 3.15971
-0.397812 -0.628777 4.57342
0.00926338 1.21967 3.93995
2.11827 3.39144 2.78748
-0.362162 2.49799 2.68938
1.97872 4.29092 2.39669
-0.535532 -0.385799 4.68657
0.536277 3.9482 2.47745
0.649295 1.30041 3.67912
3.69036 -0.847089 4.23572
2.17578 4.0918 2.58693
3.28143 1.79445 3.1198
2.88038 -0.998979 5.09979
-0.55017 2.64389 2.64098
4.77777 0.382097 4.09112
-0.892608 3.36749 2.48259
2.56961 0.569384 3.73733
0.476838 1.95153 3.15785
3.55788 -0.787133 4.39101
0.0940508 1.25659 3.6906
2.2341 3.38011 2.71489
-0.0257543 2.56574 2.68772
-0.711028 3.83545 2.23885
4.03671 -0.804258 4.07795
0.977187 3.01041 2.64355
1.11999 -1.47751 4.32931
0.291828 2.2976 2.85567
0.813289 1.6531 3.33489
3.53833 -0.230702 3.95379
0.0132222 3.55101 2.41902
1.34938 4.18765 2.33214
4.01735 1.35059 3.52763
0.816595 2.21592 2.90893
-0.412692 4.41244 2.25613
0.97028 4.27765 2.31623
3.73903 -0.114034 4.07808
0.305802 2.86996 2.55055
1.85339 3.75298 2.57906
-0.103089 2.44741 2.76239
3.38103 -0.601957 4.084
-0.601807 3.11847 2.47753
0.571714 3.77806 2.47959
2.27882 0.872587 3.7885
-0.222417 4.52902 2.19145
2.87664 1.60662 3.25927
1.01061 2.38806 2.91207
-1.1102 4.06188 2.19084
1.68856 3.24772 2.81761
2.70386 -0.292573 4.3019
0.785742 0.901533 3.88644
1.8655 1.67815 3.39305
0.253841 3.80129 2.42219
-1.26077 0.421049 3.83797
1.41286 4.5827 2.34216
-0.621301 -1.09413 4.77999
-0.357102 4.35219 2.24925
1.75259 3.77742 2.59639
0.203271 4.27268 2.28225
4.03782 -1.00684 4.88073
2.37448 2.29981 3.05069
3.41875 0.411698 3.97579
0.698045 3.0049 2.62184
-0.680646 1.73523 3.27567
0.145852 1.79135 3.16681
0.541668 -1.39672 4.67053
-0.634014 0.903012 3.63934
-0.471081 2.41904 2.70025
0.480474 3.755 2.45824
1.14457 3.14475 2.60719
0.214556 0.251436 4.38448
3.67335 1.51391 3.38344
4.03764 0.12901 3.96014
-0.136931 0.873787 3.85665
-0.642069 -1.22285 4.27316
0.725792 3.07487 2.60128
-0.602136 3.71663 2.33153
-0.0242951 2.39012 2.82124
1.73736 4.49886 2.35066
-0.504815 3.87169 2.22851
1.3138 3.54656 2.6008
-1.02942 3.68042 2.38613
-0.575238 2.75493 2.56545
-1.10054 2.02273 2.70398
1.61976 2.12585 3.13151
0.728684 4.74437 2.34842
4.01186 -0.627378 4.0455
0.900049 1.31264 3.49716
3.01249 1.24376 3.55849
1.84074 2.10473 3.27228
-1.02324 4.3586 2.15714
0.672709 2.68993 2.66959
3.1632 -0.504641 4.21896
1.70835 3.5406 2.68715
0.401928 4.07212 2.33523
2.24844 -0.810437 4.90968
1.73888 0.703471 3.90966
0.174073 2.83812 2.51899
3.90775 0.282356 3.76787
3.06567 1.47444 3.60258
-0.728151 3.87277 2.10479
0.378665 2.29495 2.96627
0.00429502 3.48549 2.43137
0.476812 4.44714 2.28503
0.599771 2.79135 2.59682
0.285237 2.21451 2.98812
-0.742241 3.56911 2.39742
3.69888 1.28739 3.53419
-0.252522 4.09087 2.2234
3.05439 -0.0358491 4.1183
4.20843 0.219273 3.81663
-0.314016 4.04066 2.2892
2.48138 2.80045 2.82887
-0.64788 0.294973 4.04336
-0.513692 3.51033 2.49555
1.08287 1.41079 3.50543
0.510052 2.0727 2.94082
-0.132008 2.34071 2.97076
0.884512 4.25815 2.40925
-0.315563 1.64171 3.33508
-0.0371663 3.42064 2.37994
-0.00151684 2.85299 2.5148
0.861144 -0.196679 4.61936
-1.16311 3.25078 2.44783
2.50963 -0.111327 4.16057
-0.245332 2.24173 2.9728
-0.518153 4.18401 2.26797
3.34825 1.26384 3.41432
0.481769 3.63462 2.50247
-0.426465 2.82592 2.56192
-0.010286 3.82992 2.37205
1.99589 3.42867 2.74756
1.26911 4.57502 2.33075
-0.120979 2.60195 2.72285
0.00864489 1.94808 3.08993
6.04612 0.262256 4.8376
4.12859 0.857225 3.64555
-0.822285 -0.910058 3.99847
0.481428 4.26621 2.0912
3.64196 0.770017 3.63929
-0.0299059 1.84164 3.03945
3.40499 0.436206 4.04949
1.94401 2.56923 2.96859
3.10457 -0.913088 4.41522
1.35655 3.28125 2.65156
3.9242 -1.38511 4.37746
3.30752 2.72774 2.91009
3.81508 0.118898 3.91005
-0.152276 3.36507 2.4596
1.17631 3.9509 2.44974
-0.642739 1.38561 3.36094
1.46663 4.05613 2.47129
1.51158 2.04493 3.13885
0.382389 3.26163 2.47937
3.637 -0.916866 4.22946
3.35235 2.60799 2.89911
4.13016 -0.718735 4.09623
2.44588 1.92598 3.21914
-0.689493 3.82451 2.18822
2.43181 5.1497 2.56316
-0.4669 1.33644 3.54511
2.01278 -0.429421 4.57676
0.177877 4.06623 2.48107
3.49571 -0.792019 4.1975
-0.504866 2.57159 2.66946
-1.25007 -0.283811 4.11158
1.24737 3.38074 2.67423
3.14917 0.936056 3.63513
-0.588858 1.97584 3.06924
0.408408 2.04293 3.01379
2.13454 4.22787 2.4996
0.507434 1.39874 3.61946
1.00458 4.01401 2.42445
-0.386449 3.37104 2.45526
-0.274332 -0.8558 4.99935
1.2271 2.71636 2.74564
1.54793 0.782198 4.11012
1.34389 1.99709 3.18904
3.47717 0.969171 3.54274
-0.794107 3.82104 2.18818
0.421439 -0.674714 4.7872
-0.686597 3.32878 2.45892
2.58766 2.66836 2.90528
0.566785 3.75361 2.53213
-1.09308 0.768024 3.77132
0.0333766 4.18234 2.22639
1.62122 1.6593 3.33478
4.21751 -0.385024 3.93614
1.78895 2.38306 2.9784
-0.926737 2.95773 2.51551
-0.130718 2.97553 2.46445
1.95533 3.82824 2.5748
3.52904 1.51858 3.54173
2.82356 4.79027 2.64171
0.888104 2.28833 2.90345
-0.828616 0.281069 4.15001
0.82884 2.97519 2.60865
-1.48151 1.80944 3.18985
-0.735253 3.14181 2.41945
1.26883 -0.00197178 4.56947
1.68538 2.59238 2.97729
-1.17873 1.85769 2.80992
3.15634 1.69318 3.2487
2.18909 3.94468 2.60759
3.26839 0.798816 3.61557
0.757161 3.14415 2.57785
1.16061 4.57439 2.32894
-0.524465 2.43753 2.71028
2.34115 0.0223223 4.12917
3.18899 1.63059 3.37077
-0.777228 0.910447 3.61305
-0.674775 3.72321 2.27197
3.8545 0.517667 3.87992
1.94203 4.4747 2.37734
4.33952 -0.762446 4.38093
4.50513 1.1529 3.51436
-0.862942 3.71154 2.30229
3.65188 1.70299 3.35208
2.84886 -0.572186 4.08354
1.05538 2.48194 2.86238
0.534404 3.05816 2.46118
1.38844 1.00606 3.81736
1.44699 1.83806 3.36125
3.02696 1.7764 3.15563
1.33016 4.58845 2.33902
2.11927 1.13053 3.7522
1.99935 -1.03469 4.76691
0.565536 3.25338 2.50517
3.5076 0.271706 3.80704
1.18884 2.60029 2.78153
1.23219 1.9046 3.27562
3.0165 0.529621 4.09858
4.52359 1.02627 4.0681
0.682538 -0.850816 4.50236
-0.148528 3.89814 2.39914
2.14655 3.35689 2.75007
-0.176133 2.58219 2.75951
1.31897 3.99647 2.46783
-0.654594 2.96116 2.57361
-0.659803 3.54774 2.42389
0.882254 2.22852 2.90514
-0.517952 4.11102 2.2533
0.223244 -0.15674 4.58265
-1.04234 -1.16737 4.14783
4.81306 0.402002 3.62382
2.21617 1.40412 3.25689
-0.232118 1.60736 3.36978
1.72625 2.17709 3.046
3.81612 0.436305 3.66771
0.331305 4.12656 2.24322
1.96812 -0.069315 4.1646
0.953211 3.63986 2.5048
-0.0314002 2.79644 2.5263
-0.716087 2.42354 2.75126
0.96901 3.12322 2.63017
3.69148 -0.412764 3.84058
4.99462 0.70543 4.34275
0.13065 4.28504 2.26625
-0.956951 1.85943 3.21914
0.249589 3.6581 2.42618
-0.652225 4.1977 2.16026
-0.478717 3.00224 2.52598
-1.38704 0.516481 3.28087
-0.633537 2.37973 2.82943
0.705175 3.73389 2.43972
-0.92727 1.76961 3.23593
2.86076 4.7564 2.55207
2.91449 0.285419 4.05321
-1.37548 3.65367 2.34143
4.63903 -1.39831 4.72443
0.548645 3.45304 2.35129
0.841256 4.23718 2.33169
-0.539118 -1.09236 4.80127
0.768637 2.24414 2.906
3.5105 0.293243 3.91982
1.91968 1.51379 3.41614
1.97427 2.98032 2.74726
-0.230643 4.13048 2.10404
3.79088 1.49405 3.28558
-0.273192 3.68997 2.42437
3.4966 0.61492 3.69046
0.18872 3.01544 2.48952
3.95141 -0.0825659 4.21137
2.3182 2.43507 3.05682
3.11474 1.46378 3.30487
1.13094 -1.56715 4.79268
1.78479 5.01984 2.39896
0.430708 3.8089 2.47677
1.91173 3.0332 2.70023
2.7922 0.156155 3.97139
-0.854304 2.33135 2.74594
-0.438911 1.48214 3.53417
-0.708848 3.40652 2.43543
1.30646 4.03133 2.43563
-0.535468 2.70251 2.57549
4.91002 -0.714791 4.06399
1.18465 0.788707 3.94301
2.75263 1.96061 3.12786
4.27328 -0.768036 4.56615
-1.14106 -0.409642 3.21806
-0.287941 1.38017 3.54783
2.46762 5.06483 2.56884
2.60934 1.93773 3.21518
2.31938 2.7282 2.90579
3.16782 -0.602117 4.05008
1.68689 3.47736 2.68623
3.21445 -0.797857 3.98684
-0.155791 2.84467 2.56096
2.05184 0.5937 3.95997
-0.0741742 3.99153 2.30439
-1.42722 0.6106 3.32998
3.71443 1.28495 3.4566
-0.897493 3.89419 2.16353
0.176596 2.27769 3.01381
1.94639 3.60335 2.65194
-1.10697 3.07186 2.45989
2.23994 2.89238 2.88117
-0.114917 2.15356 2.94094
1.87001 3.69623 2.65505
-0.84896 1.51184 3.29765
1.51712 4.14355 2.34714
-0.902155 -0.0826187 4.17757
1.94535 2.84691 2.81504
1.11183 3.54054 2.56396
0.841572 4.78309 2.3531
-1.66346 1.70861 4.45343
-0.770525 3.86914 2.19868
-0.639716 2.10021 2.81794
2.47893 0.0738691 4.12289
1.50451 2.81447 2.83757
2.31236 3.56663 2.71131
2.46548 1.18508 3.47994
1.31315 2.07388 3.12993
-0.155564 2.20374 2.88741
1.5383 4.08609 2.37294
3.13811 1.28459 3.34724
3.32415 -0.450329 4.06018
2.14391 2.98907 2.86464
-1.09397 2.55387 2.76272
1.109 4.1678 2.3461
1.76208 3.63912 2.60653
-0.162172 -0.141132 4.46272
-1.48777 1.00178 3.39118
1.56958 1.05946 3.77447
1.13597 3.85674 2.48751
1.02277 1.90114 3.24645
4.67407 0.0691037 4.0284
-0.214869 2.50852 2.67766
1.73406 3.3516 2.71783
-1.15121 4.1514 2.18467
3.59693 0.71346 3.67066
1.1467 3.89407 2.45255
-0.648647 1.90001 3.1766
4.28498 1.9666 3.44002
-0.416294 2.44156 2.70098
0.463201 0.528426 4.16577
1.30169 3.21658 2.64491
3.72433 -1.02584 4.29636
-0.5841 3.31503 2.43963
1.21665 2.69305 2.79027
1.56031 0.288984 4.19539
1.44679 1.98481 3.13694
0.819465 -1.78456 4.72027
-1.2066 1.28638 3.57022
2.89943 -1.30798 4.45075
-0.481385 3.20889 2.41269
2.10202 0.341611 3.95379
0.999637 2.59199 2.7552
1.15066 1.96411 3.21189
0.986698 3.95671 2.42744
0.352843 1.27125 3.72264
1.09387 3.98719 2.39997
-0.240446 2.60523 2.6817
4.61844 0.217677 3.71699
0.492387 3.21975 2.47954
3.08726 -0.613393 4.51891
4.3534 0.939815 3.80257
0.342681 3.91523 2.42983
0.672444 1.94206 3.11221
-0.673658 2.63754 2.78107
2.65506 -0.413897 4.54984
1.64047 4.52366 2.34745
1.56708 3.34346 2.69958
-0.0579664 1.2166 3.81638
0.851201 3.96958 2.44004
0.890838 1.84258 3.12412
-1.46542 -0.969235 4.17919
0.558508 1.97744 3.01625
2.62224 1.14619 3.68801
1.96223 3.50956 2.73235
2.84893 -0.837311 4.23794
0.424695 0.697722 4.23322
0.686119 2.63266 2.68227
5.01234 -0.807626 4.05729
-0.0754888 3.98373 2.3503
3.75381 -0.715652 4.04974
1.81006 0.719794 3.85556
-0.115078 3.58843 2.41953
1.81287 4.15196 2.31183
-0.234277 1.7436 3.28414
3.98293 0.207653 3.81395
2.43593 2.36456 3.0981
1.06537 3.03033 2.64291
1.70392 1.55652 3.47808
-0.426827 3.66141 2.39228
-0.720099 4.06287 2.11898
0.802481 0.161916 4.41998
0.468267 2.22281 2.85609
1.24992 2.9835 2.70301
0.228991 4.30304 2.16626
0.876399 3.1641 2.57386
-0.415262 -0.248709 4.43597
2.41633 2.42922 2.92394
2.83833 5.10936 2.55443
0.303016 1.81521 3.17228
-0.895728 3.77895 2.40375
2.83388 0.784999 3.61909
1.2223 3.13724 2.6608
-1.32183 0.0376477 3.27456
1.69493 2.39647 2.94936
-0.971005 -0.0344092 4.06438
0.293354 1.72314 3.15733
1.01549 4.45917 2.33177
3.48598 0.655905 3.83758
0.629525 3.85126 2.46453
-1.14121 1.49929 3.24553
0.948258 1.97348 3.17819
2.24869 4.2546 2.59257
3.56339 -0.462991 4.03954
-1.02469 1.11235 3.37903
1.70162 3.40705 2.68646
0.774 2.58709 2.72779
-0.402493 3.7869 2.31045
2.41442 1.8399 3.32889
3.55333 3.08573 2.89654
1.23639 1.13203 3.83285
0.442052 4.08589 2.4868
2.01061 3.3785 2.7497
0.750049 2.51577 2.7533
4.12593 1.13554 3.72955
-0.484036 0.757432 3.82127
2.0629 2.02098 3.13194
2.90049 -0.736632 4.50076
0.173887 2.65016 2.56014
1.51544 4.00394 2.4213
1.38316 3.5093 2.6141
4.57271 0.272976 3.71854
1.49506 4.08105 2.42105
4.36322 -0.678939 4.55511
1.29013 1.24337 3.53051
-1.91011 3.46029 5.44392
0.433402 2.58644 2.61377
4.12417 -0.249265 3.96972
0.562963 3.33124 2.50727
2.49532 2.35632 2.95639
0.144649 3.01321 2.482
-0.594439 4.26227 2.18637
3.25832 0.660883 3.73208
-0.26264 -0.68954 4.4528
0.22461 0.148948 4.39909
0.532687 1.76066 3.21421
0.346762 3.63877 2.40977
0.155898 2.93283 2.50045
-1.23096 0.0465526 3.27711
0.380758 2.30176 2.81539
0.140136 3.7326 2.40776
2.85299 1.4884 3.27919
1.77858 0.270566 4.11531
0.961391 -1.51806 4.78893
3.00523 2.29875 2.99765
0.563411 -0.170192 4.75328
0.480947 3.89114 2.4794
1.4199 4.51829 2.34019
3.00967 2.41403 2.95217
0.1673 3.08536 2.45595
1.40779 0.0155483 4.32401
-0.149205 1.10427 3.66675
0.991223 1.88108 3.32556
3.60643 1.57014 3.37516
2.93977 -0.860065 4.40974
2.83639 0.664396 3.60468
3.66739 0.457322 4.06782
-0.147272 -1.23236 4.64971
-0.565763 3.04332 2.46373
2.42684 2.36799 2.964
-0.55444 4.34953 2.23801
-0.804943 -0.553865 4.00237
1.38637 -1.46168 4.70636
3.03859 0.577248 3.78842
0.109318 3.71342 2.39491
-1.28273 0.572288 3.27993
0.760387 0.41897 4.21055
0.472469 1.17139 3.75492
-0.754196 -1.27467 4.48755
1.19325 1.92342 3.29266
0.690114 2.51486 2.74715
-0.175681 3.29269 2.55977
-0.0293363 3.79138 2.38791
1.72103 0.516768 4.10176
0.37766 3.85171 2.38687
-0.60566 -1.10536 5.02982
-0.958153 1.00696 3.63943
2.32326 1.72606 3.2906
2.97 2.41881 2.95516
0.0310405 3.15461 2.51425
2.06193 4.35423 2.43223
1.32724 4.44439 2.32924
0.466113 2.82894 2.58473
-1.12735 3.66961 2.39455
0.999981 -1.09335 3.90407
0.764347 2.19316 2.94369
3.03815 -0.428968 4.39495
1.18786 1.54726 3.51318
1.6899 4.12416 2.39407
1.00118 3.52723 2.54262
-0.677156 2.85257 2.63168
4.21921 0.309252 3.73722
1.41972 2.16251 3.09827
0.418469 4.17423 2.32188
2.11616 -0.228583 4.76168
3.66596 1.16282 3.38976
-0.0413029 2.30522 2.78556
0.741589 3.61512 2.54385
-0.0974252 2.99928 2.54493
-0.521737 3.63712 2.42992
4.1637 0.156161 3.61398
0.374494 4.17942 2.26986
3.36297 1.50677 3.42163
-0.737798 2.29241 2.82187
0.0697151 2.88761 2.53494
1.61863 1.55936 3.45284
0.0380105 3.61465 2.37813
3.7476 -0.632173 4.23763
-0.81561 2.15859 2.75981
0.0313902 0.288483 4.29754
0.149651 1.60033 3.4281
0.393099 2.81442 2.56874
3.82622 -1.32897 4.56997
1.17479 4.17185 2.34358
0.633008 0.433957 4.25357
-0.360172 3.54478 2.43137
3.6232 3.22176 2.87058
3.87163 -0.224334 3.87714
1.04698 4.20123 2.30858
2.4455 1.6179 3.47516
1.30723 3.71417 2.57364
-0.0702242 2.29374 2.7767
-0.449522 3.07691 2.59867
4.1871 0.0704761 3.7368
1.55003 3.75271 2.5508
-0.538583 0.176547 4.21441
3.68756 1.44506 3.59395
1.5966 4.22156 2.28421
-0.564803 4.39478 2.22977
1.93818 3.01283 2.77354
1.7219 2.26237 3.02367
2.36829 3.48186 2.72601
0.159582 2.61449 2.61719
3.21197 0.500282 4.0614
2.17419 1.98353 3.21691
1.97882 -0.827157 4.78959
0.768047 1.33016 3.64723
0.0793541 3.94016 2.37396
1.10062 3.41099 2.66111
-1.20479 1.41589 3.37378
0.110198 2.54814 2.63209
0.248354 2.0147 3.16154
-1.47924 -0.617307 4.63184
4.20384 0.888283 3.49215
0.476721 0.892993 4.02333
0.964999 2.79188 2.68043
0.0310026 3.94651 2.32562
0.923786 3.54593 2.56008
4.66 0.157035 3.94199
2.5835 1.31325 3.51549
1.17492 4.10038 2.41878
1.13118 2.12115 3.02709
2.37276 5.11859 2.56153
-0.0747183 2.69468 2.58508
-1.14812 3.71205 2.31513
1.2996 3.50432 2.61098
-0.0568806 0.533087 4.15332
2.35291 1.20996 3.50888
3.31031 -0.987642 4.05139
0.112588 2.11426 3.03768
0.932188 -0.149086 4.6198
3.06905 1.86519 3.15628
0.346231 1.3901 3.71608
1.23993 4.0855 2.35656
1.73352 3.45773 2.67641
-0.65261 2.62114 2.57733
1.16547 -1.7391 4.73807
2.78477 -0.115907 4.01393
-0.0315768 3.98306 2.35015
1.63728 1.47358 3.66309
0.616327 4.09811 2.40064
-0.0037725 2.14396 2.93142
3.24282 -0.560023 3.97153
-0.253643 2.8536 2.66752
2.13626 3.63468 2.68343
-0.944764 -0.35079 4.43798
3.26767 1.97393 3.21819
1.49318 1.35364 3.62922
0.629062 4.16445 2.38115
-0.0191932 3.4539 2.5141
-1.23686 4.13993 2.13732
1.26089 2.74871 2.74106
3.91319 -0.270299 3.91672
-0.401144 3.12394 2.46391
1.99655 3.86135 2.58333
1.48798 2.51661 2.94458
2.72952 4.9432 2.58858
-0.445507 0.207174 4.13529
1.9655 1.81271 3.392
2.49021 0.82438 3.62759
-1.26093 0.724952 3.29217
2.4235 0.741661 3.74931
4.41801 1.65288 3.27358
2.73053 1.62389 3.34202
0.850218 4.43266 2.35682
2.99262 -1.22354 4.13555
1.9646 2.42338 2.9831
4.17355 0.160004 3.94606
-0.85768 2.59806 2.62874
1.06562 3.07567 2.58632
0.905676 3.30936 2.56941
-0.0667682 3.78824 2.38637
2.74671 1.01728 3.60485
0.278401 3.99211 2.48165
-0.363388 1.97537 3.03239
1.83017 4.40123 2.35607
0.147988 2.4902 2.68029
-1.8694 0.026027 5.43603
-0.953956 1.98865 3.13102
-0.691912 3.16447 2.42255
-0.359623 1.22659 3.69755
1.74478 3.96023 2.45661
3.03146 2.97716 2.81922
0.41209 -1.85113 4.6688
2.17218 2.20734 3.01045
-0.2407 4.01687 2.2144
4.05716 -0.455856 3.91052
0.0351698 1.61489 3.30372
3.75098 0.0157837 3.82473
-0.218009 3.48313 2.40438
2.04342 2.94062 2.81221
-1.11768 -1.21993 4.22988
2.00193 2.14834 3.04544
3.84604 0.134752 3.86526
-0.65184 1.58857 3.30069
3.04468 3.77991 2.7061
-0.932506 2.43451 2.75928
0.702882 4.26073 2.33979
1.94904 3.17461 2.74211
1.02991 3.76108 2.54529
3.00468 0.662189 3.72341
-0.143214 4.16547 2.20158
0.823545 1.7675 3.34557
1.53726 2.3575 3.01335
-1.53973 1.85226 3.24297
-0.815204 2.95292 2.46868
-0.199327 4.33692 2.22562
2.1684 0.0622942 4.04071
-0.947648 3.6469 2.30853
1.21626 1.71632 3.49614
2.54683 5.06161 2.47345
1.62988 1.97647 3.15709
-0.650402 -0.619829 4.25298
-1.84966 1.55797 4.94554
3.76927 0.550193 3.99809
0.286989 3.29172 2.47982
-0.361544 3.77889 2.25673
2.1702 2.66902 2.85118
-1.62985 -1.33819 4.16656
3.4765 -0.649424 4.6434
1.66932 -1.58678 4.70308
-0.55872 3.75866 2.18779
-1.47369 1.05846 3.28673
-0.842627 3.29697 2.46905
2.15754 1.34676 3.52153
3.82184 0.246345 3.82487
1.99762 2.09619 3.11045
3.47709 -1.0749 4.4306
0.545345 2.7477 2.61439
-0.718143 3.81785 2.17427
1.16236 3.51022 2.55426
0.690115 4.76445 2.34568
3.78744 0.354546 3.74586
1.86196 1.3085 3.64972
1.11204 -0.947959 4.95123
-0.0515249 2.08328 3.00506
-0.342081 3.94895 2.22725
-0.427017 2.70541 2.59616
4.10419 0.115154 3.65499
-0.93569 3.47558 2.48448
1.88288 3.50959 2.65566
-0.757058 3.85924 2.2461
0.963459 2.69112 2.68005
3.39698 -0.363937 4.43108
-0.725447 2.12043 2.97213
1.78611 1.33771 3.69106
-1.19797 0.21001 3.50228
2.6773 1.09586 3.59855
0.12205 2.08215 3.13456
4.27653 -0.0576787 3.83972
1.12159 2.67679 2.77902
3.48733 -0.171352 4.3142
0.0829517 3.33207 2.49852
-0.339139 2.89877 2.62144
0.914385 4.14576 2.45371
-1.13071 3.8546 2.23358
3.89295 1.25334 3.44309
0.971304 2.20797 3.01305
-0.819717 3.86075 2.15514
2.30581 2.8017 2.79922
3.91384 0.214755 3.82731
0.315605 3.46288 2.48555
3.04279 -0.456331 4.26086
0.54287 3.59469 2.53534
3.62621 1.15461 3.42575
-0.482954 2.17858 2.94525
3.67972 0.163358 3.97498
-0.161455 1.82346 3.13968
-1.19844 -1.12226 4.02658
-1.18852 0.842664 3.64079
-0.829901 3.09709 2.43406
0.999551 4.15165 2.33729
0.0685216 2.45131 2.75741
2.66421 -0.89605 3.72119
3.07602 0.337472 3.91367
1.68884 3.85635 2.51308
2.01152 4.15472 2.49337
-1.22217 1.49672 3.18164
-0.417825 1.28029 3.58783
1.7071 4.4355 2.34952
2.68912 1.81831 3.20023
1.08495 3.88807 2.45174
1.06043 2.59198 2.77865
3.65245 -0.0854942 4.23922
0.118323 3.21659 2.46203
3.85288 0.052844 4.09241
1.63396 1.8703 3.28861
3.76659 0.753405 3.56711
-0.964851 3.26594 2.50231
-0.39 3.77941 2.25748
3.84878 2.65078 3.09083
-0.901338 2.63118 2.7662
0.920283 3.86729 2.48896
2.31208 3.31184 2.72704
1.61869 2.63655 2.97448
4.04242 -1.17894 4.53147
3.38445 0.529297 3.81012
1.09366 1.90708 3.27694
-1.25824 -0.602748 4.2106
3.45369 0.841917 3.75727
-1.27982 0.74404 3.28877
3.55569 0.660852 3.5371
-0.40732 1.82893 3.12647
2.96964 -0.597082 4.10716
-0.229856 2.54637 2.84405
0.522103 3.12431 2.53937
0.728168 3.94212 2.47012
-0.362599 2.66973 2.66206
2.01041 4.10091 2.50105
0.00488485 3.32015 2.49106
1.74891 1.21596 3.65435
3.82906 -1.08392 4.31968
-0.555757 3.85218 2.29797
2.86596 1.89391 3.18174
0.773257 3.25232 2.52714
-0.821947 2.64054 2.69736
3.63991 0.465734 4.14996
0.990752 1.96103 3.20549
-1.16417 -0.923471 4.97042
3.60507 0.872493 3.52733
2.5724 -0.105914 4.12017
0.830699 4.11772 2.48268
-0.105488 1.70167 3.4254
2.08675 3.02271 2.8079
-0.95384 4.02821 2.18528
1.36785 2.29601 3.05226
1.21069 4.13129 2.28963
2.66306 0.00927425 3.95962
1.7059 3.70429 2.59325
-1.38426 0.407295 3.31623
0.563224 0.950529 3.91755
0.00567295 4.18148 2.21473
3.54766 1.5443 3.40523
0.117909 3.65693 2.42364
1.30255 2.39906 2.92537
-0.369492 3.08937 2.53186
-0.686655 -0.458358 4.84411
2.51877 -0.23761 4.43632
0.245737 1.70147 3.32977
2.33181 3.89982 2.62916
1.34961 -1.36824 4.68769
2.56857 5.32731 2.59889
1.47424 3.0837 2.72506
4.28433 0.739127 3.59009
1.32633 2.33882 2.97737
1.16384 3.02626 2.65155
0.79044 3.63737 2.50684
0.736398 2.29928 2.8706
0.89954 4.27761 2.36501
-0.0056048 1.68863 3.24767
3.92787 0.268246 4.6941
-1.38818 4.21643 2.22021
4.36187 -1.37387 4.6157
4.16058 1.51937 3.84272
-0.0591409 4.20921 2.15103
1.05578 0.550953 4.09655
0.31407 2.2594 2.90061
2.90322 -1.03933 4.18531
2.04026 3.01736 2.79785
1.2107 2.51569 2.93941
-0.820635 3.71561 2.43301
2.69479 0.166279 4.06768
-0.921379 3.09634 2.43044
1.04256 1.05002 3.98574
-0.684408 4.12125 2.16548
2.25877 1.66164 3.24862
2.09592 3.85391 2.59076
1.38402 -1.68502 4.6893
2.24715 3.14089 2.73112
1.70747 -1.32382 4.20354
0.179323 2.39733 2.8209
-1.15809 3.61273 2.0599
3.40608 1.52205 3.31924
-0.780897 3.72365 2.32541
-0.319736 0.891581 4.06527
0.885476 4.46979 2.34213
1.77833 4.85059 2.38576
2.66593 -0.610446 4.66747
0.10918 4.10301 2.39458
0.116812 2.67925 2.60199
-0.888676 -0.314263 3.95632
0.720767 3.46078 2.56383
1.66995 1.28514 3.55353
2.2624 2.03327 3.21141
0.640756 2.14676 2.90231
1.39637 4.07078 2.37006
0.638297 1.56857 3.48889
0.922509 -0.948309 4.92296
-0.394785 2.86322 2.57958
2.13726 0.573146 3.92008
0.79894 3.62076 2.56919
3.81205 0.462919 3.74569
2.9851 2.07348 3.20255
2.43392 1.28437 3.49363
3.14257 -0.740352 4.18865
0.175592 3.44468 2.46205
-0.186511 4.0338 2.22436
0.787029 2.74275 2.63188
-1.13891 4.33031 2.17516
0.790334 2.35613 2.81869
4.21453 0.190606 3.76019
0.079413 3.11278 2.57571
3.35996 -1.0946 4.6594
3.12838 0.683541 3.80763
-0.645196 0.516935 3.92703
1.73741 1.72493 3.37828
-0.196684 3.67306 2.41541
0.138938 0.687756 4.09996
0.243733 2.9618 2.53891
2.47594 -0.879012 4.81376
-0.913002 2.30433 2.72535
-1.13486 1.82434 3.33288
2.19062 3.84069 2.57623
1.41337 4.24788 2.29358
1.89101 1.78882 3.3689
0.276978 -1.49778 4.63411
1.27118 1.00965 3.82305
2.5853 5.4105 2.60517
1.39795 0.329824 4.27868
1.80917 3.27945 2.7345
2.24129 2.48038 2.97287
2.65696 2.44469 2.95368
1.11722 4.51348 2.32475
-0.202504 3.79049 2.3822
2.7 -1.35011 4.60358
-0.02555 0.411383 4.29002
-1.01612 -0.792929 3.2396
0.444662 1.52847 3.54679
1.80643 4.02739 2.40203
-1.58459 2.94899 4.22882
1.91554 2.86124 2.82221
0.71955 3.5188 2.53998
0.283388 2.08039 3.01484
4.06402 0.0674783 3.78301
2.20457 1.23654 3.55772
-0.063884 4.05675 2.29526
0.58492 -0.496385 5.32682
2.23668 3.56485 2.70472
-0.225517 2.74127 2.64161
-1.14014 3.63348 2.41224
-0.36021 0.739386 3.89859
0.708207 2.92225 2.609
3.87201 -0.76496 4.2071
-0.968478 2.32958 2.86378
1.33983 3.65656 2.6059
-0.288378 4.16344 2.29936
4.23754 -0.660836 3.88376
1.23876 1.6207 3.51513
1.93311 1.48546 3.55207
1.97761 -0.552445 4.85495
-0.987027 2.31454 2.9547
3.8552 0.322401 3.70491
1.90855 2.91218 2.77054
1.76485 4.18347 2.33052
-0.316416 3.62369 2.43704
0.97021 2.84425 2.64106
3.54413 2.72934 2.96112
1.60943 1.5213 3.55235
-0.665503 3.88334 2.16304
3.22043 -0.0348154 4.35238
2.45859 2.14195 3.07999
0.918603 0.274452 4.22692
1.40069 2.88153 2.81773
0.0304917 3.48358 2.47802
2.24427 2.04052 3.05051
0.390901 3.50505 2.45263
3.99642 1.15131 3.48559
1.47843 4.13804 2.34824
4.88994 -0.83912 3.80578
-1.42974 4.17983 2.21347
-0.616415 -0.239659 4.36538
-0.233081 3.55121 2.39298
-0.395042 4.21713 2.27622
1.94112 2.24244 3.02815
0.658922 2.89698 2.58502
1.08351 1.58472 3.40844
-1.02917 -0.0796649 3.7917
2.06409 -0.869049 4.71166
1.62324 1.13499 3.65146
-0.447538 0.628003 3.91738
-0.441666 1.97955 3.04073
0.207061 3.95424 2.45648
0.644229 2.57555 2.72423
1.23495 4.65775 2.33345
0.258033 3.22717 2.47892
-0.595019 1.90361 3.04998
0.124233 3.94279 2.38189
-0.820344 1.03443 3.578
0.250841 3.1739 2.49805
-1.34022 -0.8544 4.23598
1.47635 2.60119 2.91853
-0.670865 0.31462 4.08652
1.94795 3.52455 2.66653
1.94837 -1.15016 3.94158
1.44516 2.78434 2.81279
-0.0995174 3.94916 2.32653
-0.914913 2.12824 2.974
2.4221 -1.42385 4.64713
1.62703 1.33611 3.65534
1.25141 -1.082 4.84066
-0.0124324 2.0574 3.0687
4.23176 0.253429 3.89182
-0.408621 1.35851 3.49123
-0.330413 2.67632 2.65952
-0.260879 3.27055 2.43059
1.31987 4.10088 2.42782
1.47475 4.81561 2.35638
0.324371 2.57816 2.61237
2.06171 3.40424 2.65695
2.14512 1.24023 3.78734
3.91183 -1.15886 4.26669
0.589723 -0.456423 4.77492
1.68588 1.9901 3.18211
-0.799754 3.26702 2.44755
-0.000370406 3.95835 2.39037
0.255662 2.58676 2.69524
-1.01048 2.08802 3.13814
-0.269868 3.89341 2.29182
2.723 -0.247655 4.48515
0.975293 1.23241 3.73051
-0.899517 4.35643 2.12965
2.36257 5.21936 2.48313
1.43231 4.06015 2.40975
-1.01874 0.77285 3.71772
4.56587 -0.825062 4.81013
0.612221 2.67337 2.6323
1.50613 3.49929 2.61797
3.15003 1.136 3.53805
-0.700179 -0.582112 4.45167
1.2274 2.10402 3.18148
0.296183 4.27927 2.26869
3.78155 1.44643 3.17076
-0.405945 0.203463 4.30015
1.70669 0.844263 3.83462
-0.838744 3.61432 2.34638
-0.901848 2.96578 2.39232
-0.30872 4.39798 2.25271
-0.330319 2.45088 2.84617
3.51628 1.40992 3.2956
1.52577 -1.55135 4.71527
2.13596 3.86965 2.59726
0.186542 2.92043 2.4941
-0.996437 3.75228 2.13483
2.06795 2.3081 3.00833
-0.459355 3.7339 2.33561
4.03099 -0.236323 4.18856
4.22111 0.765332 3.54722
1.0401 2.53054 2.80079
-0.764587 1.95921 3.10468
-0.222714 3.18038 2.47081
3.53876 1.776 3.25565
-1.23939 1.66631 3.16203
1.14646 1.01862 3.80765
2.23859 0.0631772 4.07059
1.50837 1.80695 3.34169
1.3734 2.48739 2.90611
0.954889 4.53674 2.33472
1.51242 3.27538 2.71347
-0.697533 3.72077 2.25973
1.19605 3.21408 2.64647
0.579507 2.44444 2.7869
0.24574 -1.26427 4.57735
1.35217 -0.972972 5.05818
0.854155 1.86931 3.33223
4.12383 0.356159 3.73453
0.209412 1.11199 3.85217
2.40661 3.11053 2.7092
-0.893164 2.4269 2.75616
-0.188252 3.70903 2.38211
2.21147 -0.717591 4.43314
2.03195 1.72939 3.4838
-1.16935 0.791805 3.92949
0.477061 0.981677 3.95755
1.93135 2.61299 2.87237
2.77719 4.03084 2.68412
2.26845 4.04365 2.59972
-1.49075 1.28096 3.24676
-1.18349 4.25073 2.18992
3.44247 0.191809 4.0148
4.39766 0.947061 3.65158
-0.31943 -1.20147 4.41515
0.0775602 2.52374 2.71612
0.171873 1.9978 3.15751
1.45331 3.91733 2.48561
2.63249 3.3395 2.75534
2.23014 0.4383 3.95094
4.01681 0.754629 3.58718
-1.07385 -0.77768 3.72333
2.63862 1.7213 3.19121
2.22166 2.12718 3.04017
2.29579 4.23481 2.49981
-0.835369 -0.191032 4.08211
1.39291 1.47593 3.42684
2.12481 4.42616 2.48029
0.0280417 2.77944 2.52451
-1.18006 3.78823 2.29744
0.547128 2.11492 2.95732
0.0176742 4.11393 2.27455
3.39797 -0.190279 4.0301
2.22461 1.35082 3.55498
2.32257 3.63906 2.71151
0.279114 3.5732 2.50014
0.682202 2.75316 2.62987
-0.894205 3.61699 2.40425
4.42411 -0.391566 3.86397
0.798793 4.22486 2.32937
-0.737412 -0.484994 3.92886
1.48353 1.6376 3.39316
1.74258 2.38208 3.0614
-1.3615 4.31358 2.21064
-0.624605 3.00745 2.53003
0.152912 -0.299987 4.4942
0.353829 1.65684 3.41448
2.03226 3.83481 2.63831
-0.544975 2.30053 2.8652
0.771878 4.26026 2.28661
0.230892 2.8648 2.53328
-0.943641 2.92676 2.55324
0.168648 2.33603 2.8022
2.81255 3.14155 2.82742
0.660593 -1.02392 4.19431
3.48611 -1.09531 3.79687
1.4994 4.2334 2.33059
4.23043 0.167627 3.83319
-0.384206 1.75997 3.23272
-0.413761 3.63416 2.41891
2.1406 0.486317 3.91632
1.10076 2.9791 2.66798
3.51383 -0.952619 4.28271
0.566345 2.26376 2.86486
0.386855 3.68553 2.43664
-0.164825 1.71639 3.37524
3.15586 -1.54218 4.2195
3.59952 2.57281 3.00717
-1.4609 0.857214 3.26617
0.301923 0.197685 4.38216
1.4464 3.8452 2.53443
3.03991 4.85471 2.50592
2.08197 2.3976 2.94491
1.70144 3.21539 2.73162
3.28888 -1.59551 4.4713
0.711173 0.957382 3.83188
-1.81035 0.218531 4.89709
-0.453417 1.82758 3.18893
0.460149 1.48708 3.65536
-0.00318766 4.00037 2.34692
0.225255 -0.605987 4.97677
-0.941643 2.11845 2.91193
1.16529 2.76602 2.73768
4.94423 -0.733913 4.06423
1.44577 3.53711 2.62567
0.476802 2.00776 3.0213
-0.572629 3.91288 2.22075
2.85975 1.10171 3.54114
-0.093675 3.33681 2.4625
4.24163 -0.635575 4.0133
0.85995 2.68234 2.72576
1.61721 0.706567 4.11688
-0.705792 2.89382 2.56634
-0.98438 -0.6444 4.03817
0.767515 3.54191 2.53957
0.188957 4.0278 2.26023
-0.22005 2.21731 2.86804
4.20411 2.19972 3.2832
5.13731 1.63149 4.12554
-0.233233 1.53347 3.36476
0.962456 -0.7751 5.04113
0.959894 2.17612 3.05651
-0.0413325 0.855617 4.02666
1.45911 2.89676 2.80669
0.379373 4.14208 2.2897
-0.970444 3.56292 2.41054
-1.1256 2.74278 2.71735
-0.100469 2.83514 2.62693
2.37791 5.17786 2.56477
-0.485006 1.54259 3.33921
2.06739 -0.0195065 4.16548
0.670615 2.14084 2.97241
0.637317 3.35697 2.4507
0.345981 4.06185 2.35364
0.655759 2.70741 2.63825
-1.14696 3.6661 2.35473
-0.751872 3.47537 2.41324
3.15657 1.99925 3.20018
0.718128 4.20502 2.40444
2.17125 0.116264 4.2124
-0.177918 1.44008 3.44319
0.819774 -1.34774 4.33443
-0.756804 -0.259139 4.07495
1.65815 3.65684 2.59528
1.86661 4.21061 2.38682
2.81327 2.97536 2.87848
3.42267 1.33471 3.45786
3.54355 -0.322919 4.0133
-0.566924 2.20819 2.81917
1.72704 -0.926913 4.66112
0.433122 1.94014 3.19066
0.312932 0.589507 4.22767
2.87715 0.921014 3.66045
1.31298 3.31678 2.64523
1.75483 3.88305 2.51365
1.36897 4.54199 2.3403
2.07111 2.57414 2.92029
2.15359 1.90591 3.53112
1.56435 4.47454 2.33992
2.75739 0.828579 3.6575
0.457741 3.92163 2.42227
0.300802 3.15919 2.52089
0.210157 2.45186 2.7489
0.992659 1.27295 3.48819
2.41822 0.221843 3.99333
2.89226 -1.59021 4.33348
-0.403102 2.01998 2.94156
3.34988 2.67006 2.90506
0.376096 3.948 2.37722
3.30075 3.60708 2.72896
-0.990562 0.310494 3.88663
3.22174 0.271101 3.96301
2.32069 1.12845 3.7186
1.94465 -1.19587 4.43359
-0.653768 1.9818 2.98622
2.30373 2.62927 2.8773
4.62116 -1.15145 4.11959
1.80449 3.42195 2.69498
1.01057 3.38284 2.62342
-0.365388 3.9471 2.29117
1.61319 2.70617 2.91302
-0.0841211 1.97509 3.03546
1.90846 4.33181 2.37289
2.27063 -0.53171 4.38371
-0.602403 1.30657 3.50131
-0.562396 3.7526 2.27096
1.20374 3.26857 2.59874
1.91352 2.59877 2.93753
-0.338101 1.9761 3.14356
3.9873 -0.822888 3.95016
2.68907 0.906781 3.58127
-1.03331 -0.275145 4.19247
-0.15065 2.70935 2.58479
1.94949 4.03496 2.50736
0.609994 3.47529 2.53615
2.81996 1.16754 3.46863
2.24662 0.593063 3.96298
2.3288 2.01894 3.131
-1.21128 -0.6801 4.24701
0.731568 4.15578 2.48092
2.526 2.73305 2.91407
3.89907 -1.17457 4.06276
2.2699 3.47999 2.69565
-0.417229 0.796622 3.93865
2.43476 1.12211 3.505
2.10449 -0.719095 4.86617
3.20517 1.91602 3.22498
1.07506 4.07543 2.39729
-0.596511 1.7784 3.25689
1.99847 0.124279 4.16218
1.8055 3.75343 2.60919
-0.779601 4.09894 2.18018
1.50344 3.12433 2.73009
0.976541 4.76006 2.34683
0.0302244 2.35763 2.82951
4.1878 0.280622 3.61899
-0.384749 -0.825883 4.49106
1.17403 0.391331 4.33815
-0.938354 1.73015 3.32285
0.572828 2.92775 2.59251
-0.471222 3.7 2.40308
1.15251 2.27324 2.94315
3.29944 -1.45644 4.08877
3.99157 -0.352978 4.09799
0.536565 1.12118 3.83698
1.10631 3.80921 2.4959
3.76117 1.5965 3.25989
2.49949 4.95642 2.59149
-0.156093 2.48743 2.76696
-1.33559 0.263561 3.26197
-0.62252 3.14373 2.45651
3.54842 0.635926 3.69567
0.22447 0.0326108 4.42799
-0.533831 1.81525 3.17243
1.57195 3.87418 2.50147
-0.644888 2.40361 2.71791
1.18864 4.40432 2.32343
0.0128811 3.09461 2.53216
0.642964 3.07053 2.54441
-1.48477 1.8056 3.22432
-0.830567 2.4382 2.73412
3.44719 0.334052 3.95571
-0.578693 1.83241 3.19505
0.572898 -1.08094 5.01778
2.80176 0.712997 3.7033
0.649179 3.05368 2.60885
1.38406 3.77279 2.54798
-0.188844 2.42318 2.88993
1.01891 -0.810317 4.76109
3.50031 1.55534 3.47818
2.76159 -0.824036 4.35595
0.456065 -1.55018 4.66491
1.22593 0.69093 4.03403
-0.119069 3.74661 2.39814
1.42441 2.62813 2.9324
0.543315 3.19107 2.4957
-1.36219 0.209353 3.25915
1.87936 1.04205 3.72267
0.336883 3.83212 2.4221
2.84376 1.79732 3.30404
-0.895499 2.60042 2.83102
2.82343 -1.48029 4.55976
-0.663725 3.07936 2.39729
4.4572 0.835596 3.60155
1.30533 0.480501 4.15914
3.33123 1.66667 3.32025
-0.86853 -1.11914 4.30284
0.169809 3.93784 2.42459
2.66295 2.0502 3.06259
-1.41423 -0.327367 4.26894
1.87868 1.40564 3.51138
4.35435 0.470011 3.80978
1.76397 2.89194 2.81889
1.76778 4.16337 2.41053
1.28067 3.58406 2.59381
0.431211 -0.144742 4.80823
-1.29769 4.03734 2.15696
1.50478 1.58476 3.43766
0.344004 0.856029 4.18557
1.5469 3.71679 2.63761
1.05943 -0.771105 4.93505
1.68404 4.16336 2.3528
0.738154 2.28469 2.91521
3.75334 -0.0552101 3.94557
0.512077 2.93217 2.59217
3.92877 2.12094 3.1817
0.811311 -0.498581 4.75811
-0.385646 1.66434 3.43823
1.1925 3.73307 2.56812
-0.553434 4.11686 2.18753
0.170954 4.29025 2.18558
1.72746 2.9875 2.81448
-1.34596 0.0482819 3.26797
2.53333 0.590478 4.00878
1.6438 -0.767596 4.50048
1.04565 3.78836 2.47814
2.67022 4.46359 2.53727
4.94581 0.570359 4.0918
0.042559 2.39884 2.76039
2.82567 -0.686432 4.40888
1.281 3.19924 2.68607
-1.06635 0.894855 3.6951
1.22385 1.79858 3.39247
-0.867405 1.98416 3.09417
1.88035 4.55178 2.37314
2.03926 1.0437 3.71247
0.740165 3.29132 2.58625
3.29379 -1.28736 4.77083
0.122158 3.75301 2.3536
-0.109209 0.452765 4.19657
2.78024 1.67784 3.23177
1.66322 2.65307 2.96997
1.53891 1.03133 3.83982
1.21309 3.89657 2.43655
1.17327 -0.997957 4.84551
-0.497528 3.24348 2.53526
0.139692 0.582716 4.01639
2.82311 2.45685 2.96669
3.10419 1.34902 3.41024
-0.0810455 3.36088 2.35085
0.520026 2.1721 2.86555
1.14841 4.11205 2.35259
-1.28354 -0.303557 4.08882
4.63072 0.661628 3.76546
-1.40953 0.427116 3.32549
-0.0780431 2.85173 2.55576
3.14826 1.2529 3.4226
-0.329141 3.53534 2.41012
-0.700177 2.15317 2.84704
-0.600205 3.96565 2.14072
-1.21211 -0.037957 4.12774
0.74451 2.79035 2.63369
0.550539 4.15394 2.08809
-0.528034 2.43337 2.85887
1.80668 3.13497 2.75368
2.79275 -0.531285 4.23958
-1.22743 3.89618 2.29543
1.07209 4.22061 2.3002
2.74141 1.54266 3.33061
1.58649 3.68696 2.5476
-0.0722458 2.97154 2.57517
2.19234 2.22754 2.98027
-1.03942 3.48111 2.43059
-0.629627 3.66035 2.37219
0.769196 -0.854063 4.7187
3.39783 1.45595 3.50536
-1.22603 2.97914 2.52599
1.71805 0.31926 4.14287
-0.846658 -1.4168 4.3704
2.09362 2.23911 2.9914
1.75033 1.51494 3.33622
-0.693106 2.99313 2.56814
-0.428528 3.53605 2.40878
1.72726 4.18529 2.36353
-0.398355 0.458907 4.13447
0.395305 4.39994 2.22679
2.83097 -1.21268 4.53711
1.76514 2.97019 2.79164
-1.02206 1.66012 3.35055
1.1122 3.69652 2.5278
1.14905 2.21342 2.98559
2.70106 1.55616 3.356
0.740373 4.32667 2.3546
0.435431 2.9551 2.51216
0.338793 0.0448816 4.43541
-0.588985 2.37717 2.79038
0.625912 -0.963943 4.75311
0.970893 3.73595 2.49802
-1.30984 3.04898 2.53487
3.47372 -0.0133866 4.0424
3.88336 1.03845 3.60432
1.18524 3.96124 2.417
-0.189319 2.02862 2.95481
-1.32926 1.30843 3.39037
1.51544 2.76903 2.86606
0.894824 3.39752 2.56448
2.85593 1.03807 3.62258
0.434158 4.06648 2.40761
1.04227 -1.66998 4.65776
0.62184 1.97169 3.09838
2.73059 0.645875 3.79562
-0.690044 2.66844 2.68621
2.73179 -0.677243 4.36136
0.0594624 3.29402 2.49574
-0.704245 -0.878204 4.12185
-0.880885 2.88788 2.63363
2.41909 0.44939 3.88247
-0.736174 2.16596 2.86201
4.12147 -0.446678 4.0012
1.82493 1.43477 3.55677
1.52653 4.08496 2.41107
0.577485 -0.877422 4.82556
-0.28308 3.42534 2.46052
3.41835 0.470122 3.92642
-0.701424 2.79034 2.62983
-1.22603 3.71185 2.27328
2.00234 2.04436 3.12594
-0.194295 3.96901 2.21557
2.27267 1.23107 3.48398
4.29499 -0.31723 4.03732
-0.760261 2.79619 2.63439
1.7613 3.57125 2.66351
-0.369631 3.5261 2.46535
0.769861 1.40764 3.55125
0.239489 4.12051 2.43872
-0.467968 2.12405 2.95863
4.68871 0.226188 3.7641
1.39365 0.0349314 4.5946
0.234591 2.60981 2.60107
0.493688 3.23192 2.40829
0.545375 4.10131 2.38495
3.264 1.00157 3.40365
1.82055 4.86325 2.38318
0.720508 2.08036 3.15841
2.35043 2.08504 3.07938
0.73644 1.47702 3.43337
0.14158 -0.410818 4.56807
2.06394 2.8813 2.82342
0.779935 4.12858 2.36025
-0.457357 3.50058 2.4438
2.65891 -0.378932 4.18383
3.92842 -0.366454 3.96851
-0.353686 1.13732 3.65625
0.961911 3.85705 2.5206
0.220934 1.87312 3.19151
4.46199 -0.264641 4.1454
1.08265 2.49308 2.85841
-1.30818 0.874714 3.27542
0.343995 3.11633 2.48516
2.17163 3.95183 2.57728
0.251466 1.75335 3.16736
1.93603 4.42321 2.37298
1.29983 0.952086 3.94935
-0.780787 0.376843 3.83857
-0.625577 3.0864 2.47754
-0.761718 -1.05798 4.31561
1.5435 2.4697 2.97732
2.18944 3.43005 2.71545
2.3481 0.1065 4.18287
-0.296687 2.623 2.65952
-0.504127 2.00843 3.02177
3.41915 2.04554 3.23458
2.61424 1.02876 3.54866
0.780171 3.99007 2.484
3.95726 -1.53654 4.34665
-0.29585 0.336277 4.29331
1.14471 2.61658 2.88822
2.87517 1.75672 3.2134
-0.330587 3.24336 2.49154
-0.255337 1.20617 3.60933
0.610144 4.04397 2.45168
-0.4754 2.60675 2.74217
3.92621 -0.63946 3.90838
2.34987 3.37117 2.73595
2.04767 -0.708467 4.99775
0.662195 1.20201 3.84548
2.22365 0.76903 4.05215
2.44168 1.84095 3.3074
-1.03883 -0.417775 4.21638
-0.531699 3.20916 2.51369
1.41132 3.92616 2.52617
0.745092 2.49031 2.82334
-0.248574 3.7896 2.30344
-0.480933 1.87502 3.113
1.9906 4.20415 2.44002
3.74688 0.734667 3.65992
0.838827 4.58142 2.34573
2.33433 0.474219 4.01011
1.26763 3.38374 2.63435
4.57084 -1.05874 4.80964
3.41852 2.66667 3.00973
3.98546 -0.743066 3.91194
0.806185 4.06166 2.4687
0.0395444 -0.818103 4.72031
0.340682 2.01163 3.1305
2.87534 0.537303 3.94812
2.3689 1.02761 3.49177
0.132401 1.70642 3.39045
1.23174 4.19673 2.35416
-0.596059 0.0569576 4.17395
1.64243 2.37882 3.11314
-0.609336 3.60049 2.45018
1.34202 3.02833 2.73442
0.538781 4.34085 2.23686
-0.919884 2.2669 2.86591
-0.373355 3.63241 2.41244
-2.38571 2.69493 6.39351
0.307234 4.18401 2.2543
3.88023 0.331809 3.67245
0.52901 2.82821 2.57936
1.87939 3.23193 2.75705
1.55706 -0.287938 4.6601
0.922785 2.3941 2.82291
0.882773 3.73162 2.48532
0.0134477 1.82452 3.25534
0.892674 -0.849414 4.75542
1.20398 0.932963 3.82675
3.18144 -0.331942 4.12616
3.98097 -0.320072 4.17163
0.990921 1.72436 3.36873
-1.16708 -0.401084 3.2263
1.60835 2.37646 2.9913
0.901569 3.8412 2.50441
-0.320111 3.04439 2.55177
-0.737938 1.4216 3.33888
-0.930632 3.84398 2.21806
2.42117 2.04006 3.19125
2.0599 4.76315 2.46756
-0.277833 2.77744 2.66063
3.20344 -1.62497 4.30722
-0.105478 3.39368 2.45289
2.45675 4.25335 2.56569
4.10044 1.05186 3.74681
0.169484 2.07885 3.09716
-1.24113 -0.110855 4.28722
1.38198 2.70686 2.80929
3.48408 -1.49609 4.14246
1.13912 3.42972 2.61115
2.96549 2.96843 2.88289
1.95804 -0.33892 4.60559
0.506897 -2.09675 4.43745
1.36175 2.2465 3.07705
0.344665 4.16026 2.36739
1.77379 1.49625 3.51221
0.438013 3.49577 2.50193
1.77547 -0.195595 4.29567
-0.295712 2.84191 2.64156
-1.11388 2.39419 3.14829
-0.330879 4.12277 2.2649
0.77883 1.43863 3.4075
0.831239 3.62033 2.54488
-0.281762 0.438752 4.2782
-0.838144 2.62333 2.74843
-1.29402 -1.06169 4.20621
0.914967 3.2901 2.60986
0.242245 1.25305 3.9205
-0.639745 3.69106 2.28811
0.0713176 1.92505 3.13239
3.4898 0.276714 3.72503
0.284838 2.43726 2.73825
3.96176 -1.0952 4.7978
0.796785 3.20246 2.58782
-0.197936 1.09702 3.63701
2.07825 4.01828 2.5686
-0.354526 1.87469 3.13961
4.28847 2.04171 3.32643
2.60514 1.83486 3.1772
1.64569 4.44223 2.34267
1.76806 1.15109 3.66281
0.850897 -1.39054 4.46237
2.44995 0.0876994 4.18144
1.32128 3.33484 2.60343
0.193478 2.54794 2.63021
-1.56177 -0.585422 4.18002
1.09128 4.04095 2.47939
1.87974 0.260333 4.06125
2.26995 1.02601 3.8383
0.766624 4.51411 2.34028
-0.137435 1.87602 3.02879
1.20489 3.85975 2.48148
2.54851 2.58297 2.98174
0.859793 3.2972 2.61989
2.57882 1.70033 3.28355
1.80675 3.99263 2.54046
4.1298 0.692426 3.70371
4.13995 -1.24079 4.42548
-0.209767 3.12547 2.46736
-0.957393 -0.469247 4.36566
0.146401 2.4884 2.78822
-0.488197 -0.736838 4.37116
0.64942 3.38744 2.55019
3.9137 0.382961 3.8345
-0.457954 2.71271 2.68242
-0.625083 2.06206 2.97542
1.03761 3.96148 2.42549
3.41971 1.02425 3.50451
-0.491702 -0.718514 4.59238
0.914636 1.26594 3.74235
3.0063 0.605511 3.86598
1.57054 1.88156 3.11812
2.76744 2.67795 2.98399
-0.671557 0.32291 3.94506
0.469622 3.27211 2.51845
2.52188 4.26217 2.62823
1.69299 -1.57774 4.69719
1.85728 2.37437 3.02992
3.9337 0.261972 3.71356
0.500092 2.97572 2.55046
1.53102 3.80384 2.64287
0.526177 4.28836 2.34008
4.06593 -0.219223 3.95583
1.71021 0.175856 4.33602
1.96319 2.25013 3.01095
1.76405 1.63024 3.3549
2.28914 3.0025 2.77317
-0.610169 4.29781 2.18174
-0.255277 1.69507 3.36408
-0.695543 3.69078 2.40241
0.293345 -1.01719 4.59607
0.960055 1.79958 3.34132
1.04405 0.942563 3.96805
1.99402 3.20766 2.75752
-0.661113 -0.305352 4.40139
-0.187629 2.49013 2.87599
2.40577 4.88818 2.57943
0.341116 3.76733 2.43921
1.45369 -0.137775 4.26969
3.20069 2.27918 3.11772
3.34041 -0.98542 4.33001
0.27377 4.14588 2.24288
1.71424 1.62394 3.33833
0.851301 3.629 2.4859
0.481492 2.30918 2.83961
0.900052 3.01662 2.62595
-1.3905 3.9324 2.3126
2.0927 3.80214 2.60426
4.14509 1.40758 3.58477
0.360265 -0.54536 4.59395
-0.540105 4.3908 2.19651
2.98338 0.389519 3.99338
1.60724 3.0392 2.76467
2.27144 2.21336 3.00173
0.35857 0.343293 4.36138
0.707948 3.16978 2.56112
-0.642465 2.48813 2.71803
-0.867387 3.83766 2.44159
2.14221 1.7487 3.28766
0.631017 -1.49251 4.72158
3.9949 0.694934 3.65229
-1.34589 0.294623 3.26386
2.8176 -1.18489 4.16637
-0.0400321 1.04132 3.95285
-0.380149 0.349812 4.19671
0.905431 1.79506 3.33831
-0.580733 2.36921 2.69508
4.19248 -1.31813 4.37646
1.73962 3.19621 2.72649
-0.747907 2.8476 2.62589
2.02361 3.90362 2.55202
-0.227462 3.42048 2.40125
1.02249 4.72918 2.34075
-1.1225 -0.448984 4.38619
-0.301404 1.53816 3.41911
0.835093 4.1091 2.41284
2.29274 2.06499 3.06107
-0.759825 -0.297382 4.64653
-0.767184 3.43259 2.4473
-0.359789 2.7539 2.62937
-1.35875 0.0409227 3.30674
1.03654 2.13023 3.16415
0.412637 1.44619 3.59988
0.125016 4.15513 2.35184
0.570302 2.15501 2.87056
3.5417 1.30973 3.45754
3.59403 0.397584 3.76397
1.83666 2.97862 2.82486
-0.538581 -0.718274 4.31094
0.116091 4.12362 2.27297
-0.273207 3.49369 2.3991
3.17406 -0.7446 4.41889
4.31416 0.10207 3.73764
1.61838 0.82445 4.08989
1.71138 2.16245 3.13473
3.87376 1.15901 3.42946
1.40165 0.156467 4.25042
1.47349 3.58601 2.60812
-0.191238 3.92051 2.24942
