ply
format ascii 1.0
element vertex 1918
property float x
property float y
property float z
end_header
-1.49075 1.28096 3.24676
-0.214611 3.68456 2.40489
4.12383 0.356159 3.73453
0.210876 1.15051 3.83054
-0.908503 2.42243 2.73798
-1.20426 4.24069 2.19676
-1.16935 0.791805 3.92949
0.477061 0.981677 3.95755
1.94148 2.60113 2.87847
2.80206 3.99851 2.71496
-0.734449 1.16873 3.33744
3.44247 0.191809 4.0148
4.39766 0.947061 3.65158
1.45792 3.89908 2.52393
0.0661774 2.51461 2.70141
2.24466 0.493288 3.91729
4.01681 0.754629 3.58718
-1.58459 2.94899 4.22882
0.70895 3.50296 2.56101
0.277826 2.08598 2.98981
4.06402 0.0674783 3.78301
2.25507 3.54384 2.73602
-1.17231 3.60463 2.42105
-0.36021 0.739386 3.89859
1.3399 3.64029 2.63809
-0.982295 2.32992 2.84311
4.23754 -0.660836 3.88376
-1.00026 2.32452 2.93219
3.89997 0.336056 3.67334
-0.346882 3.59613 2.45177
2.59041 5.39234 2.63457
0.785419 2.34714 2.80434
-0.224006 3.64673 2.43457
3.15272 0.712583 3.7793
-0.645196 0.516935 3.92703
2.67954 2.43678 2.9601
0.138938 0.687756 4.09996
-0.9286 2.29931 2.7053
2.20999 3.81711 2.61244
1.27328 1.06547 3.79022
1.39795 0.329824 4.27868
2.25406 2.47149 2.97381
-0.230187 3.76543 2.40646
-0.02555 0.411383 4.29002
-1.01612 -0.792929 3.2396
2.06409 -0.869049 4.71166
1.62483 1.17218 3.61335
0.185809 3.93135 2.48602
0.636006 2.56236 2.71291
-0.807608 0.178437 3.31746
0.101427 3.92073 2.41285
-0.820344 1.03443 3.578
-0.280208 0.226884 3.38452
1.47696 2.59607 2.91765
-0.126428 3.92583 2.35549
1.96549 -1.14134 3.94554
1.44606 2.77327 2.81676
1.63025 1.37641 3.6301
-0.217887 -0.542557 3.27732
1.25141 -1.082 4.84066
-0.407754 1.4125 3.45496
0.200748 0.976276 3.64404
-0.34488 2.66155 2.6458
1.3218 4.0828 2.46757
0.966866 2.83218 2.648
0.646864 -0.0197312 3.46507
1.61475 1.55823 3.53322
-0.700888 3.85343 2.18189
1.39998 2.86998 2.82343
4.03385 1.16046 3.46479
1.48451 4.11806 2.38944
-0.419035 4.19477 2.29855
0.651259 2.88403 2.58845
1.08413 1.61594 3.38759
1.3677 2.30127 3.04385
1.71502 3.68488 2.62818
-1.38426 0.407295 3.31623
0.563224 0.950529 3.91755
0.0956446 3.63468 2.44701
1.30077 2.39431 2.91736
2.57753 5.29889 2.65169
2.35036 3.87643 2.66491
4.28433 0.739127 3.59009
1.32511 2.33529 2.96643
0.913866 3.84968 2.52449
1.62048 2.62916 2.97267
3.41427 0.55441 3.77748
-1.27982 0.74404 3.28877
3.48044 0.869271 3.73143
3.59315 0.671934 3.51079
-0.744008 -0.139154 3.31553
-0.241797 2.54406 2.82593
0.716724 3.92258 2.50423
-0.377261 2.65576 2.64899
-0.584776 0.310837 3.34278
1.75438 1.2554 3.62881
-0.587379 3.8223 2.31799
-0.837281 2.62941 2.68196
-0.764606 -1.47074 3.19534
3.66479 0.515416 4.1208
0.820226 4.09881 2.51986
3.64041 0.880668 3.502
2.66593 -0.610446 4.66747
0.214062 1.12082 3.64459
0.0848313 4.08039 2.42695
0.104766 2.66437 2.59329
-0.888676 -0.314263 3.95632
1.67565 1.32042 3.53161
1.40062 4.05275 2.41104
0.637208 1.60417 3.45311
0.922509 -0.948309 4.92296
-0.413347 2.84789 2.57393
0.296273 -0.876224 3.28398
-0.216289 4.01083 2.25449
2.45053 1.30673 3.47746
3.14257 -0.740352 4.18865
0.781442 2.7298 2.63343
1.16229 3.01354 2.66543
0.890142 4.257 2.40605
-0.00866845 1.71979 3.22117
4.36187 -1.37387 4.6157
4.19171 1.53329 3.81959
-0.719054 4.09142 2.19034
2.90322 -1.03933 4.18531
2.05358 3.00321 2.81393
-0.953246 3.06698 2.42892
1.38402 -1.68502 4.6893
2.27314 1.66834 3.23688
2.26205 3.1254 2.75047
3.43362 1.53121 3.29999
0.876125 4.45034 2.38705
-0.650402 -0.619829 4.25298
-1.84966 1.55797 4.94554
-0.393248 3.75484 2.27906
2.18407 2.6575 2.86085
-1.11867 2.94171 2.55153
3.4765 -0.649424 4.6434
-0.594053 3.73016 2.20577
0.695962 -1.72893 3.35958
2.16751 1.3715 3.49758
-0.753487 3.78884 2.19139
3.47709 -1.0749 4.4306
0.537265 2.73298 2.61253
0.275419 0.00427045 3.43116
1.86839 1.34648 3.62827
1.11204 -0.947959 4.95123
-0.374551 3.92389 2.25347
-0.442596 2.69018 2.58468
-0.0164115 -0.76696 3.26788
3.06158 2.95391 2.83033
-0.272197 3.99366 2.24384
0.0321204 1.64966 3.27902
2.05547 2.9269 2.82606
-1.11768 -1.21993 4.22988
0.68904 4.23884 2.3803
-0.654183 1.62724 3.26859
1.9598 3.15969 2.76136
-0.171059 4.14325 2.23126
0.820851 1.79375 3.31928
-0.841219 2.93026 2.46266
1.21546 1.75239 3.47523
2.54683 5.06161 2.47345
3.71768 0.198044 3.94183
-0.166369 1.84663 3.11316
-0.85915 3.07141 2.43534
2.02624 4.13179 2.53405
3.10164 0.374623 3.8817
1.71577 4.41394 2.39415
2.70743 1.82216 3.18981
3.65245 -0.0854942 4.23922
0.10009 3.19762 2.46888
3.85288 0.052844 4.09241
1.63604 1.88568 3.27057
3.84878 2.65078 3.09083
-0.992083 3.23293 2.49907
1.89575 3.49069 2.68715
3.39698 -0.363937 4.43108
-0.734444 2.13367 2.9473
-1.19797 0.21001 3.50228
0.116436 2.09762 3.11089
4.28316 -0.0515519 3.83089
3.51542 -0.139148 4.28347
0.0650774 3.31202 2.50774
-1.13071 3.8546 2.23358
0.968412 2.21236 2.99701
3.91384 0.214755 3.82731
0.299621 3.44486 2.49942
3.04279 -0.456331 4.26086
0.528252 3.57647 2.55415
-0.492333 2.18471 2.91834
0.306623 2.77747 2.57377
0.518788 0.229316 3.54703
-0.88276 1.66202 3.30208
-0.67917 3.86337 2.20346
3.76846 -0.517961 4.09516
0.329868 -0.214696 4.6914
-0.211785 2.7674 2.60278
2.35224 -1.95008 3.83529
0.218765 1.6229 3.63613
-0.795051 3.8405 2.11834
0.8552 1.65884 3.43107
-0.187336 2.91492 2.56864
-0.805747 -0.640713 4.10965
1.10754 4.17029 2.36034
3.89671 -0.62617 4.21482
0.704136 4.28811 2.35859
1.38594 1.73107 3.34345
-0.10142 3.04689 2.53728
4.20628 1.53149 3.61058
2.84194 4.83172 2.69451
1.42993 3.069 2.74406
3.5416 -0.918726 4.66577
1.28146 3.26377 2.66461
1.77295 -1.24864 4.37352
2.88508 1.73232 3.23252
3.98731 -0.92516 4.36451
0.220907 -1.15519 4.88955
1.16722 1.84914 3.3392
4.16945 -0.95115 4.26156
1.06507 3.17207 2.6349
-0.579143 3.27523 2.44797
1.96031 0.685168 4.05562
3.31272 1.88231 3.23561
1.92948 4.64221 2.43531
0.278387 0.786885 4.1491
0.275771 3.17431 2.4595
0.792464 1.91245 3.07432
4.48905 0.0513342 3.85069
0.568348 2.00734 2.94299
-0.883014 0.281672 3.88181
2.16094 3.5179 2.72928
1.42662 4.74725 2.4044
3.76268 0.220502 3.80542
3.41309 2.05643 3.09027
2.17308 5.07751 2.57007
0.0441879 2.14843 2.93662
1.63365 3.56124 2.61142
-0.234914 0.181127 4.32763
1.55995 3.57892 2.67687
4.10184 -0.732255 3.90976
-0.257621 -0.0127598 4.29839
0.9778 2.29103 2.88281
0.901389 3.61415 2.53984
-0.880661 4.09631 2.17078
-0.714743 2.2501 2.77867
0.51837 0.146655 4.43167
-0.405641 4.26552 2.27649
0.142937 3.64264 2.46243
0.687021 0.51619 4.20109
1.61321 4.54858 2.39061
1.78862 0.659203 3.88024
1.92515 3.2877 2.72355
-0.728036 1.97119 3.08721
1.03609 2.04044 3.16138
-1.22772 -0.21018 4.15363
-0.0514072 3.33381 2.52323
1.88814 0.265769 4.23674
0.715264 1.93549 3.08581
-0.927866 4.03889 2.18616
0.64999 3.24932 2.54719
2.73151 0.348147 4.09771
1.30818 2.153 3.08951
2.97906 -0.109594 3.93583
4.15227 -0.456878 4.05475
-0.394194 3.4574 2.47907
1.667 2.06456 3.15565
2.58836 0.0792401 4.00362
-1.26749 4.12712 2.15746
0.675839 3.38968 2.53611
1.10802 -1.56204 4.49768
2.09301 -0.205104 4.33418
1.50314 2.27886 3.0447
0.599694 3.46433 2.4728
-0.0396459 -1.28371 4.07659
0.0331414 2.25496 2.95635
-0.0353039 3.52197 2.41518
-0.935984 3.14858 2.05455
2.21628 3.79032 2.67049
0.357579 1.03605 4.1651
1.92325 2.29969 3.00821
-0.76285 3.7287 2.42737
0.432258 1.07834 3.89146
4.00666 2.54509 3.25322
2.49172 4.41974 2.61451
1.51754 3.83917 2.54931
0.0917719 2.37158 2.77022
-1.1033 0.729461 3.25416
3.7728 0.873551 3.53153
0.867633 3.9717 2.54871
2.07493 2.61672 2.91351
-0.770398 0.891429 3.29777
0.28744 1.23781 3.86742
1.61514 4.02358 2.54984
0.230764 2.49862 2.70667
-1.00418 -0.268242 3.2627
1.57742 2.76861 2.83136
0.967448 0.79946 4.04406
-0.578776 -0.998233 3.2355
3.39154 1.08323 3.44708
-0.403177 3.81155 2.27464
-0.00374224 -0.213256 3.31814
1.06819 2.67056 2.78824
4.2892 0.97651 3.61092
2.52373 4.2395 2.63734
-0.850078 3.37798 2.45897
3.04321 1.95814 3.18762
-1.62162 -1.19739 4.22466
2.65139 0.590145 3.68892
1.5988 4.75101 2.40758
0.607471 3.34165 2.5656
2.32704 2.00276 3.28681
-0.136277 4.36831 2.19912
-0.641375 3.39598 2.41647
1.54719 0.645528 4.1926
0.784788 2.11038 2.97662
1.57991 2.26981 3.04488
1.06813 3.56903 2.58319
0.114436 0.370047 4.23356
0.544618 -2.0794 4.42371
1.51203 2.20556 3.07966
-0.861206 0.433317 3.90192
0.756461 3.58995 2.52464
4.12089 0.0897874 3.76126
1.81074 0.12003 4.3232
1.11009 0.872251 3.93734
1.95482 3.74937 2.63277
3.84806 -1.55661 4.06401
1.53958 2.41828 2.99821
2.39569 0.239723 4.16688
0.779029 3.69946 2.47866
-0.547418 2.36713 2.84237
3.03902 -0.679567 3.86539
0.844129 2.51631 2.80739
3.82096 2.8101 2.9492
1.68881 -1.29417 4.4376
1.70675 1.02344 3.63619
-0.603175 3.69849 2.3528
-0.0834204 2.44529 2.74582
-0.935419 0.257095 3.22631
1.96913 -1.03802 4.43791
3.35629 0.731551 3.61593
0.817044 3.98319 2.5604
2.02299 2.7162 2.92379
-0.623708 0.406269 3.34614
3.27933 1.06854 3.63476
1.44163 3.9432 2.4959
0.00841396 0.959578 3.67049
0.424918 2.47279 2.63155
0.302105 1.26866 3.81886
1.07469 4.05747 2.50515
4.79768 1.22393 3.86797
1.82922 2.75778 2.84947
0.781213 4.15136 2.51444
0.283097 0.282825 3.52691
2.28731 1.4597 3.5317
2.53165 4.11752 2.49601
1.12585 2.85254 2.71248
0.781564 1.11261 3.65011
-0.64078 1.47669 3.21422
-0.616023 3.9272 2.18355
-0.844043 2.7876 2.58789
-1.33678 0.591145 3.25676
2.16448 2.42609 2.9303
4.45252 0.927617 3.50901
0.0635032 1.16997 3.82772
-0.7986 3.67109 2.3881
-1.07342 2.33164 2.6914
3.20017 -1.23076 4.02039
0.710216 2.35223 2.81066
0.566036 3.80914 2.49066
3.69824 0.565174 3.60882
-0.886093 0.463688 3.24641
-0.956115 3.74158 2.30333
0.0237095 2.48149 2.68298
-0.4007 1.23965 3.60978
1.80661 1.23306 3.62083
0.323119 3.93848 2.44637
-0.177519 2.5788 2.5864
-0.27705 0.897048 3.55228
1.42138 4.0009 2.48179
3.28187 0.964661 3.61882
-0.554615 -0.618547 3.26261
1.50759 2.66663 2.92768
1.78077 4.02548 2.46611
0.899233 2.76108 2.67923
3.99038 1.09243 3.36986
0.212171 -0.439067 3.32345
0.666287 1.45054 3.5869
0.0849811 -0.792019 3.28114
-0.397143 2.7044 2.60924
0.144257 4.05845 2.36301
0.166978 -2.39824 3.22871
1.88686 2.994 2.80253
0.461502 1.65419 3.37494
3.42276 -0.386398 4.33231
1.58013 4.09081 2.37672
-0.26836 2.86569 2.61834
1.35514 1.56678 3.52544
-0.809228 -0.0521876 4.12175
-0.226542 4.07851 2.25853
1.83273 -0.566282 4.73412
1.71031 4.20234 2.34782
-0.813456 2.94205 2.48445
2.09594 -0.421164 4.50887
0.726677 1.70557 3.32095
1.9832 -0.78913 4.97869
2.40581 1.69492 3.29447
0.423943 -1.37302 4.64556
-0.764625 3.03603 2.42059
2.12928 1.64478 3.34138
-0.55262 -0.577702 4.24187
-0.765035 3.0873 2.53432
0.39591 -1.14422 4.79838
-0.200708 1.93711 2.98785
1.17437 4.47929 2.37283
0.211651 3.22638 2.5089
2.37043 -0.907417 4.61372
1.5552 1.87664 3.26092
3.97517 -0.626735 4.12203
0.410647 3.1405 2.50697
-0.035618 3.80768 2.39991
-0.13341 2.59373 2.71013
3.37199 2.35654 3.14871
4.16298 0.876315 3.61837
-0.822285 -0.910058 3.99847
3.67826 0.785577 3.61443
-0.908724 -0.755797 3.23353
1.95312 2.56232 2.97335
3.10457 -0.913088 4.41522
1.17564 3.93405 2.48779
3.9242 -1.38511 4.37746
3.34152 2.7066 2.91963
-0.566865 -0.296921 3.28966
-0.644815 1.43221 3.33045
1.47116 4.03576 2.51177
3.39043 2.58683 2.90717
-1.32765 4.02053 2.30445
-0.724599 3.79556 2.20567
-0.467503 1.3929 3.50917
0.396357 -0.659033 3.32528
-0.345095 4.0153 2.31709
2.49949 2.78671 2.83969
1.08438 1.44614 3.47669
0.873982 4.23842 2.45013
-0.319013 1.68466 3.3096
0.286915 -2.43625 3.23581
-0.0178357 2.8351 2.51175
-0.551199 4.15433 2.29419
3.37901 1.27399 3.3956
-0.445543 2.81091 2.55655
0.00514498 4.16017 2.26052
1.62528 1.67858 3.31537
-0.148164 2.95361 2.46311
3.55158 1.53932 3.52499
2.84509 4.76193 2.68858
-0.828616 0.281069 4.15001
0.822482 2.96279 2.61727
-0.764475 3.11147 2.42076
1.26883 -0.00197178 4.56947
3.18401 1.69925 3.23659
1.15518 4.5548 2.37464
0.748314 3.13076 2.5878
2.34115 0.0223223 4.12917
3.21418 1.64329 3.35835
1.9546 4.45271 2.42295
2.01278 -0.429421 4.57676
3.49571 -0.792019 4.1975
-1.25007 -0.283811 4.11158
1.24557 3.36765 2.69547
-0.595479 1.99337 3.04171
0.403375 2.04972 2.99014
2.15153 4.20412 2.54126
-0.41147 3.34474 2.46073
-0.274332 -0.8558 4.99935
1.34497 2.00905 3.17293
0.421439 -0.674714 4.7872
-0.71633 3.30021 2.46414
4.21751 -0.385024 3.93614
0.971953 2.99762 2.65403
0.811161 1.67766 3.304
3.57716 -0.195557 3.91515
1.35278 4.16954 2.37469
4.05256 1.35955 3.50798
0.964206 4.25817 2.3574
3.77462 -0.0726439 4.03864
0.295336 2.85446 2.55148
-0.626357 3.09359 2.47565
-0.222417 4.52902 2.19145
2.89878 1.61361 3.24644
1.69453 3.23345 2.83689
2.70386 -0.292573 4.3019
1.87025 1.69677 3.37325
1.41397 4.5623 2.38829
0.664348 1.87789 3.14259
-0.397812 -0.628777 4.57342
2.13123 3.37475 2.81129
1.99418 4.26857 2.44041
-0.535532 -0.385799 4.68657
3.69036 -0.847089 4.23572
3.31069 1.79501 3.10961
2.88038 -0.998979 5.09979
-0.923225 3.3373 2.48685
0.472418 1.97298 3.13832
3.55788 -0.787133 4.39101
2.25225 3.36053 2.74183
4.03671 -0.804258 4.07795
1.31373 3.53058 2.63144
1.62325 2.13107 3.12213
0.722398 4.72451 2.38081
1.84474 2.11706 3.26145
-1.02324 4.3586 2.15714
1.71686 3.52277 2.71739
1.74755 0.757821 3.87865
3.93648 0.29774 3.74301
0.372748 2.29942 2.9485
-0.0165947 3.46244 2.44573
0.458121 4.42542 2.32798
0.27966 2.22421 2.9733
-0.773552 3.54079 2.40998
-1.26077 0.421049 3.83797
-0.378675 4.33206 2.27182
1.76353 3.75645 2.63158
2.38933 2.29582 3.05019
3.45168 0.449275 3.94654
-0.634014 0.903012 3.63934
-0.486988 2.40946 2.68002
0.461959 3.73606 2.48671
-1.06338 3.65128 2.3981
0.214556 0.251436 4.38448
-0.634531 3.68778 2.34811
4.03764 0.12901 3.96014
-0.136931 0.873787 3.85665
-1.11927 2.02604 2.68342
-0.0335387 2.38665 2.80091
1.77485 -1.59227 4.66164
1.71554 0.391239 4.31625
2.18957 1.79435 3.44904
-0.546598 3.16077 2.54416
1.22277 1.78493 3.42358
0.892901 4.64954 2.37528
0.920072 3.07501 2.64648
3.44022 -0.0539105 4.19847
0.588058 3.27581 2.57144
1.52605 4.38265 2.38072
3.46167 1.8372 3.35155
3.56942 0.0461131 3.81274
2.77602 1.75977 3.27925
4.26979 -0.595775 4.14116
2.98858 3.52717 3.00391
-0.998622 3.43271 2.51018
1.65348 4.6565 2.40343
3.43355 -0.393152 3.97964
1.11167 -0.0463317 4.51885
-0.688036 2.10872 2.95076
2.16803 3.43443 2.74292
1.00414 2.04814 3.19669
4.06525 -0.255898 4.00628
2.43414 -0.617122 4.38154
0.983341 3.45722 2.56968
1.19271 -0.372361 4.66435
3.92763 1.94044 3.11271
4.1007 0.40914 3.7629
-0.289619 2.243 2.83053
-0.55688 3.55573 2.49608
3.90166 0.0247927 3.84957
-0.986736 3.58937 2.44665
-0.0775661 2.2274 2.94197
0.398664 4.6632 2.35638
-0.486433 3.61967 2.42185
-0.774527 2.37242 2.72857
2.59302 5.25888 2.66482
3.69677 0.593388 3.76466
-1.36423 2.35029 2.85997
0.589804 2.27526 2.84253
0.21559 3.68784 2.44179
-0.111559 2.51821 2.7373
4.49609 0.541853 3.51664
2.54386 0.899656 3.57596
-0.129557 0.759066 3.92869
0.0348572 3.71089 2.3997
3.42496 2.35949 3.14742
1.32029 2.44643 2.88062
1.82553 3.92295 2.57383
2.58316 0.7965 3.59765
-0.730101 -0.457103 3.26361
-0.342722 3.81652 2.33559
1.64957 0.460745 4.08158
1.78301 2.61262 2.90505
-0.264641 0.618877 4.14987
3.48452 0.954859 3.69387
1.31071 2.23232 3.11046
-1.05333 4.19909 2.20545
-0.812437 3.43782 2.38666
-0.366168 2.12121 2.87002
3.91709 -0.268416 3.93202
2.0825 3.55152 2.69793
0.33938 4.61496 2.33961
0.819845 2.29255 2.8877
1.99485 3.70876 2.68214
-0.140854 4.18729 2.16472
-0.616215 2.25609 2.79508
1.33379 3.72884 2.59121
2.72129 0.561834 4.08294
1.68323 2.44231 2.91305
-1.40032 2.72278 2.73118
1.82509 3.80913 2.60626
4.41016 0.699697 3.73689
0.571699 0.860302 4.15296
0.924113 2.32853 2.8209
-1.0303 4.31921 2.17855
0.996183 0.881403 3.96012
1.85321 3.89826 2.61457
3.20851 0.905708 3.7924
2.17083 2.51248 2.94055
1.25103 0.419499 4.19743
0.165636 3.82426 2.41503
4.1357 0.231987 3.98208
-0.944613 0.555197 3.24243
2.99628 1.015 3.47879
0.312095 4.12814 2.47919
2.41073 2.66018 2.89223
-0.423377 0.826792 3.5135
0.639811 4.03832 2.47843
2.00157 1.1623 3.74645
-0.69865 -0.770598 3.2444
-0.637575 2.63773 2.72785
2.37981 -0.758439 4.48183
0.324751 0.545552 3.63452
4.09674 -1.16048 4.44936
1.12165 2.78247 2.73052
0.558818 1.56767 3.61548
2.19544 4.2551 2.65104
2.82404 -0.976437 4.82813
0.198823 1.49524 3.6403
0.366997 1.11769 3.70835
-0.498761 2.7198 2.63312
1.01911 4.20384 2.49663
-0.716166 -2.24369 3.13916
-0.529678 2.90151 2.5473
3.74488 1.33419 3.40136
-0.368594 4.0297 2.27081
-0.826643 2.66682 2.44693
-0.962536 -1.31885 4.42154
2.67145 1.31374 3.34629
-0.122203 4.01966 2.23387
3.64219 1.54838 3.57695
0.341345 2.91747 2.54469
-0.276743 4.06641 2.19661
-1.17578 0.0462107 3.83854
2.59822 1.49239 3.32433
-0.42207 3.0478 2.62495
-0.537467 4.0711 2.18871
4.90899 0.00192615 4.55624
2.66314 4.74946 2.68582
-0.0923482 1.8196 3.13028
-0.571761 3.10324 2.50028
3.82494 -0.424351 4.08409
0.211381 -0.0481847 4.32509
-0.189977 1.7868 3.19888
0.794211 4.5757 2.39242
1.85039 3.15615 2.78013
-0.452564 3.17469 2.43183
2.10725 1.93865 3.33404
0.658998 -0.726135 4.9756
2.76633 2.13579 3.08678
0.468362 3.07639 2.46388
0.122506 1.90448 3.11949
3.21093 -1.02746 4.22096
0.951145 -0.448172 4.94623
0.0756646 3.31678 2.46788
1.27358 2.0444 3.11795
-1.52544 -0.162239 4.08863
0.194617 3.28928 2.51129
3.25626 -1.63224 4.29848
0.446914 -0.783656 4.64511
1.86479 1.99559 3.25012
-0.561643 2.10907 2.85819
-0.664051 3.35275 2.39642
2.82178 3.29072 2.85757
2.85984 2.14468 3.05224
-0.166016 3.3851 2.38489
-0.0431058 0.742416 3.95157
3.83708 -0.286968 3.92324
-0.785223 2.18043 2.82988
0.370072 3.51681 2.46472
3.85347 0.215123 3.78193
1.68666 3.7642 2.64614
0.86616 2.35518 2.86223
-1.19352 0.324739 3.8947
-1.46747 4.01478 2.29015
2.25008 0.807849 3.90031
3.28198 -0.298637 4.07348
-0.62421 2.36623 2.85485
1.12308 3.73693 2.52808
2.7779 0.545159 3.99026
1.56279 2.51481 2.90537
-1.34267 -0.10904 3.25562
2.46524 0.92538 3.6553
2.8891 3.87564 2.65903
-0.570203 1.09728 3.50385
0.442063 2.43995 2.78558
-1.15539 0.253087 3.94247
-0.539391 3.6956 2.30676
-0.494784 0.92709 3.77135
-1.8042 3.13168 4.81892
2.15767 4.85903 2.51614
1.38451 3.43176 2.63552
4.13235 0.117013 3.81776
0.835231 2.00201 3.09668
2.04829 3.49446 2.78429
-0.999772 0.582788 3.65984
2.58159 2.10663 3.09054
-1.01668 4.22896 2.20372
-0.242634 0.712579 3.98057
1.42941 3.58355 2.6224
2.25435 2.10111 3.1713
-1.4102 0.45563 3.32439
-0.217341 3.31124 2.39179
0.162158 2.26762 2.79889
-1.51192 2.01955 3.10971
2.03476 3.68217 2.67015
-0.155009 0.282007 4.25785
-0.503154 4.35647 2.25867
-0.538471 3.63983 2.43597
0.704288 2.21935 2.89722
-0.514648 0.403324 4.2445
-1.30341 3.10071 2.52542
1.08538 0.121891 4.43235
0.183429 3.68293 2.43828
2.19339 2.34814 2.98932
3.33918 0.590384 3.64962
3.13908 0.0946446 3.75068
2.54611 -1.08363 4.29938
-0.955705 3.69267 2.34417
1.44836 1.11398 3.78071
1.22609 2.5788 2.93343
3.73666 -0.873805 4.00673
-1.06813 2.19325 2.5665
2.47705 0.859233 3.73126
1.54152 3.87913 2.53254
1.00955 2.45861 2.87219
-0.890349 0.891326 3.22455
0.866001 1.34952 3.68415
-0.469793 3.78502 2.32031
1.39261 2.63801 2.7981
-0.94816 0.00275173 3.27447
1.07332 1.23556 3.69651
1.67916 3.97948 2.48721
3.62138 -1.4323 4.25789
-0.159405 0.85429 3.58803
0.188526 2.48329 2.63018
0.368482 0.928603 3.70531
2.4268 2.79615 2.85293
1.90678 1.33013 3.489
1.3953 4.02846 2.45742
0.181974 0.761005 3.61726
0.715049 2.67832 2.68795
1.15659 4.10247 2.44172
3.77061 1.0527 3.53548
-1.35297 0.66233 3.26384
0.449485 2.87036 2.59637
2.03115 1.52048 3.47831
0.0499814 3.99922 2.27827
1.23996 2.8374 2.71207
1.02075 1.52451 3.41312
0.454986 4.1782 2.35235
-1.4321 0.650953 3.33097
-0.921535 3.4548 2.41311
0.400069 2.2249 3.00369
1.48998 3.72422 2.67846
-0.74135 4.18397 2.10399
0.673146 2.26558 2.84804
2.41339 2.20751 3.07875
0.0172114 3.58956 2.43078
-1.10783 3.81927 2.32108
1.69494 3.79669 2.59883
1.8616 0.90287 3.69222
3.34544 0.469441 4.03576
1.76121 2.43902 2.94156
-0.269866 -1.41557 3.86212
-0.906964 0.796434 3.74347
-0.366302 3.70571 2.38302
-0.833821 0.716477 3.84346
-0.447696 2.3982 2.79433
-1.08181 2.24008 2.55248
2.29741 2.55111 2.89574
3.37878 0.323575 3.96513
-1.05009 2.70671 2.68576
3.9745 0.79079 3.27497
1.64096 3.90635 2.56403
1.14841 2.54313 2.90625
3.50213 3.30635 2.7913
-0.692139 1.00822 3.65589
1.53978 3.92661 2.50456
-0.768613 2.68225 2.5802
-0.740706 -0.899702 3.22974
-0.701699 1.40316 3.32587
1.88543 -0.823755 4.88732
1.84803 4.00509 2.51349
1.81152 2.69516 2.90551
1.52224 -0.566451 4.42068
0.224652 0.218042 3.49556
3.73316 0.975915 3.58372
1.72838 4.01483 2.47233
4.41292 1.14471 3.66277
-0.984381 -0.992697 4.18879
0.260288 2.67678 2.57984
-0.889571 3.79362 2.17366
-1.31083 3.92702 2.31185
-1.14492 -0.892706 4.27282
-0.704531 1.64015 3.2088
1.38819 4.11842 2.40524
1.64157 2.99244 2.81207
-0.742278 -1.91335 3.14971
-0.0454434 1.65513 3.48252
-0.657982 3.56565 1.87756
4.13689 -1.4834 4.54219
0.842202 2.78959 2.65236
1.24649 3.07823 2.68374
1.11532 4.22309 2.34752
2.05427 1.64829 3.352
2.23018 3.01051 2.77733
2.18898 -1.28267 4.48059
3.08025 1.41164 3.30462
0.981001 -0.980467 4.77202
-0.762236 2.67175 2.76271
3.82027 -0.839149 4.22432
1.26418 3.92563 2.4883
1.42097 1.18861 3.69574
-1.00801 -0.118369 3.25828
1.34948 1.33712 3.56577
-0.660488 3.8162 2.27182
-0.645975 -1.38417 4.33367
0.453846 2.59798 2.59145
-0.272754 0.58197 3.48784
0.526326 4.05833 2.44419
-0.840549 1.38072 3.44587
3.12757 -1.07475 4.028
0.84064 2.62023 2.73605
-1.26082 4.08731 2.27552
-0.524772 2.79085 2.5409
-0.823805 3.88723 2.22452
2.80628 1.3471 3.45949
-0.798946 1.48964 3.28533
-0.601965 -0.0401369 3.31103
-1.17859 -1.70084 3.16462
0.347287 2.67783 2.5767
1.89728 4.17703 2.46345
1.96725 3.01713 2.76038
1.84417 1.57076 3.35346
-0.720497 3.9425 2.14802
1.45453 2.96385 2.76342
0.543927 1.5963 3.34092
-0.762263 4.01181 2.15546
3.2198 0.100836 3.94445
0.191186 -1.25037 4.58012
3.17951 0.243979 4.05154
-0.66886 3.05735 2.53966
2.2733 1.6149 3.32354
3.11536 1.68097 3.21628
1.16207 4.39145 2.36746
-0.470712 3.17899 2.49881
3.87711 -0.279654 4.18187
-0.83461 1.91563 3.19989
1.99604 4.20368 2.44886
1.62642 3.23892 2.76626
0.625966 0.0942493 4.55056
1.40147 1.98371 3.17092
1.46097 4.4528 2.38832
-1.17038 -0.378236 4.43223
-0.474294 3.23267 2.42591
3.39072 1.81616 3.32478
4.79218 0.302222 3.935
2.26315 -0.259667 4.29989
2.10204 3.40628 2.77892
0.145132 -0.767028 5.21452
0.464609 3.41287 2.51419
2.53635 2.04821 3.14576
1.42499 4.69441 2.39925
4.03187 0.062166 3.74885
-0.486809 3.3066 2.4365
3.74797 1.94878 3.298
-0.40369 2.74328 2.60081
3.79589 -1.79636 3.83813
-0.621649 -0.669278 4.5519
2.03264 1.28343 3.45139
-0.71656 3.84062 2.23809
-0.541842 2.67433 2.60775
0.606341 0.773045 3.70268
0.264 1.49671 3.69563
-0.37195 -0.417868 4.42144
0.227759 4.04372 2.38272
-0.949409 -2.03942 3.136
0.826232 -1.03756 4.93135
-0.0245143 2.69821 2.50333
0.294529 4.14317 2.39212
3.43173 1.23045 3.35286
4.44439 -0.862917 4.50883
-0.944484 -1.01536 4.10844
0.589665 4.21819 2.38617
0.071912 1.70158 3.29155
0.437696 2.9562 2.6071
0.418645 4.22204 2.32879
2.5498 1.44673 3.43849
1.39042 2.97448 2.78807
0.129102 -1.22974 4.55979
2.94869 1.54591 3.18096
-0.164015 3.08498 2.51436
-1.30611 -1.38844 4.23023
0.462832 1.73751 3.2336
1.82576 4.5622 2.41627
-0.0365075 2.99972 2.53166
-0.0526407 3.21048 2.49994
0.96354 4.42359 2.37302
1.37685 1.95121 3.26653
-1.1868 0.39621 3.86214
-0.625725 3.14385 2.46896
3.03169 1.69505 3.26108
1.00272 0.641584 4.14153
1.31158 4.51156 2.37851
2.73184 0.105726 3.82164
3.45759 3.22724 2.85585
1.66036 3.40622 2.7014
0.540364 0.351472 4.35451
2.21343 1.93513 3.21503
-0.41697 2.1177 2.89384
3.26078 -1.64541 4.34986
0.152267 0.0653562 4.3374
0.941752 3.51391 2.61909
1.1043 2.09816 3.17174
0.00672035 3.32012 2.47548
2.17959 5.07631 2.40738
1.37215 -0.249667 4.49763
2.10722 3.64369 2.71608
-0.418943 2.1564 2.72361
-1.33837 0.139386 3.31024
4.67108 -0.263031 4.37463
0.657965 3.56877 2.52767
-0.94751 2.2839 2.93825
0.836872 -1.31294 4.31238
0.052924 3.14538 2.49786
2.54934 0.27183 3.95375
2.19089 1.76328 3.22019
2.09815 4.12128 2.58654
2.82204 0.376358 3.94325
1.11995 3.14634 2.64536
0.724676 1.81922 3.25556
1.96184 4.37791 2.44184
3.6226 1.7015 3.1917
-0.715148 0.100243 4.2985
-0.136837 3.1808 2.45834
1.8718 4.39899 2.40555
0.908876 0.216505 4.51127
-1.17738 2.1407 3.0106
1.76419 2.09285 3.24909
0.773973 3.41361 2.59259
2.83138 1.84352 3.14933
0.684329 4.62324 2.37506
3.32636 -0.254722 4.27087
1.44283 3.39687 2.67382
1.05648 -0.413383 4.81192
0.711769 2.18657 2.9979
4.03079 0.185383 3.79118
-0.00133413 2.08992 2.90524
1.15045 -0.232308 4.6054
4.23746 -0.369411 3.82454
0.0247587 3.40208 2.47724
0.950155 3.55368 2.58059
-0.728255 2.34642 2.8246
0.654349 -1.0927 4.30459
-0.831677 3.54055 2.42413
2.7966 -1.56247 4.276
0.627288 2.18551 2.85581
-0.93939 3.638 2.42241
2.06822 2.37168 3.01687
0.616224 3.70288 2.47918
1.6624 0.838104 3.85289
-1.34439 2.76506 2.67248
1.88977 0.999657 3.67756
1.57544 3.82386 2.56424
0.619122 2.437 2.73421
-1.16123 -1.81091 3.40911
-0.153464 3.77922 2.39412
3.62314 0.615015 3.61149
-0.801547 1.21903 3.3013
1.49428 2.46505 2.94702
3.90147 0.307474 3.81803
0.251175 4.00602 2.50517
1.54015 2.6871 2.87281
-1.0847 0.39055 3.25388
0.780861 1.30323 3.59958
3.74792 0.798242 3.43722
1.70649 0.794127 4.11962
2.59817 2.56955 2.94385
0.0114023 0.854305 3.64429
-0.70588 3.79139 2.26107
2.44341 3.43013 2.76656
3.26429 2.14338 3.18576
1.39992 0.577434 4.04742
-0.735365 2.02953 2.97732
1.41302 1.89172 3.20029
3.99322 -0.42144 3.94408
1.77571 3.35958 2.73497
4.68659 0.464624 4.06711
2.69609 0.366262 3.89695
0.212756 3.44246 2.52483
4.29155 -0.633768 4.10969
0.636482 2.08084 2.96286
0.141711 3.30751 2.47569
3.98064 -0.0569232 3.87961
2.46953 2.00322 3.22367
-1.13646 0.234061 4.31727
0.850151 3.54513 2.5766
-0.745171 0.233532 4.09918
2.08534 2.09402 3.04448
4.84807 -1.057 3.87121
-0.0748048 3.45898 2.40126
2.59037 2.23443 3.03164
2.5067 -0.158408 4.40197
-0.324834 0.0758395 4.31437
0.0926012 2.22475 2.87412
-0.616037 3.6184 2.42947
-0.0180244 4.55077 2.25847
1.87024 -1.63808 4.26647
0.112606 3.69777 2.46626
1.43404 2.43496 2.91975
-1.3274 3.25837 2.38559
1.13565 0.994924 3.78191
4.59489 0.516327 3.52066
2.53795 2.31776 3.00322
1.21849 3.78518 2.52888
-1.12616 -1.36204 4.22576
1.72077 2.57775 2.90037
-0.874654 0.829055 3.25883
3.78979 0.784347 3.422
0.866839 3.89975 2.53013
-0.516959 0.459199 3.37157
1.75387 2.51319 2.95055
-0.650652 3.71516 2.26783
3.91776 0.726384 3.55888
-0.891095 -1.08958 3.29789
0.683359 4.02442 2.48705
1.29151 2.62617 2.7906
3.91286 0.931809 3.53521
3.26916 1.1592 3.47273
1.13174 4.00786 2.44233
-0.1151 -0.448663 3.2846
-0.701847 0.783536 3.76886
1.05859 2.7537 2.72741
1.72624 4.07122 2.46839
4.23886 1.00469 3.44625
0.295468 -0.0578137 3.41736
-0.12756 2.63664 2.60204
3.68927 -1.51975 4.06707
0.522275 2.35281 2.83118
0.590947 3.64542 2.50894
-0.493803 2.34313 2.85068
-1.28627 2.3099 2.86644
1.23607 3.7196 2.53404
-0.287632 2.46679 2.7007
-1.18699 0.202086 3.27628
-0.265181 3.70889 2.39709
0.810207 1.12432 3.96069
1.04971 2.42456 2.86015
-0.898065 1.27123 3.2985
1.67431 0.991787 3.89981
0.770372 3.8553 2.49765
1.77702 1.10889 3.66639
0.57516 2.51285 2.70272
1.56607 3.90773 2.50041
-0.573246 0.155076 3.32726
3.04877 0.607268 4.01342
-0.554297 1.4108 3.37042
0.916344 4.09997 2.54785
2.12012 2.72931 2.87284
-0.155163 0.554743 3.49613
1.49257 0.913779 4.0833
0.391494 4.11084 2.47787
-0.00883767 1.33183 3.47871
-0.731131 2.59258 2.60215
0.360552 -0.0326939 3.43332
0.38266 0.189944 3.52461
-0.735135 2.85049 2.60614
4.69866 -0.511088 4.09004
1.12811 1.48932 3.41634
-0.260408 3.87193 2.24269
-0.290384 -2.3437 3.17097
2.27954 2.82074 2.88646
1.81319 4.10578 2.42315
1.77021 -0.302309 4.50502
-1.07242 1.45093 3.44258
0.373657 2.92557 2.58429
-0.510798 1.72194 3.23037
1.80768 4.13126 2.38449
0.561103 2.84032 2.59523
0.69036 1.57227 3.32225
2.72111 -0.674156 4.46547
-0.33429 1.80111 3.21243
-1.14156 -0.760677 4.00704
1.66423 4.20898 2.37276
0.752935 3.0479 2.62619
3.9743 -0.890242 4.72013
0.628498 -0.820539 4.744
1.56743 4.60961 2.39612
0.333203 1.88592 3.15999
-1.10598 -1.43365 4.33299
-0.0334634 3.15325 2.50827
2.78848 1.63198 3.29302
3.38341 -1.12072 4.19458
1.21316 4.56598 2.37614
1.82024 3.20205 2.74544
-0.352454 1.20525 3.62663
0.956393 3.83895 2.55434
1.08013 2.48805 2.85279
-1.30818 0.874714 3.27542
2.19069 3.93004 2.6125
1.3024 1.01238 3.91076
-0.478929 -0.0331897 3.37243
-0.761718 -1.05798 4.31561
1.54472 2.46504 2.97142
-0.310223 2.60994 2.64411
-0.810151 0.692034 3.27352
2.63326 1.05218 3.52782
0.768236 3.97112 2.51902
3.95726 -1.53654 4.34665
1.14118 2.61143 2.88497
-0.173375 -0.15762 3.34042
-0.254636 1.26997 3.5753
0.595301 4.02423 2.48933
-0.777764 2.78205 2.62119
0.198952 -0.659953 3.29335
0.769817 1.45058 3.51911
0.216622 4.09843 2.47064
0.223195 2.59399 2.59498
0.145054 -0.285345 3.33436
0.527533 4.08176 2.4214
3.29819 1.01181 3.383
0.735396 1.50991 3.3989
2.07582 2.86777 2.83534
0.769603 4.10834 2.40068
-1.01553 -2.17462 3.12265
0.130179 1.74345 3.36244
1.2321 4.17791 2.39535
-0.596059 0.0569576 4.17395
1.34286 3.01548 2.74719
-2.38571 2.69493 6.39351
0.286014 4.16518 2.29146
0.520156 2.815 2.58212
1.88928 3.21506 2.77713
1.55706 -0.287938 4.6601
0.892674 -0.849414 4.75542
0.0088756 1.85156 3.22555
3.98097 -0.320072 4.17163
0.988938 1.75074 3.34327
2.06948 4.73939 2.51546
-0.338708 3.02347 2.54888
2.36887 3.35122 2.76181
2.04767 -0.708467 4.99775
2.00607 4.18173 2.48217
2.45519 1.85316 3.29675
-1.03883 -0.417775 4.21638
-0.554801 3.18424 2.51716
-0.487012 1.89332 3.08123
0.827176 4.56027 2.39143
1.26663 3.36779 2.65824
4.57084 -1.05874 4.80964
3.9925 -0.734662 3.90177
0.0395444 -0.818103 4.72031
0.337022 2.03063 3.11052
3.12852 1.36189 3.39112
1.14658 4.09391 2.39307
-1.28354 -0.303557 4.08882
-0.0941825 -2.37623 3.23557
-0.0946286 2.832 2.55014
3.17758 1.26689 3.40515
-0.634281 3.9365 2.16148
-1.21211 -0.037957 4.12774
0.738021 2.77668 2.63493
1.81557 3.1183 2.77276
2.79275 -0.531285 4.23958
1.06931 4.20242 2.34337
2.76135 1.55446 3.31464
-0.0890414 2.95282 2.57056
0.769196 -0.854063 4.7187
3.42299 1.47257 3.4876
1.6438 -0.767596 4.50048
2.67022 4.46359 2.53727
2.82567 -0.686432 4.40888
1.28047 3.18536 2.70353
1.22109 1.82282 3.36574
-0.875203 2.00599 3.06922
1.89052 4.53064 2.41744
0.731358 3.27677 2.60118
3.30196 -1.24634 4.7576
2.80113 1.68387 3.21828
4.63072 0.661628 3.76546
1.17327 -0.997957 4.84551
-0.520483 3.2188 2.53873
-0.196939 2.03576 2.92842
-1.32926 1.30843 3.39037
0.888349 3.38314 2.5856
1.04227 -1.66998 4.65776
0.617672 1.98628 3.07666
2.75237 0.682422 3.76976
0.0406792 3.2738 2.50455
4.12147 -0.446678 4.0012
2.43699 0.496663 3.85255
-0.74681 2.16684 2.83388
-0.307485 3.40135 2.46937
3.44694 0.504975 3.89518
-1.22653 3.70657 2.27509
2.012 2.04599 3.12087
-0.398505 3.5003 2.47775
-1.25446 2.94983 2.51774
1.71805 0.31926 4.14287
2.10602 2.23093 2.98998
-0.455919 3.50915 2.41972
-0.398355 0.458907 4.13447
0.382137 4.38117 2.25718
1.11032 3.67945 2.56098
1.14782 2.21276 2.97114
0.338793 0.0448816 4.43541
-0.601541 2.3737 2.77154
0.966139 3.71914 2.53125
-1.30984 3.04898 2.53487
3.50559 0.0270431 4.00666
-0.816369 4.06684 2.19836
-0.601249 1.81354 3.23461
1.99847 0.124279 4.16218
1.50706 3.10939 2.74823
-0.384749 -0.825883 4.49106
1.17403 0.391331 4.33815
-0.941102 1.77064 3.29245
0.563561 2.91448 2.5966
3.99157 -0.352978 4.09799
3.79606 1.59507 3.24251
2.5121 4.92769 2.64174
-0.649479 3.1186 2.45702
0.22447 0.0326108 4.42799
-0.539479 1.8431 3.14709
1.18579 4.38606 2.36764
-0.0056161 3.07536 2.53305
1.00446 3.36857 2.6426
-0.0908598 1.98874 3.01042
1.92297 4.30986 2.41733
2.27063 -0.53171 4.38371
1.20293 3.2561 2.61816
-0.343662 1.99882 3.11811
4.0044 -0.801486 3.92701
-1.03331 -0.275145 4.19247
0.598109 3.45944 2.55581
2.34365 2.02108 3.12604
-1.21128 -0.6801 4.24701
3.89907 -1.17457 4.06276
0.97184 4.74115 2.37957
2.29067 3.45865 2.72533
2.10449 -0.719095 4.86617
3.22895 1.9189 3.21447
2.68257 2.04714 3.0576
1.27984 3.5678 2.62496
-1.29769 4.03734 2.15696
1.55178 3.6982 2.67192
0.344004 0.856029 4.18557
3.7923 -0.0251185 3.90929
0.73333 2.28476 2.90025
3.96481 2.11473 3.17676
1.19087 3.71649 2.60124
0.148265 4.26934 2.22274
-1.48477 1.8056 3.22432
-0.845109 2.43372 2.71732
3.48301 0.373372 3.92968
1.38709 3.75513 2.58186
2.82388 0.742238 3.6781
-0.201319 2.42846 2.87285
-1.36219 0.209353 3.25915
1.22593 0.69093 4.03403
-0.145739 3.72172 2.42123
1.42305 2.62331 2.93099
3.60395 2.27886 3.20114
1.88506 1.08161 3.68912
0.317804 3.81213 2.45088
-0.909352 2.59832 2.81635
-0.67741 0.614117 3.3698
4.4572 0.835596 3.60155
1.30533 0.480501 4.15914
0.147485 3.91562 2.45422
4.94423 -0.733913 4.06423
-0.951482 2.12887 2.88769
1.44825 3.52099 2.65642
0.472812 2.016 2.99884
-0.11398 3.31485 2.47181
4.24163 -0.635575 4.0133
1.62546 0.756932 4.08947
0.756827 3.52649 2.56302
-0.230918 2.21881 2.84529
4.20411 2.19972 3.2832
0.956902 2.18339 3.04083
-0.0413325 0.855617 4.02666
-1.14718 2.73304 2.7056
-1.00414 3.53331 2.41964
0.159715 2.33393 2.78321
0.660593 -1.02392 4.19431
4.23043 0.167627 3.83319
-0.444088 3.60738 2.43655
2.15452 0.539989 3.88618
3.63698 2.55021 3.01291
0.56116 2.26247 2.8471
0.368741 3.66635 2.46268
-1.4609 0.857214 3.26617
0.301923 0.197685 4.38216
1.45077 3.82634 2.5704
2.09329 2.38804 2.9457
0.711173 0.957382 3.83188
-1.81035 0.218531 4.89709
1.72704 -0.926913 4.66112
2.89991 0.949251 3.63724
1.76595 3.86214 2.55158
2.08138 2.56348 2.92554
-0.821636 -0.239765 3.27787
2.77809 0.854015 3.63346
0.439165 3.90338 2.45323
0.201049 2.44681 2.73761
-0.680525 1.05865 3.36065
0.992437 1.31005 3.45686
0.357894 3.92785 2.41052
2.89226 -1.59021 4.33348
3.38633 2.64837 2.91474
-0.209744 0.419644 3.43903
2.33037 1.16714 3.68938
-1.33183 1.90707 3.00141
1.94465 -1.19587 4.43359
2.31839 2.6193 2.88475
-0.398089 3.92064 2.31826
-0.116666 2.82047 2.62154
0.239074 -0.303482 3.34613
-0.485858 1.58248 3.30739
0.327086 4.04216 2.3908
0.648354 2.69405 2.63547
0.0112407 -2.39638 3.25587
0.705383 4.18386 2.44403
-0.177121 1.48349 3.40471
1.88084 4.18946 2.42976
2.83597 2.95926 2.89293
3.45141 1.34789 3.43964
4.35133 0.0663808 3.73466
0.149978 3.55482 2.49237
1.46816 2.26386 3.09607
-0.191899 3.57866 2.43745
4.11158 0.371941 3.5648
2.68736 2.28938 3.0072
0.702387 3.64687 2.46913
1.83167 2.27124 3.01806
3.26711 -1.4793 4.10682
0.853469 3.78667 2.51584
0.48965 1.17205 3.79072
-1.23386 0.571246 3.27951
0.649829 0.796263 4.18253
0.346428 2.45235 2.75624
-0.542884 0.872353 3.76271
-0.846298 1.08399 3.29056
4.73626 0.667092 4.235
0.468756 2.40389 2.81241
-0.575944 3.67727 2.31837
1.71783 2.69815 2.92575
0.525936 0.554246 4.10739
-1.02315 1.48788 3.26894
2.04511 1.18501 3.67973
-0.466703 3.74754 2.32168
-0.295397 -0.0996068 3.31493
-0.799161 2.61512 2.73326
-0.851 3.82268 2.29447
4.04963 0.805232 3.61047
3.50076 -0.794701 4.69842
-0.353788 3.90584 2.32127
-0.500528 -0.936115 3.23341
2.64052 2.66843 2.88596
-0.539715 -0.52291 4.54116
4.43753 1.07167 3.71383
0.896467 1.49821 3.43227
-0.547413 3.89368 2.25552
0.120674 0.224254 3.48017
2.40249 -0.961886 4.72449
0.393726 2.75456 2.61389
0.820417 4.1416 2.42031
-0.0812045 1.47293 3.42664
0.909852 -0.890878 4.99369
-0.0363058 -2.44362 3.25123
0.532935 2.68032 2.62429
1.01545 1.64379 3.39254
0.530581 4.17717 2.37084
1.04516 2.95676 2.67314
2.06386 1.45309 3.40261
0.555665 4.25194 2.37364
-0.211298 -1.29231 4.64026
-0.466836 2.84945 2.5504
-0.842131 3.16579 2.57099
0.226574 -0.790083 4.54418
1.64175 1.71747 3.26425
0.294054 2.95514 2.53473
-0.424886 1.76161 3.17253
0.630966 -0.406509 4.70214
-0.654077 -0.646658 4.00338
2.47265 1.06227 3.52491
0.0205903 2.5566 2.62647
-1.24115 -0.748132 4.88449
0.55022 4.14357 2.58446
-0.431563 -0.39105 3.27866
1.28156 1.39701 3.52829
0.172654 4.05136 2.44144
4.09457 -1.2346 4.42825
2.15952 2.75892 2.82771
0.673513 -1.87237 3.34429
-0.391329 3.99882 2.33294
0.587082 1.41718 3.63722
-0.783132 -0.835352 4.00047
1.84094 2.69075 2.83884
0.149109 -0.0299306 3.39779
0.796533 2.8501 2.64083
1.29286 4.09216 2.4065
5.02514 1.59333 4.15403
-0.759117 1.60183 3.32741
-0.902431 -2.1286 3.1271
0.587436 2.74345 2.60869
0.862552 4.21722 2.41355
-0.188628 2.89941 2.4412
2.49012 1.54597 3.28568
1.29221 4.26209 2.40336
-0.457459 3.02906 2.63478
2.34851 1.47834 3.34158
0.439052 -1.08204 4.66655
3.88739 0.0333889 3.85268
-0.696889 1.86396 3.15199
-0.226393 3.08441 2.53182
1.24767 -1.56265 4.77499
1.99373 0.449896 3.9899
1.84252 4.6084 2.41924
2.25577 1.79946 3.20725
1.86371 0.0184249 4.3014
-0.782606 0.179 4.06141
2.67075 1.68195 3.21978
0.488683 3.14379 2.48086
0.956219 4.58256 2.38225
2.0174 3.29066 2.76918
-0.43116 3.27106 2.4336
-1.51685 -0.42121 4.28467
2.57577 -0.380436 4.5354
1.99044 1.97391 3.14175
2.94761 1.75936 3.0921
4.6418 0.27998 3.76603
4.6514 -0.379605 4.50544
-0.372267 3.22655 2.45445
0.127114 -0.638806 5.05008
1.86209 3.59142 2.67666
1.3238 4.72937 2.38173
1.25056 2.17126 3.07064
1.03194 3.44402 2.57651
-1.33216 0.0800003 3.31243
1.78039 2.1555 3.2497
-0.767742 2.83457 2.61878
0.0631898 0.129517 3.42172
-1.1225 -0.448984 4.38619
-0.302943 1.58412 3.38787
0.824345 4.08998 2.45188
-0.759825 -0.297382 4.64653
-0.375761 2.73919 2.61935
-0.453405 -2.21087 3.18357
0.405917 1.49354 3.56394
0.100047 4.13227 2.38661
3.57215 1.32174 3.4404
1.8434 2.96504 2.83731
-0.538581 -0.718274 4.31094
0.091843 4.10153 2.30822
3.17406 -0.7446 4.41889
3.34041 -0.98542 4.33001
0.253489 4.12673 2.27938
1.7184 1.64227 3.31705
0.894728 3.0042 2.63519
4.1805 1.41579 3.56559
0.360265 -0.54536 4.59395
1.61254 3.02447 2.78145
0.70004 3.15552 2.57241
0.631017 -1.49251 4.72158
2.15077 1.75867 3.27387
2.84212 -1.15642 4.12503
0.902949 1.82379 3.3208
4.19248 -1.31813 4.37646
1.74797 3.18074 2.74776
1.75306 3.40003 2.72718
3.97434 1.70699 3.32514
1.26941 2.04402 3.28834
1.83692 0.553753 3.92918
-0.955723 3.26116 2.51731
3.42877 1.85596 3.44084
3.81484 0.357317 3.73723
-1.61027 -0.31248 4.29843
-1.0839 0.205697 4.07711
-0.940402 4.33225 2.17037
0.410191 3.26746 2.47928
4.34869 0.152797 3.92783
1.92079 2.04998 3.24586
1.71553 2.16799 3.12696
1.40165 0.156467 4.25042
1.47595 3.5707 2.6402
4.15501 -0.238258 3.93394
0.164254 2.11832 3.00737
1.58631 3.54135 2.69205
-1.14873 3.67288 2.37136
1.92029 3.64896 2.66113
0.709076 -0.122286 4.67927
1.30101 2.2963 3.00712
-1.47323 1.20396 3.28987
2.67249 -0.0386636 4.00073
2.27657 2.13701 3.02741
-1.38958 3.86923 2.30816
-0.22439 3.58822 2.44509
-0.281762 0.438752 4.2782
0.908399 3.27657 2.62724
0.0658326 1.94068 3.103
3.4898 0.276714 3.72503
4.31953 2.03868 3.3186
0.788508 3.18895 2.60117
-0.359878 1.89623 3.10772
1.65222 4.42166 2.38848
2.62382 1.83882 3.16882
2.48098 0.142027 4.13958
1.32205 3.32073 2.62903
-1.56177 -0.585422 4.18002
1.87974 0.260333 4.06125
2.43648 2.04597 3.18539
3.20344 -1.62497 4.30722
-0.126678 3.37261 2.46497
0.164517 2.09115 3.07324
-1.24113 -0.110855 4.28722
3.48408 -1.49609 4.14246
1.13565 3.41374 2.63192
1.95804 -0.33892 4.60559
0.506897 -2.09675 4.43745
1.3621 2.25205 3.06795
0.41703 3.48069 2.51706
1.77547 -0.195595 4.29567
0.850897 -1.39054 4.46237
-1.12085 2.41262 3.12258
0.822622 3.60547 2.57183
3.97875 0.272645 3.68232
1.86419 2.36809 3.02746
1.53467 3.78474 2.6778
1.97218 2.2427 3.00601
-0.635367 4.27534 2.20142
-0.727533 3.66177 2.41676
1.04405 0.942563 3.96805
-0.199681 2.49189 2.85844
0.322403 3.74751 2.46484
3.22726 2.27321 3.11829
2.27656 1.07415 3.80773
1.20407 3.843 2.51921
2.56507 2.57577 2.98339
-0.641836 0.686811 3.46647
1.81785 3.97258 2.57954
4.16688 0.713811 3.67316
-0.846092 0.575685 3.27983
0.136175 2.48578 2.77522
1.03339 3.94364 2.46393
3.9137 0.382961 3.8345
-0.472035 2.70067 2.67048
-0.0701363 0.871022 3.61832
3.45287 1.03642 3.4837
0.916019 1.31953 3.71175
3.02893 0.63926 3.83525
0.549857 -1.69837 3.35821
2.78519 2.67033 2.98859
2.53849 4.23572 2.66714
0.147872 2.60122 2.61037
-0.32351 -0.0834861 3.31246
1.97882 -0.827157 4.78959
0.768606 1.38015 3.61736
0.0552339 3.91843 2.40524
-1.42437 2.32105 2.71568
0.0991571 2.53176 2.61666
-1.47924 -0.617307 4.63184
4.20384 0.888283 3.49215
0.006413 3.92446 2.35638
0.96089 2.77884 2.68362
0.240397 -0.0109769 3.42168
2.60217 1.33953 3.49866
1.17237 4.08235 2.45923
-0.0908039 2.67865 2.57827
-1.43614 4.12979 2.32073
2.36613 1.23388 3.48727
3.31031 -0.987642 4.05139
1.24025 4.06783 2.39744
0.146605 1.6406 3.4045
0.383809 2.79968 2.57076
3.82622 -1.32897 4.56997
1.1733 4.1537 2.38498
1.04393 4.18331 2.35153
2.45728 1.63828 3.45929
-0.468718 3.05765 2.59505
3.7096 1.46019 3.57548
1.60628 4.20199 2.32682
1.94935 2.99964 2.79076
-0.423058 3.10037 2.46338
2.72952 4.9432 2.58858
-0.445507 0.207174 4.13529
1.96988 1.83084 3.37538
2.74785 1.6367 3.32649
0.841958 4.41282 2.39846
4.17355 0.160004 3.94606
1.06253 3.06386 2.60153
0.898664 3.29519 2.58787
-0.369462 1.9905 3.00725
1.8423 4.37931 2.4017
-0.719991 3.13543 2.42437
-1.8694 0.026027 5.43603
-0.961863 2.01404 3.10745
0.41209 -1.85113 4.6688
0.932188 -0.149086 4.6198
3.09509 1.86605 3.14731
1.74193 3.44015 2.70459
1.16547 -1.7391 4.73807
2.81478 -0.0700034 3.9771
-0.0103987 2.14784 2.90968
3.24282 -0.560023 3.97153
2.15265 3.61367 2.71628
-0.944764 -0.35079 4.43798
3.29287 1.975 3.21012
-1.23686 4.13993 2.13732
-0.0383068 3.43344 2.52533
3.96812 -0.261118 3.92361
0.126765 2.99513 2.48448
-0.26264 -0.68954 4.4528
0.22461 0.148948 4.39909
0.52811 1.77917 3.17928
0.139931 2.9156 2.50293
2.87768 1.49898 3.26723
1.77858 0.270566 4.11531
0.961391 -1.51806 4.78893
0.563411 -0.170192 4.75328
1.42127 4.49753 2.38617
0.148254 3.06763 2.46027
1.40779 0.0155483 4.32401
0.989426 1.90804 3.30745
0.945195 1.98819 3.1556
2.26308 4.23052 2.63477
3.56339 -0.462991 4.03954
1.70975 3.38936 2.7124
2.42767 1.85172 3.31799
3.5981 3.05491 2.91693
2.02168 3.36228 2.77478
2.07307 2.0235 3.1248
2.90049 -0.736632 4.50076
4.57271 0.272976 3.71854
1.3845 3.49415 2.64432
4.36322 -0.678939 4.55511
-1.91011 3.46029 5.44392
4.1273 -0.244248 3.96541
0.550706 3.31658 2.5218
-1.16033 3.64079 2.40536
0.759715 2.19442 2.92696
0.995975 3.51162 2.56932
4.21921 0.309252 3.73722
1.4196 2.16631 3.08547
0.730347 3.60026 2.5699
4.19427 0.167875 3.58893
-0.0505708 2.30158 2.76449
-0.553227 3.6074 2.44435
-0.749983 2.29309 2.80167
0.0153575 3.59424 2.40134
2.85642 0.696158 3.58254
3.69408 0.501698 4.04182
2.44684 2.36097 2.97044
-0.577716 4.32772 2.25853
3.06492 0.605498 3.7612
0.0875864 3.69174 2.42056
-1.28273 0.572288 3.27993
0.760387 0.41897 4.21055
0.472471 1.2335 3.7209
-0.0544785 3.76793 2.41233
0.683462 2.50226 2.73502
1.01325 -1.04315 3.8718
1.72103 0.516768 4.10176
0.360154 3.832 2.41778
-0.958153 1.00696 3.63943
2.99781 2.40593 2.95955
3.21265 2.39803 3.01869
1.01976 1.91829 3.22324
4.67407 0.0691037 4.0284
1.74234 3.33407 2.74189
-0.654154 1.92503 3.15118
4.28498 1.9666 3.44002
0.463201 0.528426 4.16577
1.3026 3.20263 2.66411
-0.613158 3.28649 2.44559
1.56031 0.288984 4.19539
1.44725 1.98926 3.11907
0.819465 -1.78456 4.72027
-0.506424 3.18268 2.41638
2.11561 0.39606 3.92036
1.14824 1.9762 3.18828
4.61844 0.217677 3.71699
-0.902155 -0.0826187 4.17757
0.834891 4.76332 2.38535
1.10934 3.52354 2.59358
-0.650333 2.10156 2.79227
2.50589 0.116855 4.08475
2.33241 3.54422 2.74099
1.31164 2.07878 3.11146
-0.165443 2.20679 2.86461
3.32415 -0.450329 4.06018
-1.11056 2.5471 2.74682
1.77212 3.62082 2.64007
-0.162172 -0.141132 4.46272
-1.48777 1.00178 3.39118
-0.139654 3.56393 2.43783
4.02731 0.223126 3.78595
2.45096 2.36297 3.09866
-0.455383 3.63493 2.4104
0.461601 2.22095 2.83858
0.21463 4.2856 2.19384
2.4352 2.41942 2.92852
-1.32183 0.0376477 3.27456
-0.927999 3.7487 2.41745
2.85706 0.808696 3.59283
1.70066 2.38878 2.94678
-1.15124 1.54132 3.21893
3.5147 0.68792 3.80654
0.614327 3.83358 2.4976
-0.253846 2.59466 2.66756
-0.943137 0.828684 3.23092
4.3534 0.939815 3.80257
0.324085 3.89479 2.46105
-0.687181 2.63082 2.7665
-0.513699 -0.676422 3.26145
-0.0579664 1.2166 3.81638
0.841948 3.95156 2.47616
2.6368 1.1778 3.66307
0.424695 0.697722 4.23322
0.678795 2.62046 2.67685
-0.101449 3.95942 2.37952
-1.42504 2.00288 3.00922
1.81943 0.773349 3.82452
-0.689038 3.52016 2.43484
0.878514 2.2239 2.88789
4.81306 0.402002 3.62382
1.73216 2.17149 3.03845
3.85968 0.451517 3.63832
0.947785 3.62367 2.53597
-0.729409 2.41875 2.73225
-0.678568 4.17347 2.18011
4.99462 0.70543 4.34275
0.228497 3.63808 2.45194
-1.38704 0.516481 3.28087
-0.64589 2.38022 2.81001
0.69379 3.71822 2.47316
3.88793 0.549311 3.84754
4.55015 1.15027 3.4933
-0.898564 3.68093 2.31647
1.05226 2.47804 2.85561
1.38979 1.0617 3.78232
2.12701 1.17519 3.72417
-0.176043 3.87324 2.42597
3.5076 0.271706 3.80704
1.18705 2.58836 2.77841
-0.773248 -0.154349 3.30999
3.03661 0.560003 4.07283
4.52359 1.02627 4.0681
1.3204 3.97905 2.50587
-0.364617 -0.200809 3.30851
-0.188767 2.57518 2.74391
-0.43615 1.53546 3.50004
1.3075 4.01438 2.47426
-0.55283 2.6861 2.56423
4.27328 -0.768036 4.56615
-1.43941 2.07981 2.80217
-0.287239 1.43537 3.51413
0.312393 0.862862 3.69423
2.33326 2.71831 2.91446
3.16782 -0.602117 4.05008
-0.100404 3.96855 2.33435
3.21445 -0.797857 3.98684
-0.171496 2.8269 2.55569
0.289234 -1.08573 3.27379
3.74889 1.29543 3.43878
-0.936745 3.86428 2.18057
2.25256 2.88116 2.89452
-0.85239 1.55578 3.26661
1.52393 4.12295 2.38807
4.63903 -1.39831 4.72443
0.83122 4.21799 2.37296
-0.539118 -1.09236 4.80127
1.98712 2.96723 2.76494
1.92622 1.53377 3.3946
-0.230643 4.13048 2.10404
3.81222 1.50433 3.27375
0.171893 2.99857 2.49356
3.14084 1.47031 3.29024
1.13094 -1.56715 4.79268
1.92412 3.01784 2.71819
-0.871297 3.584 2.36099
1.71232 0.895475 3.80023
-0.33014 4.37671 2.27658
-0.341599 2.44802 2.82573
2.15377 3.84581 2.63477
-1.03723 3.72688 2.14911
2.07791 2.29973 3.0065
-0.48826 3.70159 2.3523
4.22111 0.765332 3.54722
1.03655 2.51948 2.7943
-1.24905 1.70143 3.13553
1.14843 1.07376 3.77262
-0.820262 -0.0129453 3.28723
1.37297 2.48265 2.90206
-0.730956 3.69233 2.27495
0.30827 2.55943 2.61147
-0.717126 -0.355958 3.26807
2.15213 1.28685 3.75982
-0.0257034 3.9347 2.42
0.243778 2.58118 2.68839
-0.016734 0.566519 3.52989
-0.301179 3.86897 2.32152
0.977565 1.28629 3.70047
0.591686 0.852761 3.70468
1.43721 4.04119 2.45018
-1.01874 0.77285 3.71772
0.60439 2.66035 2.6296
3.17628 1.15543 3.51682
2.31486 4.21218 2.53878
-0.835369 -0.191032 4.08211
1.39689 1.50573 3.40855
0.653373 -0.147748 3.44495
0.0133267 2.76212 2.51814
-0.00937206 4.09097 2.30756
3.43463 -0.149135 3.99155
2.2341 1.37783 3.53174
0.674821 2.74084 2.6311
0.788817 4.20664 2.37182
-0.737412 -0.484994 3.92886
1.48471 1.65953 3.36606
-0.648032 2.98577 2.52479
0.152912 -0.299987 4.4942
0.350643 1.69248 3.38348
0.761599 4.24154 2.32727
0.218734 2.84911 2.53382
1.19426 3.20141 2.6642
0.24574 -1.26427 4.57735
1.35217 -0.972972 5.05818
0.850713 1.89603 3.31151
2.42661 3.09404 2.72923
2.21147 -0.717591 4.43314
2.03763 1.7522 3.46586
2.28681 4.0197 2.63924
2.13944 4.40354 2.5232
-0.31943 -1.20147 4.41515
0.166181 2.01592 3.1358
2.65874 3.3161 2.77977
-1.07385 -0.77768 3.72333
2.65822 1.7253 3.17859
0.439134 1.57405 3.5147
1.82042 4.00716 2.44219
1.92593 2.84719 2.83401
0.184535 0.490566 3.56183
2.21446 1.26385 3.53157
-0.0919201 4.0339 2.32851
0.58492 -0.496385 5.32682
-0.239837 2.72789 2.63288
0.335385 -0.886089 3.28297
0.701447 2.90895 2.61199
3.87201 -0.76496 4.2071
-0.321702 4.13699 2.32738
1.23914 1.65618 3.49251
1.94007 1.51234 3.52988
1.97761 -0.552445 4.85495
1.91903 2.89873 2.78534
1.77791 4.16234 2.37271
0.061158 3.09541 2.57677
3.35996 -1.0946 4.6594
1.41793 4.22968 2.33513
1.73994 1.74591 3.35738
0.230306 2.9457 2.54065
2.47594 -0.879012 4.81376
-1.13819 1.86155 3.30428
0.276978 -1.49778 4.63411
1.89626 1.80796 3.35194
1.81739 3.26335 2.75647
1.11065 4.49376 2.37005
2.7 -1.35011 4.60358
1.23166 4.63706 2.38136
-0.447538 0.628003 3.91738
-0.448267 1.99805 3.01803
0.238952 3.21074 2.4866
-0.602839 1.92068 3.02209
-1.34022 -0.8544 4.23598
0.231844 3.15704 2.50304
-0.670865 0.31462 4.08652
1.96173 3.50476 2.69671
2.4221 -1.42385 4.64713
-0.923799 2.14118 2.94888
-0.0202275 2.07274 3.0483
4.23176 0.253429 3.89182
1.47597 4.79587 2.39126
-0.283509 3.24804 2.43707
3.58743 2.69598 2.97305
3.22043 -0.0348154 4.35238
2.47493 2.14006 3.07667
0.918603 0.274452 4.22692
0.0114559 3.46273 2.49047
4.88994 -0.83912 3.80578
2.25951 2.03542 3.04531
0.37323 3.48577 2.46855
-1.42974 4.17983 2.21347
-0.616415 -0.239659 4.36538
-0.259741 3.52562 2.41052
1.94951 2.23406 3.02182
-1.02917 -0.0796649 3.7917
2.5724 -0.105914 4.12017
-0.107787 1.74488 3.39761
2.10007 3.00882 2.82305
1.21217 4.11399 2.33074
2.69151 0.0528478 3.92747
