ply
format ascii 1.0
element vertex 1905
property float x
property float y
property float z
end_header
-0.984381 -0.992697 4.18879
0.231807 2.61819 2.49987
-0.995635 3.70394 2.20185
0.922728 4.71815 2.37836
-1.13605 4.02333 2.24159
-1.32433 3.92138 2.30759
-1.14492 -0.892706 4.27282
4.39088 1.41154 3.24676
-0.558292 1.74825 3.17645
1.23041 4.14093 2.45796
4.08968 0.610024 3.5011
1.575 2.95385 2.8407
-0.7134 -1.8573 3.14239
0.0675437 1.77432 3.45715
-0.657982 3.56565 1.87756
0.614317 -0.646788 3.48227
4.13689 -1.4834 4.54219
0.79281 2.74522 2.63035
-1.0074 -1.84573 3.11622
1.17713 3.05114 2.70627
-0.225899 1.04395 3.53183
5.50511 -1.47602 2.97588
0.941863 4.24376 2.38547
2.07983 1.61335 3.35759
2.17771 2.97365 2.84539
-0.760779 1.30502 3.21159
2.50871 3.71397 2.75701
2.18898 -1.28267 4.48059
3.09629 1.33848 3.33876
-2.30269 2.96134 2.48004
0.981001 -0.980467 4.77202
5.26176 -1.7845 3.26304
-1.76316 1.13514 2.81939
-0.700702 2.63932 2.64022
3.82027 -0.839149 4.22432
-1.32149 -0.689317 2.72144
1.12048 3.94025 2.53462
1.52453 1.22286 3.694
-1.27491 3.96833 2.34181
-0.994934 -0.0888202 3.25433
-1.90809 3.6431 2.38654
1.42552 1.34947 3.52519
-0.771413 3.77033 2.18707
-2.16001 3.18651 2.31554
-0.645975 -1.38417 4.33367
0.419184 2.5378 2.51647
-0.256603 0.643989 3.47151
0.35935 4.06373 2.45119
-0.839824 1.3956 3.44099
3.12757 -1.07475 4.028
0.802029 2.54438 2.66947
-1.26082 4.08731 2.27552
-0.519844 2.7406 2.42276
-0.929297 3.83486 2.18802
2.85684 1.31038 3.51182
-0.79847 1.51481 3.28184
-0.594595 -0.0176774 3.30618
-1.12887 -1.66586 3.20245
1.30877 -0.743685 3.45446
0.31408 2.61847 2.49692
1.76166 4.19005 2.53683
1.19001 -2.08467 2.3489
-1.02769 -1.51943 3.14663
1.90613 2.99018 2.81711
-2.30638 2.53009 2.58249
4.35331 0.286139 3.43819
1.87307 1.5383 3.33137
-0.765583 3.9213 2.16118
1.39164 2.92509 2.78363
2.56984 -1.28834 3.81657
4.09028 2.0643 3.04324
0.638355 1.61432 3.2794
-0.780653 4.001 2.16119
3.3152 0.104641 3.98233
-1.25526 -1.76907 2.86946
-0.431518 1.58019 3.21969
0.191186 -1.25037 4.58012
3.28392 0.245796 4.0886
2.68286 -0.161816 3.93058
4.01718 0.651578 3.54723
-0.680821 3.00472 2.43221
2.28822 1.57684 3.32909
3.12975 1.59967 3.25991
0.981439 4.41524 2.40727
-0.507615 3.1143 2.3935
3.88414 -0.305866 4.23374
-1.19421 0.988142 3.04218
-0.689363 2.02295 3.16363
1.86092 4.2172 2.52569
1.54827 3.21357 2.81223
4.5544 1.37918 3.36044
2.83528 -0.492426 3.90802
0.625966 0.0942493 4.55056
0.898567 -2.09177 2.99548
1.40686 1.93204 3.11855
1.28975 4.47687 2.44653
-1.17038 -0.378236 4.43223
-0.762864 0.690971 2.93715
-0.526581 3.17395 2.32092
4.95529 -0.106187 3.45202
3.44604 1.73519 3.34601
4.79218 0.302222 3.935
3.64459 0.0160963 3.9393
2.26315 -0.259667 4.29989
2.02244 3.37782 2.84752
0.145132 -0.767028 5.21452
3.72524 2.25923 2.98149
1.29002 0.519406 3.61441
0.375006 3.39029 2.50469
2.54671 2.00038 3.21017
1.24305 4.71521 2.45558
-0.234939 -2.15888 1.56494
4.03187 0.062166 3.74885
-0.544765 3.24948 2.33599
3.79762 1.90224 3.29108
3.52547 -0.869797 3.79905
-0.392191 2.69305 2.48661
3.8073 -1.76534 3.83907
-0.621649 -0.669278 4.5519
2.07616 1.26368 3.4393
-0.816184 3.75406 2.26057
-0.518452 2.62645 2.48484
0.608318 0.843553 3.68944
-0.55312 4.57223 2.27497
0.321558 1.65175 3.66693
-0.37195 -0.417868 4.42144
0.0662982 4.0413 2.36964
2.93194 3.70686 3.00281
-0.949409 -2.03942 3.136
-1.27244 -2.18489 2.8784
-0.965691 -1.25245 2.88168
0.826232 -1.03756 4.93135
-0.0519905 2.62609 2.39559
0.120135 4.14661 2.38366
-2.00348 1.88837 2.67358
3.47607 1.16199 3.41624
0.743865 -2.62832 2.83931
4.44417 -0.861797 4.5103
-0.944484 -1.01536 4.10844
0.409543 4.22916 2.39093
0.19222 1.75501 3.25393
-0.907047 -1.96861 3.10591
0.387331 2.89912 2.55908
2.51907 0.173844 3.92636
0.240486 4.2295 2.33051
3.98814 -0.585395 3.71233
2.58279 1.40615 3.46427
1.32939 2.92758 2.80086
4.1724 1.78015 3.38048
1.16493 -1.14862 3.19488
0.129102 -1.22974 4.55979
2.95943 1.47408 3.21786
-0.203771 3.0159 2.41885
-1.30611 -1.38844 4.23023
-0.872445 1.54011 3.15449
0.539841 1.71224 3.11232
1.66645 4.58158 2.48782
-0.986661 0.109614 3.02883
4.73148 -1.75664 3.22525
-0.079694 2.93954 2.4447
5.09548 0.443419 3.35129
-0.110625 3.16223 2.43596
0.787037 4.44054 2.41123
1.39944 1.91427 3.23297
-1.1868 0.39621 3.86214
-0.654936 3.0904 2.36287
4.02235 -0.540841 3.68635
4.91921 0.443609 3.37353
3.04745 1.61284 3.30535
0.297944 -2.02317 1.86064
1.00272 0.641584 4.14153
1.133 4.53645 2.42409
1.64604 0.747098 3.75425
2.77048 0.122688 3.79327
3.45759 3.22724 2.85585
1.56633 3.38979 2.75417
0.540364 0.351472 4.35451
3.98088 0.718375 3.54249
2.21228 1.88326 3.22743
-0.337451 2.09755 2.75429
3.26078 -1.64541 4.34986
0.152267 0.0653562 4.3374
-0.727066 -0.386703 3.04552
0.837148 3.49759 2.63532
-0.57657 -2.77482 2.7597
0.181649 -2.38113 2.99176
1.13271 2.07356 3.14501
-0.0714944 3.2825 2.43113
2.97049 3.68888 2.75739
2.17959 5.07631 2.40738
1.37215 -0.249667 4.49763
2.00809 3.63091 2.78987
-0.35286 2.12412 2.57751
-0.573018 0.924338 3.08339
-1.33837 0.139386 3.31024
1.13211 -2.03708 3.18333
4.67108 -0.263031 4.37463
0.550044 3.55005 2.53195
-0.831921 2.31965 2.84409
-1.13306 1.53624 2.94569
0.836872 -1.31294 4.31238
3.37492 -0.179281 3.97354
-0.00736243 3.09719 2.43411
-1.06363 1.30449 3.17063
2.66423 0.322892 4.00458
2.19366 1.7176 3.22341
1.96954 4.12025 2.65908
2.93511 0.397793 3.99607
1.04455 3.12337 2.66646
4.20676 1.94066 3.10192
2.68992 -0.455281 3.89209
0.791749 1.83158 3.22115
1.81527 4.392 2.51794
3.63806 1.68274 3.18942
2.18643 -0.351062 3.70247
-0.715148 0.100243 4.2985
-0.193828 3.13274 2.3919
1.71783 4.42087 2.47766
4.76311 1.3622 3.3507
0.908876 0.216505 4.51127
3.08535 -0.559924 3.83647
-1.04492 2.21082 2.92662
-1.92701 3.10254 2.36027
1.76568 2.03611 3.22678
-0.11554 1.46304 3.32786
0.68257 3.39145 2.59689
2.84135 1.77022 3.19586
-0.26907 1.29852 3.2583
0.684329 4.62324 2.37506
3.32636 -0.254722 4.27087
1.34497 3.38878 2.71755
2.47188 -1.47112 3.48408
-0.906371 1.41625 2.90983
1.05648 -0.413383 4.81192
4.59061 0.772616 3.413
0.732104 2.14981 2.93491
4.03079 0.185383 3.79118
0.0562762 2.05659 2.78359
1.15045 -0.232308 4.6054
4.24794 -0.387544 3.84195
0.611374 -2.03447 2.03899
-0.0626987 3.36714 2.42568
0.840461 3.54421 2.60296
-0.639991 2.34184 2.71036
3.75045 -0.0992609 3.8469
0.654349 -1.0927 4.30459
0.448154 0.369909 3.42492
-0.898427 3.49214 2.32332
-1.08522 -0.731711 2.90645
2.76776 -1.55807 4.2944
0.638523 2.14138 2.77921
-1.00521 3.59624 2.3298
-0.84874 1.03837 2.78284
0.523311 1.01817 3.60395
2.03088 2.30345 3.01967
0.480872 3.70149 2.4804
-1.26314 0.391901 2.91485
0.630148 1.21782 3.64533
1.78908 0.906939 3.91264
-1.275 2.77909 2.56337
1.96761 1.00081 3.65124
-1.42596 4.00443 2.38426
1.44788 3.83123 2.62264
0.593645 2.34081 2.61449
4.78225 1.24674 3.24186
-1.16123 -1.81091 3.40911
-0.285668 3.7554 2.34574
3.62314 0.615015 3.61149
-1.89684 3.65203 2.44022
-0.800568 1.22559 3.29953
1.45641 2.39461 2.91293
3.90147 0.307474 3.81803
0.106651 3.99848 2.49691
0.00272488 -0.644975 -0.562761
1.49617 2.63868 2.88321
-1.06394 0.449652 3.22127
-0.925326 -0.958788 2.95775
0.907362 1.37711 3.61743
1.45939 -1.69806 3.17188
3.77378 0.762665 3.45742
-0.857935 -1.11843 2.89424
1.70649 0.794127 4.11962
2.56346 2.4984 2.99185
0.0125937 0.85872 3.64519
0.644756 -2.22189 2.85691
-0.816383 3.74606 2.17762
2.36377 3.40253 2.84277
3.27386 2.05044 3.25462
1.90402 4.89939 2.57215
1.39992 0.577434 4.04742
-0.613426 2.07079 2.88162
4.21893 1.43146 3.52674
-0.304691 0.480545 3.33142
2.91707 -0.66882 3.90696
1.43495 1.85684 3.17656
-1.43681 2.77435 2.68969
3.99322 -0.42144 3.94408
1.68916 3.3408 2.79152
4.78653 0.494228 4.15398
2.80808 0.394447 3.95521
0.128791 3.41174 2.4981
4.29155 -0.633768 4.10969
-0.628237 -0.201986 3.05208
0.242262 -2.23793 1.90252
0.665511 2.0521 2.89718
0.0620815 3.27832 2.44717
3.98064 -0.0569232 3.87961
2.47004 1.93958 3.25081
2.04963 0.479061 3.85136
-1.13646 0.234061 4.31727
-0.533105 -0.908349 3.00457
-0.992555 0.12679 2.88073
0.743757 3.53298 2.59333
-0.745171 0.233532 4.09918
2.10827 -2.37676 3.60167
2.05197 2.01815 3.02522
4.85414 -1.05535 3.86659
-0.353656 1.13792 3.20148
1.71877 -2.30501 3.60611
-0.176502 3.42877 2.35053
2.57715 2.16734 3.07913
2.5067 -0.158408 4.40197
-0.324834 0.0758395 4.31437
0.135183 2.19465 2.78317
-0.700206 3.56435 2.32695
-0.0180244 4.55077 2.25847
1.87024 -1.63808 4.26647
3.87502 1.98155 3.15374
-0.0129896 3.67786 2.43333
1.39779 2.36534 2.88339
2.21718 3.75093 2.74042
-1.33437 3.22342 2.25845
1.14894 1.07377 3.73147
-1.11975 -1.54025 2.81246
1.81276 -2.14311 3.10723
4.59489 0.516327 3.52066
2.52306 2.24615 3.05017
1.08646 3.79352 2.57244
-1.12616 -1.36204 4.22576
1.68022 2.51832 2.91055
-0.370839 -0.10121 0.678015
-0.863972 0.888381 3.24627
3.33375 2.81161 3.01082
3.78979 0.784347 3.422
0.714734 3.90241 2.55403
0.471168 0.359084 3.47526
0.337027 0.219806 3.57573
-0.511502 0.469771 3.36969
1.71346 2.44622 2.94982
-1.50686 0.855269 2.81192
-0.758675 3.67279 2.18501
3.92892 0.717103 3.55377
-0.832198 -0.960147 3.24573
3.52357 2.81344 3.03359
0.523456 4.02744 2.50042
0.854806 -0.368728 3.51177
1.24359 2.56707 2.76783
0.52048 -2.70639 2.76903
-1.3851 -0.761698 2.85057
3.95796 0.89877 3.51911
3.31271 1.10638 3.52392
0.977757 4.02363 2.4816
-0.0832536 -0.378932 3.24005
-0.701847 0.783536 3.76886
1.0081 2.70536 2.70967
1.58375 4.08967 2.53544
4.23886 1.00469 3.44625
-1.54628 4.01568 2.38294
0.343394 0.074835 3.37624
-0.126397 2.572 2.49632
4.22825 -2.21289 3.56428
3.68927 -1.51975 4.06707
0.525657 2.30187 2.75643
0.0869686 -0.786141 -0.710742
0.473941 3.63781 2.5164
0.527288 -2.14303 2.89995
-0.419923 2.32665 2.73656
-1.16768 2.36583 2.77321
0.94139 -0.0529677 3.63751
1.1076 3.72566 2.57586
-0.250543 2.41189 2.57486
-1.18699 0.202086 3.27628
-1.40855 0.152319 2.79562
-0.383732 3.67328 2.33381
0.810207 1.12432 3.96069
0.664755 0.659118 3.5087
1.02081 2.35757 2.79633
-0.897214 1.2777 3.29654
-0.480811 -1.81379 2.95879
1.78694 1.04546 3.92369
0.622265 3.85928 2.51077
0.0632994 1.04158 3.40604
1.85263 1.11087 3.6343
0.65654 -2.65652 2.79697
0.544362 2.42692 2.5936
-1.66867 0.568175 2.79212
4.12805 1.23353 3.45693
1.4299 3.92204 2.56
-0.560311 0.185024 3.32366
1.13807 -2.24835 3.05064
3.14147 0.62274 4.06809
-0.553768 1.44983 3.3568
0.755405 4.10534 2.57344
2.07621 2.68404 2.92108
-0.122843 0.683918 3.4509
-1.11711 -1.54703 2.81161
0.832421 0.0523907 3.55124
1.49257 0.913779 4.0833
0.23366 4.10577 2.47587
0.142608 1.41602 3.43603
0.527721 -1.98406 3.07231
-0.686933 2.55008 2.47018
0.372792 -0.00965768 3.43187
0.38266 0.189944 3.52461
-0.713222 2.81393 2.48929
4.69866 -0.511088 4.09004
1.21353 1.52811 3.42968
-0.411419 3.86046 2.19349
1.55389 -1.31976 3.11116
-0.290384 -2.3437 3.17097
2.24035 2.77486 2.94861
1.6706 4.12592 2.48961
1.77021 -0.302309 4.50502
-1.07242 1.45093 3.44258
0.714925 -2.59481 2.32349
-2.18124 2.06378 2.64954
-0.367447 -1.23549 3.1476
0.324781 2.87207 2.52971
-0.383652 1.85875 3.24959
2.56556 3.67991 2.7549
1.66113 4.15473 2.45531
-2.45087 3.77078 2.38738
0.515869 2.78912 2.55108
2.21858 -2.44856 3.61552
0.0440574 -2.9324 2.81734
0.775036 1.57346 3.25048
2.72111 -0.674156 4.46547
-0.206247 1.86421 3.16411
-1.14156 -0.760677 4.00704
1.50946 4.23381 2.43703
1.29147 0.0291997 3.5564
0.687854 3.00862 2.6075
3.9743 -0.890242 4.72013
0.628498 -0.820539 4.744
3.32449 -0.605166 3.91645
-0.863875 1.47771 3.1577
1.3938 4.6304 2.46002
1.84567 0.169536 3.77172
0.41146 1.87609 3.06833
-1.6862 1.46166 2.87289
-1.10598 -1.43365 4.33299
-0.0929321 3.10349 2.44043
2.79864 1.56437 3.31336
3.38341 -1.12072 4.19458
1.02978 4.58971 2.42521
1.74663 3.17692 2.80113
4.3792 -2.08174 3.71956
-0.35186 1.21171 3.62588
0.817986 3.83826 2.57785
-1.37218 -0.424598 2.88482
1.04944 2.42359 2.80136
-1.30818 0.874714 3.27542
4.66949 1.25035 3.17111
2.07486 3.92897 2.6892
1.65667 5.32336 2.58181
1.3178 1.0942 3.87244
-0.478929 -0.0331897 3.37243
-1.12272 -1.53851 2.81271
-0.761718 -1.05798 4.31561
1.50532 2.39305 2.93778
1.37768 -1.391 0.0956932
-0.290578 2.55981 2.52471
-0.792747 0.756344 3.25187
2.6923 1.03064 3.57222
0.616686 3.97432 2.53435
3.95726 -1.53654 4.34665
1.10942 2.54394 2.84626
-0.112676 -0.00358763 3.28406
-0.956413 -1.32061 2.88017
0.99621 -1.33234 3.27747
-0.254481 1.31027 3.56721
0.437367 4.02668 2.49974
-0.74233 2.73819 2.49068
2.25609 4.19187 2.71612
0.217853 -0.63115 3.29132
1.29685 -1.99134 3.13055
0.876038 1.48991 3.4892
0.0529781 4.09536 2.46185
-1.98962 1.46144 2.77046
0.200351 2.53269 2.50884
0.208671 -0.130802 3.2794
0.359481 4.08704 2.42576
3.34183 0.951774 3.43851
0.227153 4.94938 2.39668
0.826562 1.52702 3.34825
2.02565 2.82754 2.89048
0.601646 4.11869 2.42157
3.76466 2.42988 3.04391
-2.05264 1.96095 2.67969
-1.01553 -2.17462 3.12265
1.07408 -2.63337 2.98329
0.250256 1.78672 3.31424
1.06984 4.19703 2.44103
-0.596059 0.0569576 4.17395
1.80685 0.0263205 3.69254
-1.05259 3.1177 2.3176
1.27749 2.97719 2.76468
-2.38571 2.69493 6.39351
0.107115 4.17374 2.28596
1.47377 -0.028349 3.50345
0.474871 2.76464 2.53551
-0.270181 0.933436 3.49935
1.81934 3.1839 2.83231
1.55706 -0.287938 4.6601
0.892674 -0.849414 4.75542
0.120101 1.85143 3.12686
1.27443 -0.809478 3.44151
2.44087 5.40382 2.69579
1.53 -1.50845 3.07941
4.2361 1.59502 3.28242
3.98097 -0.320072 4.17163
1.05471 1.75836 3.31931
1.92151 4.73791 2.59613
-0.359582 2.95216 2.43694
0.480119 -2.13305 1.94356
2.29086 3.31964 2.83322
2.04767 -0.708467 4.99775
1.87195 4.19149 2.56189
2.45144 1.78469 3.29888
2.92354 -1.95089 3.74234
-1.03883 -0.417775 4.21638
-0.584125 3.12836 2.41729
4.4705 1.67023 3.31385
1.6873 0.466489 3.72518
-0.36451 1.92236 2.98231
0.633435 4.57726 2.41975
3.732 -0.289797 3.84528
1.16917 3.35192 2.69166
4.57084 -1.05874 4.80964
3.99511 -0.736766 3.90572
0.0395444 -0.818103 4.72031
0.395955 2.01811 3.03019
2.89429 0.131373 3.94888
3.15601 1.29351 3.42788
0.988534 4.11275 2.43565
-1.28354 -0.303557 4.08882
-0.0941825 -2.37623 3.23557
-0.119726 2.76119 2.44333
-1.38344 0.968137 3.19385
3.21394 1.1986 3.44615
-0.628182 -0.14422 3.0647
-0.687262 3.90509 2.18493
0.801244 -0.621258 3.50399
-1.21211 -0.037957 4.12774
0.690596 2.72844 2.60028
-0.315148 0.982499 3.50449
1.74609 3.09024 2.8267
2.79275 -0.531285 4.23958
0.897488 4.2236 2.37774
2.77322 1.48176 3.32686
5.40284 -1.40585 2.98329
-0.121143 2.88336 2.4627
4.31606 1.52576 3.33787
2.89163 3.66078 3.0008
0.769196 -0.854063 4.7187
3.45857 1.39201 3.54573
-0.594886 4.54884 2.27459
3.98785 2.27174 2.9902
1.6438 -0.767596 4.50048
2.67022 4.46359 2.53727
2.11874 0.108405 3.84153
2.41414 -0.789817 3.59837
2.82567 -0.686432 4.40888
1.20207 3.15925 2.7296
1.27012 1.81283 3.34275
-0.747368 2.06733 2.98427
1.73948 4.54739 2.4917
0.652228 3.24851 2.60126
3.31975 -1.23355 4.74638
-1.53412 0.409505 3.01437
2.81318 1.61735 3.25414
4.63072 0.661628 3.76546
1.17327 -0.997957 4.84551
-0.553307 3.16167 2.43789
2.91812 -1.94933 3.74362
2.74035 0.000214926 3.93764
-0.121775 2.01853 2.79745
-1.32926 1.30843 3.39037
2.7705 4.23378 2.73001
0.79741 3.36398 2.59933
-0.653775 1.25315 3.13812
1.04227 -1.66998 4.65776
0.659382 1.96347 3.00276
2.02909 4.68015 2.58648
2.83658 0.68993 3.81463
-0.191209 1.48562 3.3009
-0.0255036 3.23291 2.45343
-0.923033 1.8518 3.04558
4.12147 -0.446678 4.0012
2.55187 0.531052 3.90112
-0.641525 2.1486 2.68206
3.94499 -1.06191 3.71609
1.65153 -1.89697 1.62081
-0.381168 3.35968 2.40207
3.53573 0.476654 3.95304
-1.28883 3.57063 2.22725
4.74105 0.88532 3.33967
2.00152 1.9944 3.13302
-0.482533 3.44883 2.40323
-1.22802 2.90996 2.37295
1.71805 0.31926 4.14287
2.07621 2.16248 2.99717
-1.65799 2.96427 2.63324
-0.531425 3.46326 2.33183
-1.19014 -1.28276 2.83187
-0.398355 0.458907 4.13447
0.382137 4.38117 2.25718
-0.870585 1.3432 3.07548
0.984266 3.68226 2.59482
1.13684 2.15008 2.90483
-0.469018 -1.95007 2.94488
0.338793 0.0448816 4.43541
-0.530753 2.35154 2.64693
-0.577251 0.409209 3.10661
0.837387 3.71969 2.55636
-0.147625 -0.21682 3.09157
-1.30984 3.04898 2.53487
3.54834 0.0260904 3.98735
-0.828965 4.05957 2.20425
-0.459551 1.89819 3.18653
1.99847 0.124279 4.16218
1.00858 -0.0441191 3.53769
-1.68002 1.43871 2.97752
1.43218 3.08115 2.78326
-0.384749 -0.825883 4.49106
1.17403 0.391331 4.33815
-0.9227 1.87375 3.26499
0.513368 2.86372 2.55915
-1.47178 2.07924 2.78501
1.97223 -0.000526103 3.79444
3.99157 -0.352978 4.09799
4.62715 0.929902 3.34781
3.80464 1.58306 3.24214
2.50151 4.83861 2.73706
-0.676619 3.06526 2.34576
3.96473 2.16108 3.02587
0.22447 0.0326108 4.42799
-0.409764 1.90767 3.08073
1.00268 4.41365 2.4102
1.14151 -0.810064 3.43982
-0.0669693 3.02544 2.45828
-1.49483 0.233474 3.00285
0.916286 3.34808 2.66057
4.36443 0.573021 3.43257
-0.0153236 1.99236 2.90732
1.77406 4.32842 2.48925
2.27063 -0.53171 4.38371
1.11784 3.24295 2.64975
2.36941 0.210288 3.88163
-0.23737 2.0342 3.03614
4.0044 -0.801486 3.92701
-0.955584 1.72427 2.94722
-1.03331 -0.275145 4.19247
0.503913 3.43474 2.55534
-1.02544 -0.488815 2.92663
2.33688 1.96371 3.15002
-1.21128 -0.6801 4.24701
3.89907 -1.17457 4.06276
0.97184 4.74115 2.37957
-0.0990807 -2.16975 1.75327
2.20745 3.43968 2.8027
3.10136 -0.779278 3.90291
2.10449 -0.719095 4.86617
3.23932 1.82967 3.26969
0.153731 1.07173 3.39145
2.673 1.97598 3.09604
-0.466592 -2.07525 2.93022
0.625058 1.08958 3.63516
1.17029 3.56387 2.66731
-0.473209 1.02544 2.62425
-1.29769 4.03734 2.15696
1.43526 3.69926 2.72951
0.344004 0.856029 4.18557
-0.101255 1.21453 3.39248
3.91049 -0.040806 3.91879
0.732299 2.23444 2.81738
3.29758 3.48726 2.89911
3.98427 2.09143 3.17486
1.06712 3.71642 2.63829
-0.597552 0.0572894 3.06175
0.126981 4.26282 2.2311
1.77004 5.13411 2.56778
-1.48477 1.8056 3.22432
-0.771871 2.42558 2.59214
3.59195 0.355806 4.00044
-1.48069 0.0059041 2.69816
1.26081 3.75954 2.62823
2.90448 0.731438 3.72655
2.70104 3.86896 2.75579
-0.153537 2.39474 2.77
-1.36219 0.209353 3.25915
0.483344 -1.9073 3.10168
-0.0946269 -0.158072 0.793638
1.22593 0.69093 4.03403
-0.270066 3.69394 2.36658
1.38283 2.55624 2.91014
3.65423 2.16725 3.24439
-1.60499 2.04155 2.55314
1.96315 1.0803 3.66415
0.172914 3.8064 2.43925
0.132303 -0.081589 3.438
-0.832292 2.59674 2.70693
-0.673042 0.62392 3.36818
-1.10015 1.06001 2.70841
4.4572 0.835596 3.60155
1.30533 0.480501 4.15914
0.00457846 3.90606 2.43007
-0.159875 -0.680793 3.0302
4.95349 -0.740398 4.066
-0.825939 2.16709 2.78871
-0.0720218 -2.9073 2.61935
-0.836136 -1.60957 2.8587
1.34127 3.51435 2.70218
0.513165 1.98376 2.91039
-0.186801 0.540113 3.37047
-0.183047 3.26717 2.40802
4.24286 -0.641048 4.03735
3.01045 3.73837 2.87834
1.62546 0.756932 4.08947
0.656359 3.50979 2.57726
-0.318989 0.636673 3.2136
1.86576 5.34714 2.61009
-0.166222 2.18134 2.71726
4.20411 2.19972 3.2832
0.967699 2.1456 2.98333
-0.0413325 0.855617 4.02666
-1.08081 2.7364 2.59613
-0.87093 -1.13863 2.24357
-1.06268 3.48881 2.31667
1.57905 0.0958379 3.60689
0.178005 2.27605 2.67035
0.660593 -1.02392 4.19431
4.23043 0.167627 3.83319
-0.543848 3.56579 2.35906
0.896699 -0.140526 3.54188
2.18231 0.605683 3.84846
3.64251 2.5413 3.01268
0.56892 2.21322 2.76352
0.24404 3.65676 2.45207
0.43262 0.582905 3.4615
-1.4609 0.857214 3.26617
-1.76726 1.47734 2.83114
0.301923 0.197685 4.38216
1.32109 3.83378 2.62002
0.752031 -0.0860236 3.57607
2.0563 2.32537 2.96344
-0.408046 -1.60949 3.00293
0.711173 0.957382 3.83188
-0.910582 -0.181959 2.94066
-1.81035 0.218531 4.89709
1.72704 -0.926913 4.66112
1.86283 4.57539 2.52554
2.97403 0.93497 3.69677
1.64085 3.86954 2.61576
1.40491 5.08027 2.51381
2.03867 2.50669 2.9543
-0.807088 -0.210709 3.27493
2.85548 0.84168 3.68625
0.288403 3.90314 2.44752
4.52282 1.11126 3.33182
0.206443 2.39349 2.63986
-0.677086 1.09045 3.35504
1.08137 1.34808 3.4334
0.20388 3.925 2.40465
2.89226 -1.59021 4.33348
-1.37193 3.41176 2.29042
3.3986 2.55214 2.98834
-0.204596 0.432395 3.43767
0.0829921 0.362448 3.44935
-1.39254 -0.0179554 2.83118
2.39264 1.15256 3.70647
-1.18134 2.00779 2.92138
1.94465 -1.19587 4.43359
-0.0840923 -0.133545 0.847336
1.91562 -0.900785 3.45213
2.28421 2.56502 2.93632
-0.542734 3.89518 2.25554
-0.133103 2.75684 2.5228
0.293157 -0.167406 3.2964
-0.478251 1.66963 3.28521
0.164118 4.04059 2.38421
0.609333 2.63791 2.57559
0.0616674 -2.30535 3.23858
0.531179 4.19213 2.45759
-0.0220999 1.57072 3.36487
3.90174 -2.54522 3.36906
2.0431 -1.48156 3.64923
2.70402 -1.27687 3.61879
3.07382 3.54609 3.00617
1.74206 4.2069 2.5028
0.558229 5.06263 2.46773
2.80193 2.89157 2.97196
3.48801 1.27304 3.49782
3.853 2.20879 3.04689
4.35133 0.0663808 3.73466
1.22751 0.733343 3.65724
0.0421565 3.53137 2.46113
-1.37351 1.00529 2.84626
-0.443678 -2.56444 2.78426
1.45136 2.20391 3.0559
0.0118651 -1.80782 2.92496
-0.2976 3.54339 2.37691
4.11158 0.371941 3.5648
2.67328 2.2169 3.05891
-0.127663 1.03886 3.32789
0.573734 3.64874 2.48412
0.518312 1.19622 3.62394
1.79429 2.20896 3.00259
3.26711 -1.4793 4.10682
0.711747 3.79156 2.53437
0.492282 1.21974 3.77906
-1.49981 -0.0647474 2.83247
-1.23386 0.571246 3.27951
0.66718 0.785702 4.1244
0.349514 2.40093 2.68198
-1.50288 3.71172 2.40795
-0.542884 0.872353 3.76271
0.0105372 0.428834 3.36654
-0.845242 1.09046 3.28935
4.73626 0.667092 4.235
0.461106 2.35351 2.73437
-1.8039 3.64348 2.44939
-0.687769 3.62864 2.2296
1.44277 -1.61092 3.18682
1.67039 2.64175 2.93833
0.525936 0.554246 4.10739
-1.02203 1.51456 3.2634
2.12021 1.18749 3.69075
-0.603462 3.71429 2.25852
1.32451 -1.40928 0.00948721
0.973062 0.416635 3.55259
-0.265844 -0.020998 3.29782
-0.736633 2.58948 2.60303
0.879115 -1.50462 3.21831
-0.948617 3.78066 2.21406
4.06067 0.795411 3.60546
2.43232 3.85865 2.69768
3.50076 -0.794701 4.69842
-0.499058 3.87967 2.26361
-0.463824 -0.89846 3.27482
-1.59228 -0.00496944 2.80434
2.61396 2.60834 2.95402
-1.86635 1.3068 2.77608
-0.539715 -0.52291 4.54116
4.43753 1.07167 3.71383
0.872031 5.21326 2.49275
0.979975 1.50913 3.37137
-0.679446 3.86988 2.19137
0.120674 0.224254 3.48017
2.42386 -0.944405 4.7142
0.35806 2.68963 2.53796
0.651845 4.15167 2.44052
0.068185 1.55771 3.40191
0.909852 -0.890878 4.99369
-0.0363058 -2.44362 3.25123
-1.21622 0.521098 2.83076
0.494835 2.62201 2.56059
1.09795 1.67848 3.41003
-1.13789 -1.60554 2.8023
0.351621 4.18558 2.37698
3.27235 -0.602586 3.91309
-1.11122 -0.442696 3.17478
0.981227 2.92236 2.67124
2.09621 1.43237 3.40385
0.373971 4.26281 2.38318
3.80862 -0.788036 3.76879
-0.211298 -1.29231 4.64026
-0.468236 2.80114 2.44885
4.46514 -1.94662 3.71057
-0.845848 3.11897 2.45952
-0.819151 1.61197 3.16724
0.992911 -0.749663 3.44747
0.226574 -0.790083 4.54418
1.66528 1.68632 3.23707
0.241467 2.90796 2.48403
-1.09212 0.958756 3.19499
0.425457 -2.21923 1.91013
-0.296057 1.84778 3.14573
0.630966 -0.406509 4.70214
-1.76686 -0.0747036 2.79835
-0.654077 -0.646658 4.00338
2.53118 1.04252 3.55498
2.41447 2.96838 2.88489
1.07795 5.28636 2.5148
0.0175754 2.46668 2.49041
-1.24115 -0.748132 4.88449
0.93062 -2.75675 2.85141
0.470073 4.11562 2.63224
-0.29433 0.783422 3.209
-0.393198 -0.312297 3.23941
-0.404654 4.15095 2.35709
1.35919 1.41022 3.48892
0.0204834 4.04276 2.42728
4.09457 -1.2346 4.42825
2.11865 2.71799 2.8864
0.703965 -1.82651 3.33731
-1.67671 0.970044 2.81508
-0.542275 3.97596 2.27356
0.717029 1.48783 3.6433
-0.783132 -0.835352 4.00047
1.79316 2.6487 2.87458
0.192413 0.0986716 3.35665
0.745978 2.80568 2.61537
1.13562 4.11317 2.45357
1.76946 0.608192 3.78075
5.05683 1.58052 4.15861
-0.760183 1.64279 3.3172
-0.902431 -2.1286 3.1271
-1.31036 2.9546 2.37763
0.542865 2.69135 2.55824
0.689237 4.22946 2.43835
0.259849 -0.916995 3.18652
-2.14085 1.35668 2.7579
-0.35638 -0.436199 3.26533
-0.220357 2.83032 2.3326
0.670542 -2.02485 1.94639
2.50563 1.48763 3.29765
1.12572 4.28364 2.44981
-0.460495 2.98281 2.54245
-0.749827 1.1938 3.24022
2.13114 4.57879 2.59237
-1.83723 0.766177 2.8081
2.37715 1.44394 3.36289
0.439052 -1.08204 4.66655
3.88739 0.0333889 3.85268
-0.566529 1.96426 3.11936
-0.268085 3.01279 2.42647
4.53991 0.716375 3.4016
3.55543 0.00832908 3.97008
1.24767 -1.56265 4.77499
2.01224 0.488568 3.96297
-0.975772 1.53521 3.14442
1.68026 4.62902 2.49012
3.03171 -0.295455 3.95214
2.28739 1.78159 3.17569
0.615521 -2.36265 3.05972
1.86371 0.0184249 4.3014
-0.782606 0.179 4.06141
2.67905 1.61999 3.24828
0.4137 3.11706 2.46504
0.769625 4.59949 2.41774
1.94121 3.26432 2.83293
4.62301 1.17691 3.40328
-0.489421 3.21694 2.34043
-1.51685 -0.42121 4.28467
-1.87564 3.30844 2.30838
3.17291 -2.50278 3.57966
2.57577 -0.380436 4.5354
1.98353 1.91714 3.13625
2.98971 1.72357 3.0809
1.55491 5.08382 2.5373
4.6418 0.27998 3.76603
4.6514 -0.379605 4.50544
-0.425223 3.16965 2.37329
-0.222478 0.44469 3.34923
2.43672 -0.029565 3.88751
0.127114 -0.638806 5.05008
1.75651 3.58656 2.74231
1.3238 4.72937 2.38173
-1.54475 2.89816 2.638
1.24571 2.11773 3.01639
0.931595 3.43551 2.60217
-1.33216 0.0800003 3.31243
0.235841 -1.9086 1.72135
1.77795 2.09724 3.23668
3.95749 -0.125167 3.66611
-0.74149 2.7932 2.50316
-0.161182 -1.51855 3.02352
0.109535 0.259531 3.38034
-1.1225 -0.448984 4.38619
-0.178012 1.70685 3.36324
0.661416 4.09884 2.47205
-2.125 1.25086 2.78765
-0.759825 -0.297382 4.64653
-0.367286 2.68742 2.50917
-0.453405 -2.21087 3.18357
0.536735 1.5598 3.5512
-0.0651543 4.12621 2.37093
-0.965367 -2.44159 2.8825
3.616 1.24607 3.50467
1.78501 2.92548 2.88129
-0.538581 -0.718274 4.31094
2.5575 3.72793 2.87593
-0.0769237 4.09551 2.29213
0.151242 -1.31756 3.07194
-0.463712 0.182729 3.36478
3.17406 -0.7446 4.41889
-2.00534 1.68465 2.81809
3.34041 -0.98542 4.33001
0.076466 4.13308 2.27305
1.74444 1.61148 3.29335
-0.586834 -0.0944967 3.27618
0.832961 2.96739 2.63132
1.08015 -0.0486775 3.53673
4.18208 1.41117 3.68133
0.360265 -0.54536 4.59395
4.28957 1.02477 3.45649
1.54345 2.99189 2.81462
3.8438 2.27738 2.99786
0.630483 3.1239 2.56749
0.631017 -1.49251 4.72158
1.33072 -0.743005 3.45944
2.15694 1.71921 3.27969
-0.623878 1.15353 3.24156
1.11513 -0.778422 3.44225
2.84212 -1.15642 4.12503
-1.20718 -1.10882 3.00057
0.964701 1.83925 3.30967
4.19248 -1.31813 4.37646
1.67319 3.15756 2.79934
3.82604 2.03304 3.09877
1.66215 3.38058 2.78129
3.98409 1.69434 3.32309
1.29273 2.00088 3.24276
1.85233 0.593681 3.90349
-0.971715 3.19958 2.38521
3.75908 -0.501759 3.7674
3.45233 1.76646 3.50114
3.81484 0.357317 3.73723
-1.61027 -0.31248 4.29843
-1.11092 0.602352 2.71297
3.97624 -0.722286 3.71764
0.29183 -1.99978 1.79708
-1.0839 0.205697 4.07711
-0.940402 4.33225 2.17037
0.330072 3.2418 2.46351
2.04998 0.252925 3.85277
4.34869 0.152797 3.92783
1.91778 1.99668 3.2407
1.70554 2.11323 3.11552
1.40165 0.156467 4.25042
1.36551 3.56582 2.68599
-1.55665 0.771458 2.73308
4.1578 -0.247166 3.94861
-0.974235 -0.877137 2.92042
0.21825 2.07884 2.89073
-0.836963 -0.583937 3.02684
-0.770391 0.904048 2.89794
1.47795 3.53636 2.74517
-1.2035 3.63826 2.27881
1.81384 3.64493 2.72724
0.709076 -0.122286 4.67927
-0.525656 0.0994812 3.07337
1.28306 2.2361 2.96156
-1.47323 1.20396 3.28987
-1.24057 2.98505 2.35636
2.70147 -0.0243271 3.98289
2.25314 2.06851 3.03949
-1.38958 3.86923 2.30816
-0.143906 1.18619 3.34313
-0.32932 3.55161 2.38077
2.66711 -1.50629 3.55712
-0.281762 0.438752 4.2782
0.830232 3.24672 2.63164
1.11904 -2.23357 3.15397
0.239993 -2.18902 1.79683
0.149094 1.93545 3.00014
3.4898 0.276714 3.72503
4.31953 2.03868 3.3186
0.712674 3.1606 2.59964
1.42254 0.196992 3.58929
-0.242015 1.91769 2.99982
1.49109 4.44573 2.45507
2.6275 1.77221 3.20157
-0.703817 -1.10522 2.93169
2.48098 0.142027 4.13958
1.23115 3.31079 2.66969
4.79269 0.382076 3.38569
-1.56177 -0.585422 4.18002
1.87974 0.260333 4.06125
1.08542 -1.75885 3.1593
2.43501 1.98497 3.21424
3.20239 -1.61945 4.30666
-0.331547 -2.26298 2.94275
-0.200439 3.32486 2.41415
0.698516 1.05523 3.62263
0.227604 2.0606 2.96196
-1.24113 -0.110855 4.28722
3.48408 -1.49609 4.14246
-0.0472513 0.749229 3.33701
1.03724 3.40142 2.66233
0.645044 0.729289 3.57091
-0.105031 0.686891 3.44654
1.95804 -0.33892 4.60559
0.506897 -2.09675 4.43745
1.34932 2.20381 3.03449
1.88502 4.63531 2.52794
-1.09766 1.51469 2.83814
0.323229 3.45771 2.50646
1.77547 -0.195595 4.29567
0.850897 -1.39054 4.46237
-1.01692 2.46198 3.03817
3.84678 -0.0619348 3.8347
0.710166 3.59134 2.58654
3.99469 0.266209 3.67384
1.88253 2.30304 3.01069
-1.03505 0.261474 2.8693
1.41072 3.78727 2.73166
3.36695 2.66007 3.05792
1.93469 2.17331 2.99284
-0.635367 4.27534 2.20142
-0.811958 3.61568 2.32701
-1.58903 1.19219 2.85232
1.04405 0.942563 3.96805
0.352113 -0.0107598 3.55717
-0.154322 2.45266 2.75863
-0.707372 -2.62842 2.92392
0.185919 3.74018 2.44896
-0.645617 -0.74347 3.00955
3.23289 2.18701 3.19316
2.34837 1.06819 3.8087
-2.01218 2.59111 2.64305
1.06839 3.85157 2.56251
2.5369 2.50023 3.03397
-1.05408 -1.84044 2.77095
-0.622922 0.754015 3.44894
2.64467 3.20353 2.92059
1.68846 3.97899 2.6472
4.17356 0.707132 3.67121
-1.73919 3.19014 2.39175
-0.827436 0.64275 3.2617
0.149482 2.42807 2.67214
0.888299 3.95369 2.49677
-1.54856 1.8418 2.78581
3.9137 0.382961 3.8345
-0.446236 2.64831 2.5509
-0.0601208 0.925503 3.60328
3.50194 0.971781 3.54062
1.19483 5.1405 2.51018
1.04041 1.38581 3.71445
3.11726 0.614909 3.8669
0.667835 -1.58275 3.43178
2.76292 2.59153 3.05541
-0.463696 0.074252 1.1394
3.45068 3.1817 2.99676
2.47952 4.20274 2.7773
0.130018 2.51704 2.48501
-0.294373 -0.00550948 3.29404
-1.60477 -0.214885 2.82945
1.97882 -0.827157 4.78959
0.893085 1.45088 3.62204
-0.0951014 3.91061 2.37564
-1.30515 2.38145 2.62704
1.07994 4.8523 2.46104
0.0945455 2.44244 2.48346
-2.05553 2.8199 2.49559
-1.47924 -0.617307 4.63184
4.20384 0.888283 3.49215
-0.147722 3.91575 2.32428
0.911763 2.73301 2.6649
-1.49854 2.97259 2.54463
0.264319 0.0374432 3.3864
1.56798 5.42248 2.5911
2.65085 1.31508 3.54238
1.01582 4.1003 2.5025
-1.09405 -1.68568 2.79594
-1.85311 3.78297 2.38741
-0.0986317 2.6208 2.48068
-1.4463 4.12269 2.3209
-1.45713 -0.140346 2.69477
2.41143 1.21042 3.50788
3.31031 -0.987642 4.05139
1.08331 4.08893 2.44352
0.273929 1.70793 3.39271
0.339611 2.74926 2.51031
0.272296 -0.771 3.25214
3.82622 -1.32897 4.56997
1.00522 4.17473 2.42622
0.500047 -0.618967 3.41918
-1.42414 1.06702 3.22575
0.871134 4.20552 2.38433
2.48038 1.59699 3.47733
-0.144421 -1.70403 3.03253
4.32128 -1.97486 3.73081
-0.481066 3.0056 2.4988
2.22461 -0.865727 3.59702
3.752 1.37099 3.64122
1.44892 4.2297 2.39443
1.89151 2.96995 2.84741
-1.27125 1.49694 2.97446
-0.457947 3.03631 2.35836
2.90147 -0.51568 3.92205
2.72952 4.9432 2.58858
-0.445507 0.207174 4.13529
1.99325 1.79414 3.37752
-1.66951 1.41673 2.89266
-1.42928 0.419003 3.03986
-1.31406 -0.619541 2.98072
1.96041 0.373565 3.83944
2.75854 1.56555 3.34585
0.657627 4.42853 2.43344
4.17355 0.160004 3.94606
0.988137 3.04444 2.61497
0.814868 3.27561 2.60192
3.91258 2.01061 3.08015
1.4626 0.66624 3.68713
-0.272591 2.03606 2.93832
1.68904 4.40064 2.47468
-0.754164 3.07725 2.30859
-1.8694 0.026027 5.43603
-0.824298 2.093 3.03565
0.41209 -1.85113 4.6688
3.4702 -0.497555 3.84797
-0.379373 0.198212 3.08266
0.932188 -0.149086 4.6198
3.09895 1.78634 3.19816
-1.39708 2.95287 2.34019
1.64927 3.42392 2.76233
1.16626 -1.73265 4.73478
2.84323 -0.0600504 3.95623
-0.509693 0.462759 2.93862
5.22196 -0.117114 3.25846
-1.35832 1.48467 2.94015
0.0452841 2.11003 2.78874
3.24282 -0.560023 3.97153
2.36571 0.294565 3.88537
2.05908 3.59725 2.79124
-0.944764 -0.35079 4.43798
3.30045 1.88482 3.26923
-1.23686 4.13993 2.13732
-0.11919 3.38959 2.47754
4.04209 -0.287985 3.9394
-1.45982 2.27388 2.78815
0.0773797 2.94524 2.43013
-0.26264 -0.68954 4.4528
0.22461 0.148948 4.39909
0.593133 1.79338 3.1265
0.0987189 2.8635 2.43638
-0.510864 1.47094 3.16478
2.88581 1.43087 3.28565
1.77858 0.270566 4.11531
0.961391 -1.51806 4.78893
0.490882 -0.229934 3.46702
4.32271 0.6292 3.45525
0.563411 -0.170192 4.75328
1.2421 4.52078 2.44174
2.19548 0.438982 3.86033
0.0943039 3.02484 2.40838
1.22868 -0.606936 3.45637
1.40779 0.0155483 4.32401
1.04662 1.917 3.28717
0.979787 1.96172 3.09896
2.13718 4.23021 2.71743
3.56339 -0.462991 4.03954
1.61829 3.37179 2.76557
4.25201 1.06811 3.43468
-1.21821 1.41507 2.87688
1.8931 5.2359 2.60308
2.42414 1.78291 3.31909
3.6092 3.04208 2.92212
-1.28632 1.62641 2.85007
1.17514 0.0409949 3.54726
1.94315 3.33718 2.8404
2.06147 1.96668 3.13146
2.90049 -0.736632 4.50076
4.5465 0.295302 3.7579
4.15784 -0.256826 3.73284
1.27722 3.49023 2.68866
-0.147921 -0.468618 3.17663
4.36322 -0.678939 4.55511
-1.91011 3.46029 5.44392
4.13265 -0.237441 3.96606
4.33323 0.735828 3.43171
0.466397 3.29074 2.51353
-1.2124 3.59788 2.3043
0.770751 2.16443 2.87223
-0.201725 -2.34421 2.94586
0.889077 3.50383 2.59392
4.21921 0.309252 3.73722
0.52953 0.773108 3.55342
1.41207 2.11509 3.05129
0.622894 3.58258 2.57888
4.19427 0.167875 3.58893
-0.0156798 2.24863 2.63856
3.1615 3.26585 3.00961
-0.643382 3.5649 2.35984
2.18297 -2.52557 3.58596
-0.659268 2.28911 2.68331
-2.02099 3.28746 2.38414
-0.105774 3.57595 2.36
-0.208777 0.988468 3.29498
0.945704 4.84596 2.46046
2.85919 0.696483 3.62276
3.78992 0.465211 4.10915
2.42796 2.29297 3.01692
-0.577716 4.32772 2.25853
0.342471 -1.83863 2.99869
-0.0248942 -0.215606 0.859062
3.14216 0.580627 3.79347
-0.039966 3.67279 2.38725
-1.28273 0.572288 3.27993
-0.705071 1.51202 3.01577
0.760387 0.41897 4.21055
0.484162 1.3357 3.69783
-0.190265 3.74913 2.37642
-1.02464 0.0730628 2.78277
0.654684 2.41397 2.63181
1.02932 -1.01958 3.86999
1.30163 -0.301437 3.49782
1.72103 0.516768 4.10176
0.212254 3.8311 2.40567
-0.958153 1.00696 3.63943
2.98404 2.3301 3.03219
3.20442 2.31348 3.09563
0.441294 -0.0462562 3.55063
-1.55068 1.07081 2.84436
2.70702 0.112048 3.94168
1.05877 1.89542 3.17606
4.67407 0.0691037 4.0284
1.65883 3.31156 2.79528
-1.08979 2.77595 2.4876
-1.43845 1.32064 2.7726
-0.521645 1.97338 3.05504
4.28498 1.9666 3.44002
1.39373 0.423211 3.61659
0.463201 0.528426 4.16577
1.2166 3.18773 2.69522
5.01169 -0.145219 3.44306
-0.661263 3.23412 2.34311
2.78557 2.77009 2.99214
1.56031 0.288984 4.19539
1.4449 1.93329 3.06292
0.819465 -1.78456 4.72027
4.10215 -0.411586 3.62715
-0.551558 3.12178 2.31149
2.13365 0.417684 3.90423
5.02812 0.367149 3.34675
1.17275 1.93294 3.12674
4.68831 0.212641 3.79257
-0.902155 -0.0826187 4.17757
0.834891 4.76332 2.38535
1.0016 3.5196 2.62938
-0.271006 0.411279 3.34054
-0.550198 2.08916 2.65466
-1.00392 0.518781 2.84015
2.51901 0.125833 4.07381
-0.36223 1.36378 3.30344
2.24448 3.52278 2.81254
0.16147 0.714338 3.41783
1.30586 2.01625 3.04532
-0.10846 2.17339 2.74132
3.32415 -0.450329 4.06018
-1.02681 2.54805 2.62812
1.71494 5.02394 2.55825
1.66688 3.61523 2.703
-0.485161 0.219003 3.10039
-0.162172 -0.141132 4.46272
-1.48777 1.00178 3.39118
-0.247088 3.53262 2.38164
1.7799 -0.501698 3.56224
4.03915 0.216134 3.78074
2.43403 2.29199 3.13543
-0.380599 0.0953812 1.27054
-0.555158 3.59527 2.33116
1.28834 -2.27187 3.0528
0.472903 2.16902 2.74443
0.21463 4.2856 2.19384
0.945462 -0.771785 3.44307
1.37697 0.998338 3.70025
2.40788 2.35165 2.96965
-1.32183 0.0376477 3.27456
-0.903523 1.1851 2.68045
-1.00009 3.70991 2.33443
2.92753 0.794801 3.63988
-1.00165 1.06103 2.98855
1.65933 2.32334 2.92615
-1.14959 1.57106 3.21287
-0.603335 0.437762 3.10636
3.58989 0.639544 3.85791
0.470468 3.83463 2.5034
-0.233394 2.54852 2.5611
-0.934497 0.871231 3.22734
-1.17349 -1.4962 2.8223
-2.05607 2.61194 2.64264
4.35376 0.938628 3.80624
0.175253 3.89052 2.4497
-0.629609 2.59927 2.64285
-0.498032 -0.648802 3.259
-0.0579664 1.2166 3.81638
0.680527 3.9584 2.48811
2.69867 1.15336 3.70048
-1.02064 -2.03246 2.85244
0.424695 0.697722 4.23322
0.641083 2.55287 2.60234
-1.64809 0.522895 2.68836
0.860845 -1.19916 3.30041
-0.249289 3.94375 2.34242
-1.27481 2.10053 2.91693
4.57106 -2.17558 3.66089
1.8422 0.841495 3.79262
-0.764874 3.47118 2.33281
0.873583 2.15151 2.80407
-1.8155 2.13943 2.50289
4.81306 0.402002 3.62382
-0.347249 -0.893593 2.98287
1.70562 2.09757 3.00996
3.96274 0.40776 3.66292
-1.18052 0.990334 2.70579
0.829842 3.62078 2.56062
0.733804 0.0612051 3.55638
-0.656467 2.39627 2.59822
-0.678568 4.17347 2.18011
5.027 0.695035 4.32707
0.180781 -2.16092 2.73884
0.105996 3.62677 2.43434
0.58033 1.18775 3.62888
-1.38704 0.516481 3.28087
-0.753089 -0.0535069 2.98834
-0.569478 2.36429 2.69103
0.556588 3.7206 2.48433
-1.23188 0.607934 2.74169
3.97905 0.485177 3.90429
4.57571 1.12942 3.48234
-1.52571 0.0670957 2.72128
-0.981508 3.64149 2.22925
-1.79642 3.82004 2.38845
1.02306 2.41141 2.79433
4.59881 -0.968218 3.64091
1.51656 1.12971 3.83412
1.46519 5.25277 2.55721
2.20149 1.17268 3.73024
-0.31045 3.84498 2.37759
1.84111 -1.62033 3.25804
3.5076 0.271706 3.80704
1.14235 2.52424 2.74105
-0.759386 -0.125557 3.30586
3.03661 0.560003 4.07283
4.52359 1.02627 4.0681
1.17604 3.99318 2.55465
2.03055 1.38058 1.06383
-0.304026 -0.0442452 3.23846
-0.161374 2.51719 2.63658
-0.437352 1.57305 3.48614
1.15738 4.03143 2.52365
-0.537198 2.64033 2.4428
-1.79126 -0.194017 2.80105
4.27328 -0.768036 4.56615
-1.30853 2.15814 2.69236
-0.289919 1.46019 3.51143
0.315223 0.870948 3.69028
5.66957 -1.51551 3.0449
-1.35966 -1.374 2.853
2.2962 2.66327 2.96757
3.16782 -0.602117 4.05008
-0.249497 3.95827 2.30242
3.21445 -0.797857 3.98684
-0.191059 2.76167 2.44729
0.308223 -1.05665 3.27187
2.1612 4.45976 2.59501
4.29023 -2.43035 3.54765
3.80471 1.20715 3.51725
-1.01143 3.81784 2.20211
1.21973 5.35993 2.53815
2.21001 2.83465 2.95606
-0.61495 -0.155634 3.29897
-1.17976 -0.110696 2.83477
-0.853483 1.58386 3.26305
1.36966 4.14566 2.44729
1.03221 -1.56661 3.26322
-0.0115651 0.266583 3.39037
4.63903 -1.39831 4.72443
-0.928393 0.312326 3.2631
0.655666 4.23407 2.3973
-0.539118 -1.09236 4.80127
0.879075 -0.757746 3.4916
1.92794 2.93991 2.82162
1.95825 1.50573 3.37995
-0.230643 4.13048 2.10404
3.81222 1.50433 3.27375
0.125272 2.94978 2.43558
-1.02502 0.264185 3.08374
3.16043 1.3956 3.33161
1.13094 -1.56715 4.79268
1.86066 2.99511 2.77614
-0.461068 1.50343 3.28595
0.415958 -1.0279 3.18596
0.299552 -2.65629 2.78327
-0.943926 3.54099 2.2618
1.82687 0.948658 3.83661
-0.33014 4.37671 2.27658
-0.286633 2.40173 2.69536
-0.324566 0.463473 1.26259
4.45296 -1.96771 3.60208
2.04345 3.84033 2.70926
-1.11658 3.63476 2.15162
2.04229 2.22996 3.0108
0.912802 -2.2902 2.90578
-0.604496 3.64797 2.26515
4.22111 0.765332 3.54722
0.997701 2.44861 2.73644
0.833638 0.466098 3.56291
-1.2379 1.77959 3.10971
3.96683 1.40453 3.46822
1.16237 1.15358 3.7322
0.351761 0.176493 3.50521
-0.806897 0.0156636 3.28401
1.33603 2.41805 2.86821
-1.09708 -1.57857 2.84009
-0.834215 3.64628 2.18648
0.282845 2.49395 2.52716
-0.702034 -0.326089 3.26499
2.22567 1.27919 3.77165
-0.173352 3.9216 2.38591
0.232005 2.51305 2.5823
-0.0148892 0.571982 3.5292
1.10061 5.21316 2.50851
-0.440923 3.84651 2.26926
1.10659 1.34685 3.70537
-1.75774 2.83476 2.71907
-1.37284 -0.617916 2.79359
0.590994 0.917839 3.69095
1.28374 4.06263 2.5018
-1.01874 0.77285 3.71772
-1.2186 -0.11629 2.85319
0.565316 2.6033 2.56849
-1.71441 1.71784 2.73257
3.22642 1.10566 3.56991
-1.44887 3.34158 2.27171
2.23782 4.20109 2.65327
-0.835369 -0.191032 4.08211
1.48263 1.5478 3.47476
0.699669 -0.0309567 3.41296
0.80479 -0.992911 3.32729
-0.0159507 2.69078 2.41582
-0.176275 4.08991 2.2817
3.4806 -0.135674 3.95876
2.27347 1.3541 3.53076
3.99879 -0.908072 3.84773
0.162969 -0.471838 3.34714
0.62965 2.68828 2.5834
0.749093 -2.03214 1.94435
0.61431 4.2221 2.3934
-0.737412 -0.484994 3.92886
1.52669 1.63904 3.34707
-2.26586 2.77736 2.48996
-1.12128 -0.421418 3.23599
-0.655522 2.93986 2.42346
2.62083 3.63613 2.87426
0.152912 -0.299987 4.4942
0.457943 1.70708 3.30996
0.576394 4.25897 2.35382
-1.10652 -1.89704 2.89214
0.175516 2.79415 2.46452
-1.46211 2.01245 2.75086
1.11233 3.17873 2.68525
-0.371333 1.35045 3.30618
0.24574 -1.26427 4.57735
1.35217 -0.972972 5.05818
0.910493 1.90501 3.28163
2.37698 3.0618 2.81345
2.90401 -0.159491 3.95707
4.12318 1.23331 3.45138
2.21147 -0.717591 4.43314
2.06296 1.70923 3.46824
2.17328 4.0176 2.72339
4.25828 1.22243 3.41256
2.0016 4.40979 2.60383
-0.31943 -1.20147 4.41515
0.240519 2.01383 3.05588
3.33581 -0.259359 3.95377
2.67972 3.24353 2.85318
4.56097 0.92421 3.39158
-1.07385 -0.77768 3.72333
2.66537 1.65454 3.20443
0.56355 1.61712 3.47573
1.68563 4.02667 2.51652
0.491283 -1.01826 3.22785
1.87444 2.80951 2.8804
0.184535 0.490566 3.56183
0.0255007 0.640467 3.38761
2.25821 1.23598 3.52367
-0.247847 4.02481 2.30167
0.58492 -0.496385 5.32682
0.567235 -1.87666 1.98421
-0.234057 2.67726 2.53961
0.40794 -0.742819 3.23507
0.647849 2.86383 2.58185
3.82886 -1.80902 3.83142
3.87201 -0.76496 4.2071
-0.474328 4.12191 2.28495
2.41074 4.52287 2.71365
-1.20919 -1.67398 2.86332
1.32317 1.68657 3.52506
1.98648 1.48568 3.52003
1.97761 -0.552445 4.85495
4.11893 1.97898 3.29273
4.69166 -1.76278 3.49647
1.86431 2.86638 2.83741
1.62831 4.184 2.441
-0.948656 4.22609 2.26108
3.09936 -0.085442 3.97531
0.00513819 3.03715 2.50278
3.35996 -1.0946 4.6594
3.94489 1.67898 3.40403
1.25135 4.25745 2.39061
1.76464 1.71675 3.33343
0.180922 2.89265 2.48347
2.47594 -0.879012 4.81376
-0.930808 0.904857 3.23658
-1.13565 1.94641 3.27987
0.276978 -1.49778 4.63411
1.91617 1.77794 3.35035
1.73922 3.23889 2.81225
4.08229 0.155249 3.60025
0.930905 4.51617 2.41703
2.7 -1.35011 4.60358
3.05786 -2.13237 3.71479
1.46236 -0.774363 3.44962
1.04629 4.6611 2.43027
-0.447538 0.628003 3.91738
-0.342945 2.05543 2.96646
3.84145 1.9117 3.14429
2.43416 -0.383734 3.81797
-1.34241 1.43251 2.8004
0.171237 3.1753 2.45746
-0.482518 1.95556 2.92515
-1.04178 1.09669 3.08797
-1.34022 -0.8544 4.23598
0.167633 3.12011 2.47677
2.4304 -0.0961562 3.88162
-1.4025 0.222321 3.03384
-0.670865 0.31462 4.08652
1.87291 3.48905 2.7647
2.4221 -1.42385 4.64713
3.80851 -0.406506 3.73752
-0.796777 2.17966 2.84806
0.0520399 2.07293 2.9564
4.23176 0.253429 3.89182
1.47597 4.79587 2.39126
-0.3414 3.1852 2.35155
2.77056 -0.480999 3.90695
3.59619 2.68156 2.97417
3.22043 -0.0348154 4.35238
2.46062 2.0697 3.10558
0.918603 0.274452 4.22692
-0.0811966 3.429 2.43518
4.88994 -0.83912 3.80578
2.24687 1.9696 3.06081
0.271784 3.46895 2.4573
-0.139539 0.218186 3.32794
-1.52572 0.645124 2.89301
-1.42974 4.17983 2.21347
-0.795535 -2.72336 2.87187
-1.13711 0.803282 2.85916
-0.616415 -0.239659 4.36538
-0.351019 3.48383 2.34355
1.91 2.1627 3.00217
-1.65793 3.31516 2.27736
-1.02917 -0.0796649 3.7917
-1.15092 1.20178 2.91781
2.5724 -0.105914 4.12017
0.0301926 1.81744 3.37084
2.0437 2.96614 2.88001
3.06573 -0.929119 3.88093
1.04822 4.13714 2.37482
0.764867 -0.784093 3.46703
2.736 0.106884 3.8764
-0.634393 -1.51023 3.1712
-0.180203 4.15515 2.2241
3.60245 1.45946 3.44305
0.601426 -1.07367 3.19174
-0.998016 1.30426 3.15527
-0.41186 2.99927 2.42124
-0.686655 -0.458358 4.84411
2.51877 -0.23761 4.43632
0.354717 1.74841 3.21996
1.34961 -1.36824 4.68769
1.409 3.03709 2.77205
-1.38543 2.60309 2.70116
1.97535 0.66983 3.80196
2.35923 3.22123 2.80929
4.04242 -1.17894 4.53147
1.13052 1.90222 3.21032
-1.08415 0.5907 2.68607
-1.25824 -0.602748 4.2106
-1.02908 0.63587 3.26286
4.42003 0.957062 3.39872
-0.294212 1.89161 3.01797
4.04024 0.466654 3.50912
2.96964 -0.597082 4.10716
1.89387 4.08403 2.61482
0.445691 3.0752 2.53281
0.09292 -2.18025 1.94455
3.90541 -1.0645 3.68959
-0.079652 3.25161 2.44151
3.82906 -1.08392 4.31968
2.89569 1.82305 3.2189
0.682576 3.21555 2.54578
0.56108 0.18684 3.57088
1.02313 1.94477 3.12196
-1.16417 -0.923471 4.97042
-0.962881 4.03206 2.18621
1.61637 4.8434 2.50745
4.0974 1.36815 3.40605
2.71771 4.14659 2.7406
0.6194 3.42064 2.58351
-0.105672 0.67997 3.43622
2.27264 1.98368 3.22777
-2.04012 3.65295 2.45138
0.651454 2.10589 2.81018
-1.13891 4.33031 2.17516
2.25686 0.672072 3.91567
0.680817 3.59132 2.60952
3.81205 0.462919 3.74569
3.01142 1.98818 3.2481
3.41393 -0.765041 3.86235
4.21453 0.190606 3.76019
0.0688976 3.40233 2.44629
-0.528119 -0.0783342 3.05777
0.658912 3.6153 2.55264
0.723046 2.23375 2.76678
-1.54647 2.01286 2.50715
3.92787 0.268246 4.6941
-1.38818 4.21643 2.22021
0.898954 -1.24969 -0.543894
-0.0848701 4.19382 2.16711
-0.308625 -0.213263 3.08844
1.05578 0.550953 4.09655
0.333451 2.22516 2.79412
-0.932533 3.65325 2.35709
1.44826 -0.934249 2.62656
1.17643 2.44158 2.88785
2.7391 0.228959 4.01105
1.70747 -1.32382 4.20354
1.04256 1.05002 3.98574
-1.58616 1.22046 2.8399
2.00238 3.82672 2.70495
-0.951193 -0.869535 2.9208
-1.17879 3.57638 2.06682
-0.167829 -0.963846 3.00026
0.189366 2.33549 2.69494
-0.211152 0.934424 3.2852
-0.909892 3.64608 2.25681
-0.319736 0.891581 4.06527
1.62867 1.93177 3.11124
-1.63299 -1.35619 4.16494
-0.314216 1.51945 3.27235
3.88539 0.536108 4.03241
0.197274 3.24477 2.45879
3.04538 2.66442 3.05136
0.814613 0.70219 3.59125
1.66932 -1.58678 4.70308
-0.143751 0.727323 3.29048
1.47813 0.384188 3.63646
-0.905324 3.20385 2.34192
3.82184 0.246345 3.82487
1.98097 2.01345 3.08076
-1.22206 1.33638 2.99931
0.684118 4.74476 2.37766
1.05705 3.49047 2.62126
3.16501 -0.674521 3.81896
3.78744 0.354546 3.74586
0.00809012 2.08536 2.88374
4.10419 0.115154 3.65499
-0.941896 -0.508532 2.95919
-1.01087 3.38829 2.36976
-1.75085 2.43672 2.69552
4.05716 -0.455856 3.91052
2.15462 2.13104 3.01114
0.683254 0.392152 3.54829
-0.337829 3.41681 2.34774
3.75098 0.0157837 3.82473
-0.535875 -1.39821 2.99535
-1.53973 1.85226 3.24297
1.97328 2.06716 3.01462
3.84604 0.134752 3.86526
3.10167 3.71068 2.75433
-0.218351 4.31697 2.24865
-0.86498 2.43352 2.62341
-0.724371 -1.30582 2.88337
-0.067378 -2.32248 2.86625
0.897526 3.74247 2.60652
3.09755 0.659959 3.73291
-0.681988 -0.49321 2.96792
1.50072 2.27331 2.94791
-1.47369 1.05846 3.28673
-0.14907 -2.59259 2.78423
2.1684 0.0622942 4.04071
-1.05307 3.57921 2.22493
-0.460083 0.214606 3.03936
-1.19844 -1.12226 4.02658
-1.18852 0.842664 3.64079
0.343436 4.5944 2.49496
0.076233 2.40637 2.65644
-1.63591 3.86622 2.37887
2.66421 -0.89605 3.72119
0.687644 4.6946 2.43408
1.57262 3.84595 2.61526
0.262442 4.61944 2.38404
-1.22701 1.57395 3.14334
-0.41887 1.34733 3.55284
0.937422 3.8835 2.52842
-0.101555 0.165742 1.31726
0.609546 -2.41774 2.77526
1.01352 2.51529 2.72453
-0.730496 0.576683 3.21823
-0.573485 3.72393 2.21831
3.81736 0.740256 3.55385
-0.990246 0.0167672 3.25809
-0.845873 2.61263 2.6359
-0.896645 3.784 2.18275
-1.28333 2.13137 2.73761
-1.9902 2.82643 1.92085
0.914089 2.63343 2.65566
2.95464 3.54845 2.99151
1.86694 1.38575 3.67297
2.75603 1.09901 3.62348
4.14303 -0.79429 3.82894
-1.02863 -2.09317 2.89218
1.07144 2.60015 2.73953
0.743591 4.13445 2.51753
2.26794 4.01738 2.72586
-0.357927 2.83134 2.51896
-0.632196 4.36613 2.28284
0.49659 -0.54025 3.29703
4.04126 1.17033 3.40844
5.29908 -1.79317 3.32062
-0.980788 3.7371 2.22481
-1.40911 -0.741902 2.82525
2.28658 2.75323 2.88616
-1.41932 3.18567 2.26718
-1.20445 -1.2893 2.81225
3.71806 1.08819 3.47496
0.824979 4.15338 2.40955
3.84472 -0.560863 4.04273
0.0433851 -0.348822 3.30014
3.70596 2.07969 3.20971
-0.0143215 -3.08919 2.56915
-1.48408 0.898996 3.41221
2.11352 3.57181 2.79203
0.37266 3.51549 2.51785
1.10259 2.10341 3.02208
3.04452 3.72061 2.90103
1.03442 2.15006 2.84518
0.635037 0.893039 4.25051
0.235498 0.705703 3.58832
-1.47274 3.73542 2.38968
-0.771919 3.5794 2.37211
-0.412412 0.159708 3.07247
2.94653 -1.46524 4.10673
0.186012 0.95383 3.88751
0.190495 4.64298 2.36112
1.13567 3.74897 2.63972
1.05031 2.31689 2.823
4.15919 -2.2217 3.61042
-0.0963143 4.17061 2.12815
0.233687 3.72941 2.46176
-1.54723 2.30449 2.7136
-0.728798 0.662716 4.00932
2.87874 2.25236 3.10438
1.06921 2.24174 2.84882
-0.0594653 -0.705077 3.07912
1.13443 3.84561 2.5765
0.546434 2.36769 2.582
1.76536 0.361772 4.05762
-0.97812 2.27585 2.6229
-0.355576 0.161651 1.16922
0.073553 1.24312 3.815
1.26654 -0.435926 3.48403
0.363821 1.14587 3.90198
-1.94764 0.47251 5.26552
-0.89798 0.598158 3.24943
0.309227 0.238627 3.496
2.30063 2.37477 3.00109
-0.0621676 3.78159 2.36596
-0.812362 0.200231 2.90024
0.871416 2.56615 2.67211
-0.593045 0.250472 3.27649
3.55154 -2.31239 3.51753
3.37158 -0.922804 4.5631
4.24009 0.986863 3.65544
0.642179 3.99916 2.50905
-2.16254 2.83838 2.49675
-0.198839 0.633679 3.48326
2.12209 2.55917 2.95491
2.8231 -0.734832 4.22331
3.51076 0.820997 3.5375
1.34732 4.01738 2.54093
3.20685 1.11322 3.60002
-1.84927 1.29927 2.82774
-1.16784 -1.38389 4.7925
0.344543 2.58014 2.5218
-1.19883 -1.3075 2.80971
-1.60394 3.90002 2.37969
-0.0353291 4.07546 2.41182
-0.60427 -0.153686 3.29149
2.26107 -1.06732 4.64166
0.690947 4.79916 2.54682
2.94609 1.315 3.49294
0.573627 4.14926 2.4643
0.211196 2.71656 2.48885
0.650895 -0.0176916 3.41007
0.483046 -0.838089 3.35985
4.15862 1.11156 3.40012
-0.888384 3.84122 2.16194
