ply
format ascii 1.0
element vertex 1927
property float x
property float y
property float z
end_header
0.5775 1.68878 3.26501
-0.611096 4.09603 2.13883
3.64294 0.567229 3.81234
2.73185 1.4873 3.40112
0.0508581 -0.20037 4.30929
5.01801 -0.617982 4.27139
0.593531 2.27022 2.86422
0.251772 3.72087 2.40658
-0.753946 2.99273 2.52328
0.663501 1.83984 3.16721
-0.397812 -0.628777 4.57342
0.00334423 1.18955 3.95213
2.11365 3.4012 2.7734
-0.356912 2.50255 2.69885
1.97975 4.30111 2.37985
-0.535532 -0.385799 4.68657
0.551716 3.96174 2.46259
0.640253 1.26109 3.68842
3.69036 -0.847089 4.23572
2.17431 4.10743 2.56548
3.26069 1.80541 3.12317
2.88796 -1.00018 5.09714
-0.542737 2.65404 2.6519
4.77777 0.382097 4.09112
-0.87326 3.38996 2.48457
2.55079 0.550213 3.75261
0.472206 1.93225 3.16279
3.55788 -0.787133 4.39101
0.0848477 1.21735 3.71672
2.22781 3.38831 2.70229
-0.0214768 2.56753 2.695
-0.685869 3.8553 2.23422
4.03671 -0.804258 4.07795
0.979716 3.01364 2.63667
1.11999 -1.47751 4.32931
0.291625 2.29631 2.86523
0.8084 1.63445 3.35471
3.49582 -0.238345 3.98399
0.030403 3.5648 2.41148
1.35657 4.1973 2.31541
3.99582 1.35986 3.53917
0.815404 2.21307 2.91633
0.982827 4.28824 2.29914
3.71323 -0.124622 4.09786
0.312119 2.87545 2.54983
1.85222 3.76201 2.56389
-0.100532 2.44566 2.76891
-0.585323 3.13571 2.48004
0.584801 3.78983 2.46896
2.26878 0.848322 3.8093
-0.222417 4.52902 2.19145
2.86138 1.60634 3.2678
1.0089 2.38784 2.91817
1.68828 3.25794 2.80618
2.67533 -0.312378 4.31051
0.778995 0.87448 3.89537
1.85827 1.66687 3.40488
0.270377 3.81486 2.41276
-1.26077 0.421049 3.83797
1.42376 4.5942 2.32163
-0.621301 -1.09413 4.77999
1.75272 3.78649 2.5805
0.226975 4.28753 2.26737
4.03782 -1.00684 4.88073
2.36544 2.29976 3.05207
3.40261 0.397868 3.98648
0.702821 3.00966 2.61734
-0.684516 1.70462 3.27623
0.140348 1.77728 3.18746
0.541668 -1.39672 4.67053
-0.634014 0.903012 3.63934
-0.467123 2.42348 2.71179
0.494216 3.76714 2.44883
1.14608 3.14937 2.59391
0.214556 0.251436 4.38448
3.65445 1.52396 3.39232
4.03764 0.12901 3.96014
-0.136931 0.873787 3.85665
-0.642069 -1.22285 4.27316
0.730243 3.08034 2.59516
-0.578998 3.73619 2.32688
-0.0225213 2.38811 2.82933
1.74223 4.51055 2.33048
-0.480689 3.89015 2.22213
1.31753 3.55286 2.58712
-0.565479 2.76475 2.57137
1.61481 2.1211 3.13475
0.746917 4.76132 2.33192
4.01186 -0.627378 4.0455
0.89007 1.28344 3.51084
2.99749 1.23915 3.56833
1.83591 2.09871 3.27426
-1.02324 4.3586 2.15714
0.675497 2.69244 2.67102
3.1632 -0.504641 4.21896
1.70805 3.54881 2.67361
0.419334 4.0854 2.32158
2.24844 -0.810437 4.90968
1.7245 0.668675 3.92546
0.180733 2.8438 2.51853
3.90586 0.283231 3.76914
3.05521 1.47142 3.61218
-0.699933 3.8923 2.10093
0.377788 2.28956 2.97381
0.020992 3.49943 2.42388
0.497979 4.46155 2.26765
0.604013 2.79348 2.59444
0.28417 2.20456 2.99187
-0.720577 3.58961 2.39518
3.67738 1.28919 3.54355
-0.226647 4.10625 2.21038
3.0304 -0.0603723 4.13862
4.20843 0.219273 3.81663
-0.289131 4.05549 2.27833
2.46957 2.80816 2.82226
-0.64788 0.294973 4.04336
-0.494079 3.53069 2.49305
1.07375 1.382 3.51898
0.50815 2.0638 2.94792
-0.132036 2.33402 2.9813
0.896977 4.27131 2.39099
-0.322482 1.61021 3.34333
-0.0193792 3.43412 2.37328
0.00770362 2.8614 2.51693
0.861144 -0.196679 4.61936
-1.14522 3.26938 2.45119
2.49557 -0.128445 4.16932
-0.245808 2.23642 2.98485
-0.491783 4.20181 2.25822
3.33007 1.26545 3.42329
0.492669 3.64564 2.48958
-0.416392 2.83354 2.56562
0.0099551 3.8442 2.36189
1.99169 3.43884 2.7335
1.28012 4.58708 2.31152
-0.116986 2.60206 2.72816
0.00517701 1.93409 3.10478
6.04612 0.262256 4.8376
4.1026 0.86548 3.65696
-0.822285 -0.910058 3.99847
0.499851 4.27836 2.07845
3.62002 0.770893 3.65286
-0.033967 1.82929 3.05647
3.38987 0.419983 4.06243
1.93844 2.57233 2.96576
3.10457 -0.913088 4.41522
1.35674 3.28705 2.63827
3.9242 -1.38511 4.37746
3.28669 2.7473 2.9036
3.81508 0.118898 3.91005
-0.135141 3.37925 2.45487
1.18399 3.95926 2.43257
-0.651752 1.35067 3.369
1.47221 4.06626 2.45433
1.50758 2.03932 3.14784
0.392765 3.27206 2.46882
3.637 -0.916866 4.22946
3.33269 2.62532 2.89245
4.12957 -0.716317 4.09754
2.43724 1.92458 3.22468
-0.663235 3.84326 2.18441
2.43929 5.1663 2.54106
-0.479648 1.29792 3.55697
2.01278 -0.429421 4.57676
0.199043 4.08195 2.46791
3.49571 -0.792019 4.1975
-0.498055 2.57948 2.68018
-1.25007 -0.283811 4.11158
1.24971 3.38939 2.66041
3.12974 0.930106 3.64437
-0.591852 1.96012 3.0805
0.405536 2.0334 3.02573
2.13527 4.23955 2.4808
0.498334 1.36234 3.63454
1.01498 4.02324 2.40935
-0.370748 3.38695 2.45206
-0.274332 -0.8558 4.99935
1.22704 2.71758 2.74127
1.5371 0.737427 4.12704
1.33936 1.98781 3.19499
3.45517 0.965933 3.55447
-0.767151 3.84145 2.18428
0.421439 -0.674714 4.7872
-0.670163 3.34686 2.4595
2.57491 2.68047 2.89824
0.57982 3.76467 2.52154
-1.09308 0.768024 3.77132
0.0553039 4.19705 2.21236
1.6148 1.64651 3.34517
4.21751 -0.385024 3.93614
1.78416 2.38293 2.97934
-0.120756 2.98693 2.46603
1.95194 3.84006 2.55752
3.51271 1.51568 3.55021
2.82468 4.81072 2.61763
0.887065 2.28592 2.91014
-0.828616 0.281069 4.15001
0.832452 2.97834 2.60284
-0.720468 3.15955 2.4253
1.26997 0.000254634 4.56407
1.68169 2.594 2.97428
3.14021 1.69867 3.2521
2.18695 3.95555 2.58959
3.24829 0.798066 3.62583
0.761954 3.14984 2.56978
1.1724 4.58739 2.30897
-0.520773 2.44112 2.72196
2.33701 0.000557252 4.14149
3.17148 1.63362 3.37505
-0.777228 0.910447 3.61305
-0.652046 3.74189 2.26857
3.83586 0.516364 3.893
1.9439 4.48556 2.35752
4.33952 -0.762446 4.38093
-0.839495 3.73293 2.29912
3.63421 1.70767 3.36015
2.84886 -0.572186 4.08354
1.05478 2.48193 2.86461
0.541405 3.06461 2.45642
1.37986 0.967936 3.83574
1.44292 1.82583 3.37057
3.01123 1.78086 3.16008
1.3415 4.60072 2.31776
2.11028 1.10888 3.76549
1.99935 -1.03469 4.76691
0.574055 3.26134 2.49715
3.5076 0.271706 3.80704
1.18875 2.60262 2.78039
1.22849 1.89343 3.28628
2.9996 0.505258 4.11194
4.52359 1.02627 4.0681
0.682538 -0.850816 4.50236
-0.127628 3.91357 2.38959
2.14007 3.36564 2.73498
-0.171334 2.58329 2.76661
1.32499 4.00557 2.4497
-0.641664 2.97452 2.57394
-0.638328 3.5671 2.42114
0.880961 2.22606 2.91172
-0.491681 4.12896 2.24402
0.223244 -0.15674 4.58265
-1.04234 -1.16737 4.14783
4.81306 0.402002 3.62382
2.20107 1.39231 3.26382
-0.240119 1.57401 3.38085
1.72109 2.17513 3.04926
3.78936 0.439698 3.68332
0.351051 4.13872 2.22983
1.97343 -0.0651997 4.15978
0.960992 3.64809 2.4922
-0.022925 2.80459 2.52959
-0.71387 2.42403 2.76271
0.971634 3.12695 2.62089
3.69148 -0.412764 3.84058
4.99462 0.70543 4.34275
0.153522 4.2977 2.25204
-0.961528 1.83351 3.2287
0.266052 3.6701 2.41608
-0.464932 3.01471 2.52704
-0.631068 2.37874 2.84072
0.716908 3.74341 2.42728
-0.932899 1.74179 3.2464
2.86076 4.7564 2.55207
2.89533 0.258077 4.07268
-1.3541 3.669 2.3351
4.63903 -1.39831 4.72443
0.560399 3.4627 2.33876
0.854879 4.24868 2.31323
-0.539118 -1.09236 4.80127
0.768332 2.24074 2.91295
3.48696 0.2871 3.93006
1.91119 1.49982 3.42897
1.96768 2.98625 2.73532
-0.230643 4.13048 2.10404
3.7678 1.50855 3.29036
-0.253123 3.70563 2.41798
3.47617 0.614474 3.70509
0.198611 3.02179 2.48547
3.95141 -0.0825659 4.21137
2.31056 2.43902 3.05595
3.09709 1.46437 3.31457
1.13094 -1.56715 4.79268
0.445395 3.8221 2.46699
1.90507 3.03978 2.68877
2.77339 0.133468 3.9906
-0.853147 2.33331 2.76011
-0.449863 1.44286 3.54573
-0.689181 3.42588 2.43489
1.31313 4.0405 2.41766
-0.526895 2.71095 2.58236
4.91002 -0.714791 4.06399
1.18139 0.767394 3.95599
2.74084 1.96082 3.13393
4.27328 -0.768036 4.56615
-0.29813 1.33951 3.55846
2.47316 5.08028 2.54587
2.59909 1.93838 3.22075
2.31081 2.73131 2.90108
3.16782 -0.602117 4.05008
1.68574 3.4853 2.67308
3.21445 -0.797857 3.98684
-0.147964 2.85235 2.56349
2.04012 0.561189 3.97974
-0.0513284 4.00537 2.29257
-1.42722 0.6106 3.32998
3.69077 1.2893 3.46417
-0.871834 3.91331 2.1588
0.175583 2.2688 3.01948
1.94363 3.61331 2.63854
-1.09022 3.08849 2.46287
2.23298 2.89744 2.87337
-0.115693 2.1463 2.95107
1.87 3.70426 2.63985
-0.856807 1.47873 3.30443
1.52207 4.1532 2.33053
-0.902155 -0.0826187 4.17757
1.93987 2.85128 2.80809
1.11733 3.54666 2.55224
0.858961 4.79876 2.33532
-1.66346 1.70861 4.45343
-0.743957 3.88921 2.19495
-0.640423 2.09834 2.83373
2.45935 0.0403141 4.14224
1.50291 2.81924 2.83205
2.30522 3.57915 2.69717
2.45078 1.17224 3.49243
1.30975 2.06676 3.13822
-0.156437 2.19852 2.89857
1.54206 4.09443 2.35641
3.11806 1.28198 3.3563
3.32415 -0.450329 4.06018
2.13799 2.99686 2.85492
-1.08677 2.55735 2.77428
1.1192 4.17795 2.32996
1.76145 3.64734 2.59324
-0.162172 -0.141132 4.46272
-1.48777 1.00178 3.39118
1.5641 1.03078 3.80054
1.14322 3.86487 2.47162
1.01934 1.88985 3.25697
4.67407 0.0691037 4.0284
-0.209363 2.51118 2.68454
1.73175 3.35937 2.70528
3.5757 0.717005 3.68459
1.1544 3.90248 2.43669
-0.652509 1.88002 3.18741
4.28498 1.9666 3.44002
-0.412075 2.44687 2.71303
0.463201 0.528426 4.16577
1.3024 3.22247 2.63192
3.72433 -1.02584 4.29636
-0.565955 3.33315 2.43954
1.21683 2.69521 2.78838
1.55548 0.272673 4.20263
1.44353 1.97895 3.14834
0.819465 -1.78456 4.72027
-1.2066 1.28638 3.57022
2.89943 -1.30798 4.45075
-0.464962 3.22641 2.41364
2.08652 0.311445 3.97409
1.00037 2.59431 2.75542
1.14732 1.95546 3.22233
0.99667 3.96597 2.41182
0.344981 1.2315 3.7329
1.10272 3.99623 2.38422
-0.234557 2.60777 2.68859
4.61844 0.217677 3.71699
0.50273 3.22705 2.47203
3.08726 -0.613393 4.51891
4.36083 0.94407 3.80039
0.359922 3.92825 2.41879
0.669381 1.93093 3.1264
-0.666495 2.64198 2.78948
2.65506 -0.413897 4.54984
1.64651 4.53531 2.32602
1.5669 3.35013 2.68784
-0.0642246 1.18286 3.82759
0.862847 3.98138 2.4217
0.886543 1.82973 3.13471
-1.46542 -0.969235 4.17919
0.555647 1.96608 3.02648
2.61011 1.13277 3.69989
1.95945 3.51941 2.7198
2.84893 -0.837311 4.23794
0.424695 0.697722 4.23322
0.68818 2.63515 2.68588
5.01234 -0.807626 4.05729
-0.053753 3.99835 2.33897
3.75381 -0.715652 4.04974
1.79693 0.684183 3.87154
-0.0971073 3.60241 2.41213
1.81332 4.16029 2.29431
-0.240388 1.71674 3.29474
3.95151 0.206013 3.83666
2.42719 2.36635 3.09647
1.06781 3.03403 2.63645
1.69661 1.54086 3.48872
-0.40659 3.67912 2.38787
-0.689921 4.08246 2.10929
0.802481 0.161916 4.41998
0.468088 2.21981 2.86458
1.25095 2.98673 2.69551
0.880693 3.16728 2.56549
-0.415262 -0.248709 4.43597
2.40541 2.4318 2.92316
2.83959 5.12464 2.53006
0.297358 1.79845 3.18632
-0.873859 3.80073 2.40019
2.81719 0.770658 3.63545
1.22347 3.14213 2.64992
1.69063 2.39782 2.94996
-0.971005 -0.0344092 4.06438
0.287849 1.70776 3.17451
1.0289 4.47158 2.31471
3.46753 0.649624 3.85252
0.642971 3.86211 2.45081
0.943646 1.96141 3.18848
2.24885 4.2688 2.5745
3.56339 -0.462991 4.03954
-1.02469 1.11235 3.37903
1.69975 3.41468 2.67352
0.775572 2.58907 2.72982
-0.379977 3.80411 2.30345
2.40344 1.83527 3.33271
3.52983 3.10798 2.88618
1.22681 1.09382 3.8504
0.458928 4.10174 2.47044
2.00606 3.38804 2.73713
0.751711 2.51814 2.7587
4.10165 1.14477 3.7371
-0.484036 0.757432 3.82127
2.05414 2.01572 3.1367
2.90049 -0.736632 4.50076
0.179934 2.65735 2.56638
1.51953 4.01261 2.40504
1.38595 3.51458 2.60014
4.57271 0.272976 3.71854
1.50001 4.09049 2.40456
4.36322 -0.678939 4.55511
1.28197 1.21486 3.54762
-1.91011 3.46029 5.44392
0.437731 2.59387 2.61971
4.12417 -0.249265 3.96972
0.572002 3.34012 2.49746
2.48353 2.35848 2.95636
0.154988 3.01995 2.47961
3.2383 0.65403 3.74701
-0.26264 -0.68954 4.4528
0.22461 0.148948 4.39909
0.528402 1.74679 3.23828
0.361264 3.6513 2.39927
0.16379 2.93931 2.49987
0.380855 2.30079 2.82414
0.157548 3.74602 2.39771
2.83734 1.48649 3.2857
1.77508 0.254861 4.12147
0.961391 -1.51806 4.78893
0.563411 -0.170192 4.75328
0.496934 3.9042 2.46898
1.42985 4.53004 2.32123
2.99624 2.41953 2.9517
0.177787 3.09245 2.45337
1.40758 0.0171201 4.32135
-0.160522 1.05768 3.6772
0.985149 1.85867 3.33148
3.58775 1.57765 3.38256
2.93977 -0.860065 4.40974
2.81696 0.65044 3.61925
3.64515 0.443659 4.08289
-0.147272 -1.23236 4.64971
-0.551427 3.05904 2.46647
2.41447 2.36763 2.9601
-0.804943 -0.553865 4.00237
1.38637 -1.46168 4.70636
3.0199 0.564902 3.80379
0.126778 3.7269 2.3852
0.760387 0.41897 4.21055
0.460799 1.12671 3.76851
-0.754196 -1.27467 4.48755
1.18988 1.91261 3.30371
0.691629 2.51785 2.75308
-0.161567 3.305 2.55682
-0.00911326 3.80603 2.37772
1.72032 0.500495 4.11414
0.394071 3.86341 2.37642
-0.60566 -1.10536 5.02982
-0.958153 1.00696 3.63943
2.31198 1.71838 3.29851
2.95613 2.42412 2.9539
0.0434275 3.16416 2.51059
2.06195 4.36669 2.41221
1.33773 4.45639 2.30952
0.471069 2.83328 2.58436
-1.10241 3.69182 2.3919
0.762982 2.18696 2.95082
3.03815 -0.428968 4.39495
1.17996 1.52162 3.52329
1.69243 4.13415 2.37767
1.00788 3.5333 2.53103
-0.667029 2.86293 2.63661
4.21921 0.309252 3.73722
1.41641 2.15749 3.10481
0.436724 4.18844 2.30616
2.11616 -0.228583 4.76168
3.64287 1.16612 3.39963
-0.0402961 2.30386 2.79478
0.750644 3.62512 2.52974
-0.0870488 3.01093 2.54623
-0.501137 3.65616 2.42559
4.12868 0.160709 3.63201
0.393724 4.19145 2.25637
3.34612 1.50866 3.4292
-0.737103 2.29054 2.83439
0.0783236 2.89383 2.5356
1.61156 1.54308 3.46063
0.0556465 3.62827 2.37015
3.7476 -0.632173 4.23763
-0.813733 2.16026 2.77566
0.0313902 0.288483 4.29754
0.142899 1.56615 3.43547
0.398852 2.81922 2.56809
3.82622 -1.32897 4.56997
1.18469 4.18103 2.32784
0.633008 0.433957 4.25357
-0.342288 3.56098 2.42613
3.61045 3.23645 2.86294
3.87163 -0.224334 3.87714
1.05772 4.21023 2.2923
2.43652 1.60906 3.48198
1.31141 3.72201 2.55702
-0.0690996 2.29335 2.78598
-0.43662 3.08933 2.59947
4.15183 0.0739925 3.7537
1.5526 3.7606 2.53618
-0.538583 0.176547 4.21441
3.67137 1.44699 3.60388
1.6007 4.2314 2.26687
1.93129 3.01898 2.76215
1.71701 2.26024 3.02774
2.36162 3.49215 2.71236
0.16466 2.61917 2.62402
3.19777 0.482326 4.07414
2.16565 1.97984 3.22258
1.97882 -0.827157 4.78959
0.757667 1.29267 3.65879
0.0993773 3.95336 2.36309
1.10616 3.41669 2.64784
-1.20479 1.41589 3.37378
0.114329 2.55378 2.64238
0.24508 1.99613 3.16874
-1.47924 -0.617307 4.63184
4.20384 0.888283 3.49215
0.47039 0.856043 4.0283
0.966478 2.79395 2.6785
0.0516901 3.95903 2.31384
0.931521 3.55362 2.5465
4.66 0.157035 3.94199
2.57061 1.30418 3.5223
1.18433 4.10943 2.40242
1.12832 2.11661 3.03403
2.37966 5.13577 2.53951
-0.0675654 2.69907 2.58982
-1.12199 3.73131 2.31202
1.30271 3.51064 2.59821
-0.0568806 0.533087 4.15332
2.34008 1.1972 3.52068
3.31031 -0.987642 4.05139
0.110455 2.10228 3.04696
0.932188 -0.149086 4.6198
3.05461 1.86923 3.15925
0.338863 1.34882 3.73069
1.24741 4.09411 2.33936
1.73191 3.4652 2.66244
-0.644154 2.63259 2.58785
1.16547 -1.7391 4.73807
2.76244 -0.135922 4.03783
-0.00994224 3.9971 2.33824
1.63035 1.44785 3.67125
0.632005 4.11169 2.3845
-0.00550717 2.13572 2.94061
3.24282 -0.560023 3.97153
-0.245501 2.85982 2.66911
2.13307 3.64442 2.66998
-0.944764 -0.35079 4.43798
3.25207 1.98052 3.22069
1.48328 1.32496 3.64074
0.645994 4.1777 2.36545
-0.00344731 3.46686 2.50719
-1.23686 4.13993 2.13732
1.26028 2.74981 2.73622
3.88819 -0.253765 3.93845
-0.386236 3.14006 2.46498
1.99304 3.87344 2.56457
1.48527 2.51773 2.94416
2.72952 4.9432 2.58858
-0.445507 0.207174 4.13529
1.95944 1.80352 3.4007
2.47123 0.804245 3.63907
2.40516 0.72044 3.7595
2.7189 1.6228 3.35031
0.866459 4.4463 2.33806
2.99262 -1.22354 4.13555
1.95816 2.42329 2.98481
4.17355 0.160004 3.94606
-0.848268 2.60869 2.63818
1.06804 3.07864 2.57768
0.91111 3.31499 2.55716
-0.0463557 3.80342 2.37684
2.7306 1.00122 3.61572
0.292581 4.00602 2.46956
-0.365864 1.96222 3.04553
1.83291 4.412 2.33757
0.150933 2.49239 2.68775
-1.8694 0.026027 5.43603
-0.95648 1.97021 3.13772
-0.676079 3.18217 2.42689
-0.372231 1.17754 3.70349
1.74529 3.96926 2.44006
3.0161 2.99266 2.81027
0.41209 -1.85113 4.6688
2.16352 2.20652 3.01354
-0.216154 4.03222 2.20222
4.05716 -0.455856 3.91052
0.0275666 1.58597 3.31153
3.75098 0.0157837 3.82473
-0.201222 3.49846 2.39904
2.03802 2.94666 2.80304
-1.11768 -1.21993 4.22988
1.99524 2.14703 3.05076
3.84604 0.134752 3.86526
-0.659642 1.55987 3.31243
3.03123 3.79894 2.69282
-0.9309 2.43729 2.77432
0.719762 4.27363 2.32601
1.94361 3.18347 2.72987
1.03701 3.76985 2.53074
2.98515 0.647329 3.73977
-0.117526 4.18022 2.18727
0.818568 1.7488 3.35909
1.53494 2.3581 3.01805
-1.54422 1.85361 3.24695
-0.802791 2.96995 2.47492
2.16537 0.0413112 4.05441
-0.922495 3.66879 2.30867
1.20869 1.69318 3.50167
2.54683 5.06161 2.47345
1.62467 1.97016 3.16483
-0.650402 -0.619829 4.25298
-1.84966 1.55797 4.94554
3.74834 0.541636 4.01428
0.297061 3.30301 2.47109
-0.338984 3.79385 2.25073
2.16056 2.67257 2.84683
-1.62985 -1.33819 4.16656
3.4765 -0.649424 4.6434
1.66932 -1.58678 4.70308
-0.531592 3.77712 2.18398
-0.823688 3.31884 2.4709
2.14814 1.33137 3.5357
3.82184 0.246345 3.82487
1.98989 2.09187 3.11453
3.47709 -1.0749 4.4306
0.549643 2.75196 2.61632
-0.692267 3.83702 2.17059
1.16565 3.51684 2.54166
0.70868 4.78158 2.3293
3.78744 0.354546 3.74586
1.85263 1.28594 3.65859
1.11204 -0.947959 4.95123
-0.0533774 2.07081 3.01271
-0.318053 3.96475 2.21706
-0.417698 2.71364 2.60281
4.10419 0.115154 3.65499
-0.915869 3.49683 2.48421
1.88025 3.518 2.64147
-0.731071 3.87958 2.2419
0.96386 2.69334 2.67945
3.39698 -0.363937 4.43108
-0.727103 2.11053 2.9846
1.77686 1.3117 3.70207
-1.19797 0.21001 3.50228
2.66177 1.08181 3.60981
0.118775 2.06643 3.14404
4.27653 -0.0576787 3.83972
1.12234 2.67916 2.77931
3.46782 -0.19143 4.33333
0.0969514 3.34194 2.49321
-0.329915 2.90517 2.62341
0.927885 4.15836 2.43555
-1.13071 3.8546 2.23358
3.86915 1.26453 3.45273
0.968922 2.20112 3.01695
-0.792594 3.88151 2.1507
2.29479 2.80635 2.7897
3.91384 0.214755 3.82731
0.327851 3.4741 2.47476
3.04279 -0.456331 4.26086
0.553932 3.60452 2.5225
3.60342 1.15896 3.43579
-0.484266 2.17268 2.95888
3.65524 0.155984 3.98975
-0.167133 1.80486 3.15395
-1.19844 -1.12226 4.02658
-1.18852 0.842664 3.64079
-0.813965 3.11406 2.43828
1.01077 4.16078 2.32045
0.0707701 2.44857 2.76169
2.64403 -0.909573 3.74654
3.0569 0.316935 3.9314
1.6899 3.86486 2.49766
2.01206 4.16616 2.47698
-0.429716 1.23784 3.59694
1.71158 4.44627 2.33031
2.67792 1.81654 3.208
1.09382 3.89652 2.43546
1.0608 2.59422 2.77903
3.65245 -0.0854942 4.23922
0.130489 3.22588 2.45749
3.85288 0.052844 4.09241
1.6292 1.86234 3.29675
3.74282 0.756964 3.58411
-0.947492 3.2854 2.50481
-0.365435 3.79536 2.25145
3.84878 2.65078 3.09083
-0.894372 2.63709 2.77464
0.931133 3.87645 2.47561
2.30565 3.3204 2.715
1.61634 2.63885 2.97201
4.04242 -1.17894 4.53147
3.36302 0.519523 3.82629
1.09021 1.89599 3.28757
-1.25824 -0.602748 4.2106
3.43402 0.840177 3.76773
3.5321 0.666152 3.553
-0.412183 1.81199 3.14192
2.96964 -0.597082 4.10716
-0.227386 2.54516 2.8518
0.529721 3.1317 2.53402
0.741508 3.95406 2.45617
-0.355253 2.676 2.67004
2.01054 4.11204 2.48493
0.019488 3.33257 2.48553
1.7397 1.18856 3.66686
3.82906 -1.08392 4.31968
-0.532022 3.87125 2.29217
2.85295 1.89327 3.18966
0.778913 3.25784 2.51693
-0.813977 2.65048 2.70642
3.62288 0.451365 4.16404
0.986401 1.95006 3.21556
-1.16417 -0.923471 4.97042
3.58314 0.872251 3.54333
2.56027 -0.124776 4.1321
0.844178 4.13048 2.46502
-0.113663 1.66796 3.43451
2.07937 3.03076 2.79587
-0.949223 4.0343 2.17734
1.36501 2.29132 3.05174
1.21913 4.14039 2.27218
2.64164 -0.0144238 3.97954
1.70627 3.71184 2.57904
-1.38426 0.407295 3.31623
0.555691 0.922194 3.92023
0.0283641 4.19505 2.20033
3.53012 1.55479 3.41146
0.134341 3.67113 2.41653
1.30053 2.39837 2.92712
-0.35662 3.10369 2.5336
-0.686655 -0.458358 4.84411
2.49134 -0.268885 4.44438
0.240439 1.67955 3.34652
2.3263 3.91576 2.61121
1.34961 -1.36824 4.68769
1.47422 3.08946 2.71733
1.32422 2.33745 2.97874
1.16524 3.02973 2.644
0.800997 3.64557 2.49321
0.7357 2.296 2.87781
0.912521 4.28953 2.34676
-0.013444 1.66249 3.25782
3.91734 0.243359 4.70009
-1.38818 4.21643 2.22021
4.36187 -1.37387 4.6157
4.14655 1.52535 3.85345
1.04754 0.528589 4.0968
0.313173 2.25354 2.9079
2.90322 -1.03933 4.18531
2.03267 3.02528 2.78521
1.20992 2.51624 2.93964
-0.7981 3.73594 2.43003
2.67657 0.139154 4.08993
-0.905269 3.11498 2.43626
1.03879 1.03219 4.00101
-0.653155 4.14219 2.15722
2.24625 1.65672 3.25637
2.09277 3.8652 2.57578
1.38402 -1.68502 4.6893
2.23997 3.14721 2.71923
0.180034 2.39421 2.82762
3.38881 1.52887 3.32613
-0.75627 3.74388 2.32195
-0.319736 0.891581 4.06527
0.900004 4.48359 2.32577
1.78684 4.86305 2.36407
2.66593 -0.610446 4.66747
0.130239 4.1181 2.38108
0.122143 2.68544 2.60903
-0.888676 -0.314263 3.95632
0.729628 3.46895 2.55312
1.66013 1.26035 3.56357
2.25382 2.0322 3.21366
0.639642 2.14236 2.91112
1.40185 4.07999 2.35287
0.630657 1.54443 3.5113
0.921892 -0.953567 4.92293
-0.384544 2.87011 2.58239
2.12229 0.540948 3.9369
0.808133 3.63007 2.55532
3.81205 0.462919 3.74569
2.97012 2.07955 3.20246
2.41852 1.27114 3.50179
3.14257 -0.740352 4.18865
0.190044 3.456 2.45199
-0.162483 4.04836 2.21285
0.789611 2.74536 2.63122
-1.13891 4.33031 2.17516
0.790217 2.35514 2.82563
4.21453 0.190606 3.76019
0.0906592 3.12193 2.57283
3.35996 -1.0946 4.6594
3.10959 0.670817 3.82283
-0.645196 0.516935 3.92703
1.73098 1.71249 3.38884
-0.176391 3.68856 2.40916
0.138938 0.687756 4.09996
0.2517 2.96774 2.53675
2.47594 -0.879012 4.81376
-0.911846 2.30707 2.73956
-1.14141 1.79196 3.34062
2.18751 3.85214 2.56114
1.4201 4.25715 2.2754
1.88541 1.78154 3.37616
0.276978 -1.49778 4.63411
1.26168 0.971669 3.83861
1.38563 0.304539 4.28475
1.80628 3.28696 2.72261
2.23372 2.48388 2.97226
1.12892 4.52683 2.30621
-0.181477 3.80602 2.37409
2.7 -1.35011 4.60358
-0.02555 0.411383 4.29002
0.437928 1.49479 3.56373
1.80613 4.03545 2.38512
-1.58459 2.94899 4.22882
1.9101 2.8656 2.81604
0.727839 3.52776 2.52819
0.280593 2.07058 3.02786
4.06402 0.0674783 3.78301
2.19704 1.22307 3.57269
-0.0399368 4.07053 2.28274
0.58492 -0.496385 5.32682
2.23137 3.57484 2.69146
-0.218194 2.74575 2.64524
-1.11563 3.65487 2.40908
-0.36021 0.739386 3.89859
0.711716 2.92527 2.60661
3.87201 -0.76496 4.2071
-0.973422 2.32787 2.87426
1.34324 3.66433 2.58999
-0.262255 4.17952 2.28462
4.23583 -0.660383 3.88523
1.23034 1.59719 3.52219
1.92468 1.46954 3.56376
1.97761 -0.552445 4.85495
-0.986478 2.3071 2.96758
3.83005 0.325752 3.72178
1.90251 2.91701 2.76198
1.76668 4.19337 2.31385
-0.299305 3.63916 2.43109
0.972279 2.84605 2.63817
3.52368 2.74386 2.9556
1.60217 1.49787 3.5585
-0.639328 3.90301 2.15844
3.23182 -0.0278069 4.35
2.44821 2.14108 3.08228
0.918603 0.274452 4.22692
1.40044 2.88832 2.81206
0.0468643 3.49736 2.4701
2.23423 2.03999 3.05434
0.398901 3.51629 2.43907
3.97256 1.16649 3.49748
1.48367 4.14734 2.3313
4.88994 -0.83912 3.80578
-1.42974 4.17983 2.21347
-0.616415 -0.239659 4.36538
-0.213649 3.56691 2.38724
-0.368558 4.23279 2.26472
1.93597 2.24265 3.03434
0.663267 2.89988 2.58257
1.07605 1.56181 3.41801
-1.02917 -0.0796649 3.7917
2.06409 -0.869049 4.71166
1.61611 1.10852 3.67706
-0.447538 0.628003 3.91738
-0.44476 1.96549 3.05296
0.225325 3.96888 2.44334
0.646521 2.57837 2.72954
1.24738 4.6701 2.31412
0.269045 3.23901 2.47168
-0.59798 1.88819 3.06181
0.143635 3.95619 2.37067
-0.820344 1.03443 3.578
0.261306 3.18585 2.49181
-1.34022 -0.8544 4.23598
1.47397 2.60348 2.91503
-0.670865 0.31462 4.08652
1.94426 3.53473 2.65285
1.95338 -1.1532 3.9382
1.44296 2.78936 2.8078
-0.0770999 3.96358 2.31526
-0.916837 2.11947 2.98596
2.4221 -1.42385 4.64713
1.61824 1.31106 3.66524
1.25141 -1.082 4.84066
-0.014479 2.04178 3.07585
4.23176 0.253429 3.89182
-0.420246 1.32015 3.50345
-0.323555 2.68288 2.66903
-0.245963 3.28405 2.42799
1.32732 4.11039 2.41042
1.48636 4.82798 2.33645
0.329064 2.58492 2.61707
2.05447 3.4136 2.64439
2.1377 1.2182 3.79771
3.91183 -1.15886 4.26669
0.589723 -0.456423 4.77492
1.68048 1.98404 3.18939
-0.781324 3.28843 2.44891
0.0205653 3.97229 2.37957
0.260396 2.58767 2.70158
-1.01464 2.07074 3.14568
-0.246692 3.90888 2.28135
2.71042 -0.260633 4.4928
0.964468 1.19406 3.74439
-0.899517 4.35643 2.12965
2.36257 5.21936 2.48313
1.43792 4.06953 2.39309
-1.01874 0.77285 3.71772
4.56587 -0.825062 4.81013
0.615469 2.67611 2.63398
1.50657 3.50574 2.60454
3.13293 1.13157 3.54738
-0.700179 -0.582112 4.45167
1.22594 2.09822 3.18837
0.316903 4.29215 2.25507
3.76637 1.47937 3.19102
-0.405945 0.203463 4.30015
1.69525 0.809852 3.85319
-0.815413 3.63645 2.34502
-0.88679 2.97764 2.39623
-0.326784 2.45155 2.85612
3.49587 1.4207 3.30277
1.52577 -1.55135 4.71527
2.13207 3.88219 2.58202
0.194189 2.92662 2.49292
2.06173 2.30829 3.01089
-0.436935 3.75457 2.33209
4.03099 -0.236323 4.18856
4.22111 0.765332 3.54722
1.04022 2.53286 2.80244
-0.767858 1.9412 3.11433
-0.209192 3.19338 2.46941
3.5197 1.7841 3.26231
1.13567 0.979666 3.82692
2.23532 0.0417374 4.0839
1.50323 1.79464 3.35068
1.37093 2.48755 2.90669
0.968567 4.55036 2.31849
1.51233 3.28099 2.70229
-0.674282 3.73955 2.25634
1.19766 3.21816 2.63399
0.581249 2.44667 2.79648
0.24574 -1.26427 4.57735
1.35217 -0.972972 5.05818
0.850573 1.85007 3.34163
4.12383 0.356159 3.73453
0.196943 1.06632 3.86267
2.39511 3.11779 2.69823
-0.890837 2.4291 2.76986
-0.1678 3.72448 2.37537
2.21147 -0.717591 4.43314
2.02549 1.72071 3.4931
-1.16935 0.791805 3.92949
0.472227 0.952335 3.96331
1.92536 2.61564 2.86982
2.7699 4.05951 2.66461
2.26626 4.05664 2.58311
3.44247 0.191809 4.0148
4.39766 0.947061 3.65158
-0.31943 -1.20147 4.41515
0.0808729 2.52563 2.7242
0.168042 1.97843 3.16168
1.45738 3.92528 2.46927
2.62541 3.35057 2.74391
2.21327 0.407131 3.96981
4.01661 0.755395 3.5875
-1.07385 -0.77768 3.72333
2.62737 1.72159 3.19774
2.21288 2.12673 3.04452
2.29342 4.25009 2.47877
-0.835369 -0.191032 4.08211
1.38494 1.45589 3.43308
2.12628 4.44002 2.45814
0.0358668 2.78649 2.52704
-1.15592 3.78961 2.28134
0.544701 2.10518 2.96431
0.0395295 4.12772 2.26203
3.37265 -0.204331 4.0488
2.21596 1.33617 3.56724
2.31795 3.65098 2.69632
0.294921 3.58773 2.48831
0.685472 2.75543 2.62821
-0.872269 3.63861 2.4036
4.42411 -0.391566 3.86397
0.813094 4.2357 2.31177
-0.737412 -0.484994 3.92886
1.47823 1.62671 3.40677
1.73907 2.37835 3.06392
-1.3615 4.31358 2.21064
-0.61225 3.02236 2.53285
0.152912 -0.299987 4.4942
0.346849 1.62825 3.42734
2.02775 3.84717 2.62143
-0.544096 2.2987 2.87825
0.787314 4.27136 2.27028
0.237215 2.87073 2.53259
0.169395 2.33309 2.8101
2.80115 3.15227 2.8186
0.652142 -1.04772 4.19466
3.48611 -1.09531 3.79687
1.50509 4.24325 2.31325
4.23043 0.167627 3.83319
-0.389309 1.73392 3.24131
-0.395561 3.65022 2.41356
2.12446 0.454575 3.93247
1.10257 2.98272 2.66229
3.51383 -0.952619 4.28271
0.565464 2.26 2.87379
0.400324 3.69713 2.42729
-0.172503 1.68477 3.38457
3.15586 -1.54218 4.2195
0.301923 0.197685 4.38216
1.45037 3.85387 2.51936
3.03991 4.85471 2.50592
2.07551 2.39864 2.94643
1.69983 3.22196 2.72139
3.268 -1.60277 4.48316
0.705869 0.930069 3.8398
-1.81035 0.218531 4.89709
-0.458797 1.8052 3.20187
0.45256 1.44906 3.6725
0.0182238 4.01374 2.33462
0.225255 -0.605987 4.97677
-0.942784 2.11202 2.92342
1.16561 2.76867 2.73442
4.94423 -0.733913 4.06423
1.44801 3.54311 2.612
0.472943 1.99663 3.03104
-0.546664 3.93212 2.21479
2.84566 1.09702 3.55455
-0.0781678 3.34966 2.45855
4.24163 -0.635575 4.0133
0.860526 2.68329 2.72548
1.60529 0.664183 4.13654
-0.695079 2.91018 2.57217
-0.98438 -0.6444 4.03817
0.776048 3.55062 2.5262
0.207038 4.03723 2.25219
-0.220388 2.21378 2.8806
4.18571 2.21589 3.28503
5.13731 1.63149 4.12554
-0.241999 1.5005 3.37748
0.962456 -0.7751 5.04113
0.957912 2.16922 3.06052
-0.0413325 0.855617 4.02666
1.45857 2.90257 2.7993
0.398049 4.1545 2.27528
-0.948434 3.58592 2.40942
-1.11915 2.74937 2.72298
-0.0920873 2.84038 2.63015
2.38579 5.19511 2.5423
-0.495253 1.5121 3.35366
2.06528 -0.0359809 4.1762
0.668893 2.13312 2.98059
0.646797 3.36425 2.44062
0.364387 4.07574 2.34137
0.658758 2.71081 2.64
-1.12132 3.68718 2.35261
-0.73093 3.49614 2.41139
3.14021 2.00531 3.20145
0.734441 4.21796 2.38888
2.17026 0.0991547 4.22767
-0.18751 1.40946 3.46645
0.819774 -1.34774 4.33443
-0.756804 -0.259139 4.07495
1.65917 3.6638 2.58146
1.86768 4.22013 2.36889
2.79949 2.98501 2.86864
3.40363 1.33437 3.466
3.54355 -0.322919 4.0133
-0.566141 2.20583 2.83298
1.72704 -0.926913 4.66112
0.42903 1.92001 3.19577
0.312932 0.589507 4.22767
2.85936 0.907546 3.67214
1.31367 3.32325 2.63111
1.75567 3.89266 2.4985
1.37959 4.55467 2.31706
2.06366 2.57651 2.91831
2.1488 1.89601 3.53848
1.5713 4.48518 2.32169
2.7386 0.814125 3.67172
0.474013 3.93568 2.40785
0.309397 3.16955 2.51569
0.211937 2.44999 2.75376
0.984735 1.24294 3.5052
2.40264 0.195205 4.0174
2.89226 -1.59021 4.33348
-0.405854 2.01354 2.95681
3.33023 2.68667 2.89917
0.39295 3.96013 2.36505
3.30075 3.60708 2.72896
-0.990562 0.310494 3.88663
3.20381 0.249421 3.98433
2.31203 1.11028 3.73358
1.94465 -1.19587 4.43359
-0.656941 1.97028 2.99735
2.29413 2.63238 2.8732
4.62116 -1.15145 4.11959
1.80212 3.42983 2.68146
1.01567 3.38838 2.61102
-0.340697 3.96385 2.28243
1.61043 2.71125 2.9082
-0.0866872 1.96181 3.04867
1.91052 4.34217 2.35487
2.27063 -0.53171 4.38371
-0.612915 1.26452 3.50382
-0.538928 3.77184 2.26611
1.20432 3.27548 2.58522
1.90889 2.60325 2.93591
-0.341676 1.95837 3.15674
3.9873 -0.822888 3.95016
2.67144 0.89292 3.59414
-1.03331 -0.275145 4.19247
-0.143019 2.71363 2.58931
1.94931 4.04581 2.49115
0.620414 3.48374 2.52562
2.80536 1.16217 3.48132
2.23204 0.563561 3.97732
2.31834 2.01683 3.13396
-1.21128 -0.6801 4.24701
0.746682 4.16844 2.46573
2.5147 2.74217 2.90809
3.89907 -1.17457 4.06276
2.26426 3.48961 2.68244
-0.417229 0.796622 3.93865
2.42054 1.10888 3.51955
2.10449 -0.719095 4.86617
3.1904 1.92316 3.22703
1.08488 4.0846 2.38092
-0.603295 1.75192 3.26062
1.99557 0.109341 4.17225
1.80558 3.76307 2.5924
-0.762192 4.11425 2.17088
1.50363 3.12986 2.72161
0.992962 4.77446 2.32857
0.0316398 2.3549 2.83688
4.15765 0.287365 3.63626
-0.384749 -0.825883 4.49106
1.15407 0.346208 4.33018
-0.944918 1.69987 3.33088
0.577731 2.93148 2.5897
-0.449823 3.71863 2.39921
1.14979 2.27048 2.94876
3.99157 -0.352978 4.09799
0.524455 1.0739 3.85218
1.1136 3.81729 2.4808
3.73885 1.61264 3.26543
2.50269 4.97169 2.56713
-0.152897 2.48721 2.77353
-0.605887 3.1619 2.45848
3.52683 0.638704 3.70902
0.22447 0.0326108 4.42799
-0.538819 1.79274 3.18122
1.57477 3.88201 2.48583
-0.641271 2.40677 2.73042
1.19888 4.41603 2.30389
0.0240756 3.10494 2.53035
0.648407 3.07573 2.5402
-0.827067 2.43979 2.74639
3.42477 0.323524 3.96691
-0.58327 1.81086 3.2047
0.572898 -1.08094 5.01778
2.78224 0.698135 3.71954
0.654572 3.05715 2.60601
1.38724 3.78193 2.53153
-0.184699 2.41887 2.89314
1.01891 -0.810317 4.76109
3.48461 1.55626 3.48654
2.76159 -0.824036 4.35595
0.456065 -1.55018 4.66491
1.22085 0.672339 4.05003
-0.0992995 3.76156 2.39093
1.42253 2.63034 2.93
0.55141 3.19784 2.49091
1.87067 1.01536 3.74453
0.354451 3.84468 2.41147
2.83249 1.79645 3.31047
-0.89011 2.60308 2.83922
2.82343 -1.48029 4.55976
-0.647584 3.09668 2.40103
4.4572 0.835596 3.60155
1.29727 0.459392 4.16654
3.31491 1.67227 3.32515
-0.86853 -1.11914 4.30284
0.187815 3.95222 2.41302
2.65139 2.05108 3.06749
-1.41423 -0.327367 4.26894
1.8714 1.38953 3.52489
4.35482 0.472497 3.80948
1.76055 2.89721 2.81351
1.76981 4.1726 2.39423
1.28508 3.59095 2.58009
0.431211 -0.144742 4.80823
-1.29769 4.03734 2.15696
1.49749 1.5675 3.44525
0.344004 0.856029 4.18557
1.54935 3.7252 2.62272
1.05943 -0.771105 4.93505
1.68648 4.17313 2.33568
0.737071 2.27998 2.92271
3.72754 -0.0634223 3.96517
0.517483 2.93646 2.58948
3.90496 2.14576 3.17921
0.811311 -0.498581 4.75811
-0.392224 1.63037 3.44906
1.19894 3.74159 2.552
-0.526856 4.13565 2.17853
0.194898 4.30495 2.16861
1.72449 2.99495 2.80783
2.51787 0.565132 4.02341
1.6438 -0.767596 4.50048
1.05316 3.79636 2.46321
2.67022 4.46359 2.53727
4.94581 0.570359 4.0918
0.0449552 2.39658 2.76667
2.82567 -0.686432 4.40888
1.28069 3.20526 2.67348
-1.06635 0.894855 3.6951
1.22008 1.78559 3.40418
-0.869575 1.96708 3.10566
1.88359 4.56396 2.35101
2.02944 1.01886 3.73016
0.746508 3.29793 2.57636
3.29379 -1.28736 4.77083
0.14005 3.76555 2.34312
-0.109209 0.452765 4.19657
2.76697 1.67856 3.23812
1.66048 2.6563 2.96626
1.53091 0.995888 3.85991
1.22005 3.90464 2.41907
1.17327 -0.997957 4.84551
-0.483879 3.25952 2.53574
0.139692 0.582716 4.01639
2.80901 2.46195 2.96173
3.08729 1.34613 3.41923
-0.0630742 3.37375 2.34519
0.51898 2.16801 2.87427
1.15788 4.12117 2.33659
-1.28354 -0.303557 4.08882
4.63072 0.661628 3.76546
-1.40953 0.427116 3.32549
-0.0695583 2.86024 2.55964
3.12898 1.2501 3.42939
-0.310347 3.55157 2.40407
-0.70143 2.15207 2.86427
-0.573116 3.98319 2.13443
-1.21211 -0.037957 4.12774
0.747917 2.79351 2.63368
0.567735 4.16549 2.07371
-0.526135 2.4318 2.86952
1.8042 3.14174 2.74462
2.79275 -0.531285 4.23958
-1.22743 3.89618 2.29543
1.08243 4.23026 2.28419
2.72858 1.54132 3.33965
1.58758 3.6947 2.53309
-0.0632117 2.9801 2.57771
2.18406 2.22896 2.9842
-0.606769 3.68042 2.36738
0.769196 -0.854063 4.7187
3.38144 1.45738 3.51236
-1.21098 2.99125 2.52972
1.70812 0.296879 4.1535
-0.846658 -1.4168 4.3704
2.08567 2.23871 2.99363
1.74177 1.50294 3.34682
-0.680741 3.00672 2.57196
-0.411119 3.55312 2.40318
1.72934 4.19553 2.34688
-0.398355 0.458907 4.13447
0.415653 4.41347 2.21242
2.83155 -1.21801 4.53567
1.75984 2.97786 2.78377
-1.02842 1.62924 3.35298
1.1188 3.70404 2.51359
1.14628 2.21032 2.99302
2.68958 1.5548 3.36556
0.757158 4.33949 2.33929
0.442023 2.96047 2.50953
0.338793 0.0448816 4.43541
-0.586446 2.3775 2.8019
0.625912 -0.963943 4.75311
0.979113 3.74435 2.4839
3.44936 -0.0277751 4.06152
3.85946 1.0396 3.61551
1.19281 3.96934 2.39956
-0.191149 2.02119 2.97218
-1.32926 1.30843 3.39037
1.51319 2.77321 2.86042
0.900947 3.403 2.55149
2.83953 1.0287 3.63242
0.451311 4.08134 2.39198
1.04227 -1.66998 4.65776
0.618752 1.95906 3.1098
2.71233 0.624299 3.80843
-0.682855 2.67889 2.69624
2.73179 -0.677243 4.36136
0.0728903 3.30431 2.49115
-0.704245 -0.878204 4.12185
-0.868995 2.90004 2.63888
2.40081 0.422696 3.90044
-0.737371 2.16468 2.87926
4.12147 -0.446678 4.0012
1.81968 1.41958 3.56981
1.53108 4.09407 2.39469
0.577485 -0.877422 4.82556
-0.265154 3.44168 2.45544
3.4026 0.458106 3.93887
-0.69152 2.80013 2.63632
-1.20572 3.7244 2.2657
1.9938 2.03944 3.12969
-0.170016 3.98319 2.20493
2.25966 1.21807 3.49379
4.29499 -0.31723 4.03732
-0.74928 2.80778 2.64106
1.76106 3.57909 2.65143
-0.352658 3.54278 2.45988
0.761538 1.37741 3.56834
0.259266 4.13676 2.42206
-0.46985 2.11801 2.97228
4.68871 0.226188 3.7641
1.39365 0.0349314 4.5946
0.239439 2.61602 2.60713
0.504607 3.23919 2.39975
0.562462 4.11488 2.36988
3.24186 1.00221 3.41298
1.82809 4.87584 2.36209
0.718417 2.06872 3.16673
2.34053 2.08497 3.08258
0.729848 1.4532 3.45393
0.14158 -0.410818 4.56807
2.05788 2.88652 2.81589
0.793981 4.13974 2.34393
-0.439731 3.51819 2.43975
2.65891 -0.378932 4.18383
3.92842 -0.366454 3.96851
-0.364677 1.08979 3.65774
0.971972 3.86675 2.50718
0.216285 1.85815 3.20897
4.46199 -0.264641 4.1454
1.0818 2.49315 2.85853
0.350301 3.12566 2.47988
2.16898 3.96605 2.55838
0.245528 1.73822 3.18567
1.93789 4.4339 2.35402
1.28968 0.912344 3.96631
-0.780787 0.376843 3.83857
-0.608674 3.10468 2.47964
-0.761718 -1.05798 4.31561
1.54125 2.47062 2.97769
2.18434 3.43834 2.70291
2.34515 0.0836314 4.19512
-0.290714 2.62797 2.66866
-0.506856 1.99367 3.03207
3.40189 2.04799 3.23892
2.59842 1.01599 3.56105
0.794723 4.00207 2.46762
3.95726 -1.53654 4.34665
-0.29585 0.336277 4.29331
1.14443 2.61826 2.88726
2.86079 1.75417 3.21949
-0.316712 3.25818 2.48975
-0.265881 1.16408 3.62034
0.625512 4.05657 2.43545
-0.469369 2.61227 2.75311
3.92621 -0.63946 3.90838
2.34385 3.3798 2.7247
2.04767 -0.708467 4.99775
0.652422 1.16145 3.85127
2.20997 0.737478 4.0677
2.43006 1.83698 3.31025
-1.03883 -0.417775 4.21638
-0.516627 3.22577 2.51312
1.41638 3.93526 2.51057
0.746559 2.49083 2.82959
-0.226532 3.80394 2.29475
-0.48562 1.85935 3.12959
1.99093 4.21493 2.42264
3.72516 0.736641 3.67525
0.854789 4.59682 2.32913
2.32055 0.446511 4.02594
1.26977 3.38968 2.62168
4.57084 -1.05874 4.80964
3.39924 2.68242 3.00328
3.98546 -0.743066 3.91194
0.819369 4.07384 2.45281
0.0395444 -0.818103 4.72031
0.336605 1.9943 3.13963
2.85866 0.512145 3.96168
2.35393 1.01299 3.50625
0.124243 1.67464 3.40056
1.24078 4.20635 2.33609
-0.596059 0.0569576 4.17395
1.64048 2.37466 3.11601
-0.587085 3.6202 2.44479
1.3421 3.03312 2.72642
0.557971 4.35498 2.22054
-0.91981 2.26577 2.87917
-0.353767 3.64874 2.40707
-2.38571 2.69493 6.39351
0.32714 4.19651 2.24129
3.85494 0.337824 3.69241
0.534367 2.832 2.57795
1.87508 3.24092 2.74566
1.55706 -0.287938 4.6601
0.922148 2.39225 2.82917
0.893308 3.74053 2.47198
0.00751807 1.80486 3.27089
0.892674 -0.849414 4.75542
1.19221 0.892561 3.84693
3.98097 -0.320072 4.17163
0.985289 1.70442 3.38201
1.60478 2.37713 2.9922
0.912836 3.85067 2.49088
-0.308546 3.05748 2.55306
-0.74556 1.38784 3.34493
-0.905228 3.86588 2.2163
2.4113 2.0376 3.1931
2.06409 4.77705 2.44506
-0.269454 2.78312 2.66403
3.20344 -1.62497 4.30722
-0.0885976 3.40721 2.44685
2.45478 4.27226 2.54952
4.07609 1.06183 3.75797
0.1658 2.06607 3.10785
-1.24113 -0.110855 4.28722
1.38026 2.71114 2.80568
3.48408 -1.49609 4.14246
1.14344 3.43632 2.59733
2.95161 2.9828 2.87556
1.95804 -0.33892 4.60559
0.506897 -2.09675 4.43745
1.35868 2.24181 3.07753
0.36401 4.17484 2.3536
1.76797 1.48084 3.52332
0.449181 3.50698 2.48705
1.77547 -0.195595 4.29567
-0.287698 2.84826 2.64397
-1.11714 2.38234 3.16068
-0.303866 4.13828 2.25093
0.771398 1.41491 3.42616
0.840584 3.62942 2.53108
-0.281762 0.438752 4.2782
-0.831055 2.63037 2.75692
-1.29402 -1.06169 4.20621
0.920373 3.29603 2.59855
0.23227 1.2039 3.92475
-0.61514 3.71057 2.28389
0.0666841 1.91101 3.14855
3.4898 0.276714 3.72503
0.286495 2.4352 2.74326
3.96176 -1.0952 4.7978
0.802959 3.20787 2.57798
-0.209377 1.05227 3.64699
2.07584 4.0307 2.55036
-0.358649 1.8573 3.15666
4.25671 2.07961 3.33151
2.59439 1.8337 3.18313
1.65115 4.45256 2.32345
1.75983 1.12508 3.68245
0.850897 -1.39054 4.46237
2.43803 0.0599284 4.19917
1.32155 3.34017 2.59053
0.19745 2.55215 2.63762
-1.56177 -0.585422 4.18002
1.10054 4.05121 2.46287
1.87478 0.242209 4.07539
2.26076 1.00271 3.85507
0.782991 4.52913 2.32473
-0.141575 1.8645 3.0462
1.21138 3.86797 2.46581
2.53787 2.59131 2.97616
0.865954 3.30243 2.609
2.56894 1.70161 3.28958
1.80783 4.00315 2.52264
4.10027 0.712117 3.72396
4.13995 -1.24079 4.42548
-0.197385 3.13767 2.46734
-0.957393 -0.469247 4.36566
0.148605 2.48604 2.79464
-0.488197 -0.736838 4.37116
0.658666 3.39441 2.54113
3.9137 0.382961 3.8345
-0.449778 2.71932 2.68864
-0.627717 2.05006 2.98593
1.04659 3.97108 2.40983
3.3972 1.02093 3.51467
-0.491702 -0.718514 4.59238
0.904601 1.22711 3.75574
2.99077 0.593846 3.88074
1.56527 1.87569 3.12667
2.75508 2.68792 2.97976
-0.671557 0.32291 3.94506
0.480882 3.28131 2.50843
2.5198 4.28231 2.61087
1.69299 -1.57774 4.69719
1.85228 2.37364 3.03161
3.90767 0.263754 3.73312
0.50597 2.98049 2.54757
1.53504 3.81377 2.62748
0.544592 4.30361 2.32394
4.04025 -0.220331 3.9708
1.6879 0.132546 4.34228
1.95764 2.25001 3.01606
1.75682 1.61851 3.367
2.28184 3.00841 2.76593
-0.261826 1.66199 3.37092
-0.673294 3.71008 2.39859
0.293345 -1.01719 4.59607
0.954212 1.77703 3.348
1.03888 0.92395 3.98095
1.98865 3.21637 2.74596
-0.661113 -0.305352 4.40139
-0.184555 2.48684 2.88146
2.40783 4.90528 2.55583
0.356782 3.77992 2.42941
1.45627 -0.135603 4.26622
3.34041 -0.98542 4.33001
0.293374 4.15849 2.23037
1.70739 1.61243 3.34985
0.860682 3.6371 2.47267
0.481828 2.30533 2.84503
0.902627 3.02069 2.61754
-1.39676 3.93675 2.30714
2.08941 3.81321 2.58933
4.12714 1.41998 3.59377
0.360265 -0.54536 4.59395
2.96826 0.368475 4.01052
1.60554 3.04364 2.75676
2.26241 2.21326 3.00477
0.35857 0.343293 4.36138
0.713669 3.17573 2.55317
-0.637527 2.49108 2.72975
-0.844525 3.85892 2.43715
2.13282 1.74162 3.29621
0.631017 -1.49251 4.72158
3.97403 0.703135 3.66786
2.80019 -1.19749 4.17718
-0.0511861 0.998264 3.95957
-0.380149 0.349812 4.19671
0.899997 1.77308 3.343
-0.577474 2.37151 2.70655
4.19248 -1.31813 4.37646
1.73741 3.20199 2.7163
-0.735907 2.85671 2.62605
2.02095 3.91429 2.53536
-0.211671 3.43459 2.39751
1.03849 4.74276 2.32331
-1.1225 -0.448984 4.38619
-0.31036 1.50417 3.43017
0.847933 4.12038 2.39631
2.28259 2.06423 3.06504
-0.759825 -0.297382 4.64653
-0.746971 3.45347 2.44599
-0.351008 2.76069 2.63409
-1.35875 0.0409227 3.30674
1.0334 2.12085 3.16764
0.400354 1.41006 3.61761
0.146293 4.16976 2.33875
0.568931 2.1509 2.87966
3.5208 1.31212 3.466
3.56915 0.392316 3.78411
1.83263 2.98595 2.81623
-0.538581 -0.718274 4.31094
0.137439 4.13744 2.2604
-0.254264 3.51036 2.39403
3.17406 -0.7446 4.41889
4.2762 0.115884 3.75548
1.60854 0.784176 4.11048
1.70579 2.15727 3.13658
3.85144 1.17063 3.44316
1.40434 0.159617 4.24703
1.47495 3.59303 2.59482
-0.167622 3.93568 2.23951
1.6786 2.9034 2.83253
4.15501 -0.238258 3.93394
0.167851 2.10309 3.04814
-0.0609473 4.05481 2.2627
-0.0228839 1.41826 3.55458
1.5817 3.56564 2.64685
0.486402 2.68168 2.61785
3.84048 1.49663 3.71479
0.709076 -0.122286 4.67927
1.40986 3.02385 2.73243
1.90637 3.67842 2.61272
-0.0171373 4.00931 2.18442
1.29859 2.29043 3.01685
-1.08894 3.72176 2.35612
-1.47323 1.20396 3.28987
1.48551 1.49687 3.5208
2.61704 -0.113181 4.04815
2.25419 2.14232 3.03633
-0.295172 4.20899 2.24656
-1.37891 3.85715 2.30023
1.17149 2.91311 2.69951
-0.178438 3.63034 2.42158
2.25001 2.6373 2.8834
1.7431 3.42545 2.687
0.473493 1.27962 3.80968
1.6003 -0.978988 4.62941
1.26868 2.01417 3.31514
1.80915 0.463325 3.98012
-0.912582 3.31002 2.51905
1.26274 3.89975 2.43007
3.92281 1.72127 3.34936
1.27006 2.58179 2.86695
3.29248 -0.887124 4.58769
3.39936 1.84518 3.45962
3.78272 0.361275 3.76052
1.26028 1.05534 3.74774
0.767567 4.02983 2.44214
-1.61027 -0.31248 4.29843
0.580117 4.33332 2.56423
-1.0839 0.205697 4.07711
-0.940402 4.33225 2.17037
1.55207 2.75992 2.87364
0.434727 3.29287 2.45658
4.34869 0.152797 3.92783
1.40606 1.24494 3.65293
3.25198 -1.25404 4.21607
1.91202 2.03457 3.26231
0.806535 2.86645 2.63318
1.29903 4.12009 2.3495
-0.615607 0.189531 4.23826
2.1005 2.12907 3.00484
4.98273 1.56982 4.17251
-0.764479 1.52217 3.36748
4.08884 -0.718211 3.92093
1.46427 2.1632 3.11072
4.46735 -1.15544 3.83718
0.600037 2.75804 2.60591
0.884635 4.25035 2.3544
0.535628 3.56012 2.52811
-1.65909 0.205988 4.5989
0.328697 2.32254 2.82517
0.362923 3.57161 2.4664
4.75438 0.680798 3.52206
-0.160851 2.93199 2.44869
2.45742 1.5305 3.30617
1.46079 3.7625 2.5853
1.29969 4.29223 2.34218
-0.427839 3.05441 2.63966
-0.171291 2.33475 2.91478
4.17089 -0.208349 4.05132
1.20116 3.77703 2.51865
2.31873 1.45507 3.36431
0.439052 -1.08204 4.66655
1.0346 0.694275 4.07381
-0.144903 1.9496 3.02535
-0.654077 -0.646658 4.00338
2.4414 1.0232 3.56226
0.172937 3.23886 2.44656
0.0378281 2.58035 2.65209
-1.24115 -0.748132 4.88449
4.29976 -0.271679 3.9524
0.0459937 0.842649 4.06679
0.586873 4.18093 2.5294
-1.23564 0.932727 3.47936
1.27153 1.33181 3.57058
0.213307 4.0882 2.39571
1.38791 2.07194 3.11311
4.09457 -1.2346 4.42825
2.13843 2.77448 2.81076
0.284021 0.461288 4.21601
-0.381544 3.42186 2.43827
2.52425 1.97256 3.23186
2.06349 0.470345 4.08872
0.580984 1.32995 3.68431
-0.783132 -0.835352 4.00047
1.04398 3.3958 2.55557
-0.333657 4.04204 2.29665
1.82709 2.7052 2.82486
4.24579 -0.356574 3.92346
-0.729752 3.79826 2.22629
-0.389175 3.31313 2.42479
-1.51685 -0.42121 4.28467
-0.836551 2.69508 2.62412
2.57577 -0.380436 4.5354
1.97522 1.96669 3.15936
-0.378981 1.35951 3.54218
3.08737 1.06398 3.82631
2.90599 1.76157 3.10566
-0.499712 2.64904 2.68489
4.6418 0.27998 3.76603
4.6514 -0.379605 4.50544
-0.33441 3.26556 2.44841
-0.145792 3.9068 2.26144
0.0329857 2.71506 2.52417
0.127114 -0.638806 5.05008
1.84962 3.61976 2.63042
2.02445 1.34415 3.48646
-0.36769 3.89383 2.20288
1.24945 2.16366 3.09223
1.0418 3.46358 2.53887
1.33594 4.76153 2.32648
2.05786 2.79595 2.82587
-1.33216 0.0800003 3.31243
1.77264 2.13754 3.26271
1.12824 1.31779 3.50886
0.977221 4.19202 2.3837
3.88739 0.0333889 3.85268
-0.694092 1.81446 3.18672
-0.195022 3.11992 2.53368
2.37582 2.3971 2.98178
-0.27615 -1.20025 4.54172
1.53034 3.84163 2.52142
1.9724 0.357539 4.05239
1.24767 -1.56265 4.77499
1.48755 0.873925 3.94126
1.14685 1.10424 3.7924
1.83861 4.64305 2.35154
2.2298 1.78643 3.22045
-0.367567 3.75325 2.3185
0.930709 2.52133 2.76509
1.83764 -0.0131489 4.31525
-0.782606 0.179 4.06141
2.64105 1.67431 3.2405
0.510155 3.16574 2.46468
3.82645 0.705697 3.61633
0.0682685 3.90006 2.37551
2.00097 3.31593 2.73354
0.97934 4.61735 2.31889
1.28138 2.48391 2.8822
1.10127 3.22909 2.61319
0.475308 1.06028 3.83872
0.873595 3.81345 2.46893
0.0228938 1.80743 3.12686
1.63187 -1.54817 4.67327
0.64321 0.757475 4.19179
0.360585 2.44914 2.76693
-1.10518 -0.697864 4.29822
-0.542884 0.872353 3.76271
3.29931 1.58719 3.35601
4.73709 0.668685 4.23444
0.476086 2.40174 2.83047
3.79507 -0.715912 4.30107
1.79375 3.22183 2.73613
-1.57233 -0.950426 4.54831
1.71135 2.70914 2.91846
0.525936 0.554246 4.10739
3.29312 3.47697 2.7903
2.02787 1.12037 3.72042
-0.520504 3.72772 2.29727
2.77451 1.83928 3.212
-0.409794 3.79289 2.29097
-0.57554 3.19562 2.43238
-1.30956 0.797455 3.74778
1.76471 4.39761 2.33411
-0.777479 2.63031 2.75685
1.87817 1.90856 3.36651
3.98876 0.79638 3.65124
-0.790151 3.87392 2.27358
2.79313 -0.282291 4.20905
5.12597 -0.762016 4.2326
4.31177 0.0931192 3.76441
0.181581 3.58872 2.46719
0.649244 4.20552 2.31534
1.77908 -0.0239361 4.56396
0.0876714 2.78587 2.51223
2.17973 1.4386 3.49931
1.46397 2.25497 3.10692
1.70847 4.20135 2.30622
0.381976 1.6987 3.29407
-0.147457 3.61888 2.41233
-0.210975 -0.551268 4.69725
1.5329 3.11569 2.71565
2.65361 2.29866 3.00451
4.05348 0.377996 3.61696
0.378806 -0.702302 4.60973
2.18594 1.52052 3.4659
-0.763808 2.92095 2.4976
0.723718 3.67153 2.42414
1.81994 2.27423 3.024
2.32238 -0.363915 4.39416
1.00791 1.5879 3.42737
1.1842 3.63414 2.54897
0.56517 4.21186 2.31683
4.24247 -0.381383 3.84479
2.99414 0.139103 4.02604
-0.390073 2.25021 2.79963
1.05113 2.97159 2.65611
2.04466 1.41882 3.4322
1.54869 3.66765 2.5251
1.39087 2.23968 3.0776
0.955573 0.482533 4.2814
0.589746 4.28723 2.31752
-0.211298 -1.29231 4.64026
-0.436474 2.87347 2.55853
-1.24883 3.87039 2.31559
-0.805389 3.20495 2.57764
-1.08304 0.053524 4.07743
0.364578 2.39296 2.81374
1.63108 1.68934 3.29506
-0.10747 3.66917 2.38323
3.64863 0.639153 3.7952
0.312943 2.97555 2.52639
0.226574 -0.790083 4.54418
-1.00308 2.40394 2.821
-0.42554 1.70688 3.20833
0.630966 -0.406509 4.70214
0.545129 3.8234 2.46772
3.43692 0.533952 3.77203
3.50076 -0.794701 4.69842
-0.298406 3.94719 2.28379
4.71416 0.130597 3.93418
2.60624 2.69009 2.87068
-0.539715 -0.52291 4.54116
1.21916 3.41793 2.58645
4.43753 1.07167 3.71383
0.670047 2.02251 3.09906
-0.528532 2.18652 2.94078
0.888982 1.43858 3.48504
-0.488758 3.94077 2.22914
0.654609 3.42101 2.42833
2.39483 -1.00818 4.75757
0.406552 2.77839 2.61966
-0.802155 0.480205 3.91875
2.81761 5.30675 2.54419
0.956602 2.14985 3.19281
0.843919 4.17291 2.36463
-0.0912855 1.39236 3.47531
0.878 -0.940648 5.01449
0.157786 3.37548 2.43257
-0.538459 0.662611 3.92075
0.545679 2.69911 2.63006
-1.37258 2.79774 2.6663
-0.49524 2.8184 2.55523
0.993532 0.110726 4.41602
0.844724 2.17994 3.03728
-0.76225 3.93881 2.1998
2.76968 1.31979 3.48283
-0.802774 1.41186 3.32071
1.04992 4.64921 2.31715
2.66563 2.02936 3.14931
4.44887 0.751293 3.639
0.361303 2.7003 2.58662
1.4494 0.239982 4.28452
2.14513 3.60166 2.68008
-0.666633 3.54171 2.43195
2.49841 2.269 3.04872
1.88377 4.20856 2.40312
1.94849 3.03615 2.73064
-1.38683 -0.174275 4.07511
4.10302 0.0438503 3.76608
1.83056 1.53982 3.38822
-0.656483 3.99112 2.12517
-0.446543 3.57838 2.41316
1.45222 2.98285 2.74444
2.6294 2.18842 3.07685
0.806591 3.66316 2.46515
0.540975 1.5424 3.38993
-0.696509 4.06142 2.12673
1.15159 0.630806 4.11289
0.981001 -0.980467 4.77202
-0.742411 2.68643 2.7877
3.82027 -0.839149 4.22432
-0.883304 3.36285 2.52718
-0.285472 0.711491 4.00846
1.27044 3.95076 2.43266
1.40729 1.10198 3.73852
4.10111 -1.19106 4.30042
1.99806 1.91583 3.3265
4.54753 -0.338958 4.08754
1.33982 1.27124 3.6128
-0.602538 3.86487 2.24854
0.222424 2.06861 3.07167
-0.645975 -1.38417 4.33367
4.77408 0.0699024 4.12762
0.463897 2.61964 2.59978
2.54588 3.53827 2.71449
4.15275 0.211911 3.97124
-0.848498 1.26911 3.45869
3.12757 -1.07475 4.028
1.7924 2.015 3.31427
-0.0881356 3.28694 2.45386
0.844521 2.63325 2.73939
0.562922 4.09003 2.39267
1.76105 4.77758 2.34975
-1.10227 1.15421 3.39836
1.3988 1.97038 3.20225
-0.201132 3.87101 2.32145
-1.17038 -0.378236 4.43223
-0.74594 2.58308 2.57371
-0.433102 3.27538 2.42284
1.46641 4.4835 2.32307
-0.873672 1.07157 3.47286
