ply
format ascii 1.0
element vertex 1909
property float x
property float y
property float z
end_header
-0.196113 1.16987 3.60753
1.97725 3.99065 2.68101
-1.39228 -0.272374 2.81654
1.84437 1.20772 3.62129
0.172046 2.45373 2.49313
-0.612224 1.18389 3.44366
0.942289 4.03135 2.55047
1.49024 -1.83394 3.13844
-0.337045 -0.142394 0.70991
-0.154679 0.736559 3.56752
-0.740804 1.49372 3.30375
-1.03435 3.77553 2.25562
-0.600134 -2.17232 2.91017
-0.283351 2.70974 2.55198
3.43506 -2.63607 3.49494
0.622356 -1.91275 3.33943
2.47307 4.17348 2.70789
-1.64721 0.0943239 2.81446
4.22695 1.01224 3.72783
2.51541 3.7887 2.70704
1.33184 2.64277 2.80172
0.242731 1.03621 3.67848
-0.576866 -2.21123 3.18384
2.97666 2.8867 2.97706
-1.97871 1.66391 2.81282
0.160977 4.13132 2.39741
1.8297 1.5172 3.48582
-2.21346 3.08741 2.3602
-1.28467 0.423917 3.18901
-1.18252 -1.47529 2.82344
-0.303688 2.77398 2.53343
-0.511878 4.0775 2.24541
2.37907 4.20125 2.69748
0.86756 1.49286 3.32589
3.60472 -1.04248 3.70899
-0.702425 0.748154 3.31459
0.43915 2.9068 2.5055
0.332138 4.27257 2.38405
4.18462 -0.233613 3.98565
1.71021 0.175856 4.33602
1.792 1.62074 3.31112
2.25362 2.95199 2.85608
-1.51019 2.63756 2.7436
-0.116793 1.82304 3.31149
0.293345 -1.01719 4.59607
1.01928 1.84576 3.30334
1.93726 3.16484 2.83963
-0.661113 -0.305352 4.40139
1.06776 -1.2399 3.17775
2.3257 4.82636 2.73874
-0.752125 1.5642 3.17956
1.45369 -0.137775 4.26969
0.30663 -0.84701 3.2376
0.570681 4.5048 2.40351
-0.0528813 1.88954 2.88676
3.86967 0.050535 3.80259
-1.32994 0.0103794 3.0401
0.774978 3.25233 2.63834
-1.316 0.691595 2.7777
2.59322 1.652 3.28415
-0.141745 -2.00837 1.64962
4.13995 -1.24079 4.42548
2.84562 -0.608778 3.90057
-0.273522 3.04084 2.37751
-0.957393 -0.469247 4.36566
4.34312 1.45721 3.38769
-0.488197 -0.736838 4.37116
0.553509 3.34222 2.56333
-0.671557 0.32291 3.94506
1.36369 0.245965 3.58707
-0.512299 2.08776 2.83263
-0.491702 -0.718514 4.59238
3.03167 -0.134512 3.97173
1.56926 1.83845 3.06653
1.69299 -1.57774 4.69719
0.383682 3.22559 2.51023
2.30605 3.4389 2.83138
0.243822 0.672166 3.46342
3.32778 0.549978 4.08571
2.17839 1.94163 3.21933
-1.20479 1.41589 3.37378
-0.297433 0.787893 3.23343
1.70843 5.17459 2.57057
1.00696 3.37466 2.70581
0.311028 2.0208 3.04771
4.66 0.157035 3.94199
-0.410326 0.79422 3.1398
0.476721 0.892993 4.02333
2.36141 4.9994 2.71885
0.811391 3.51552 2.6018
0.69125 -1.92591 3.01217
1.13199 2.07716 2.96018
-1.1024 0.962486 2.91892
-1.2514 3.64334 2.24695
1.00558 0.1347 3.56359
1.19468 3.481 2.67895
-0.0568806 0.533087 4.15332
2.96528 -2.55537 3.67215
0.16606 2.08665 2.89559
-0.731415 2.15381 2.60566
1.22801 1.029 3.65496
0.0313902 0.288483 4.29754
-0.78846 -1.6713 2.91302
0.633008 0.433957 4.25357
-0.471962 3.4713 2.3747
2.17996 -2.22751 2.67991
3.65625 3.19943 2.87663
0.0390554 -2.6736 2.67681
3.87163 -0.224334 3.87714
-0.592114 1.14792 3.14143
1.18779 3.69651 2.64783
-0.0421234 2.23579 2.62887
4.23112 0.0831684 3.70087
1.43381 3.73879 2.64061
-0.538583 0.176547 4.21441
-0.153631 -2.21201 2.97163
-0.589213 4.3724 2.25053
1.69152 2.18599 2.98239
1.89971 3.84025 2.68974
1.4473 2.44265 2.9083
-1.69651 4.10608 2.4071
-1.26093 0.724952 3.29217
2.5824 0.865818 3.65585
-1.55462 0.18144 2.70196
2.50815 0.79304 3.73529
4.44425 1.65915 3.2595
2.11207 -0.923957 3.53622
3.02404 -1.21603 4.11385
1.9322 2.35478 2.98714
-0.222143 3.73863 2.36598
-0.814975 2.55883 2.49165
4.37097 1.13784 3.61252
3.75252 2.99392 3.04724
-1.12865 1.10435 2.81716
2.83033 1.04154 3.64589
0.104617 3.9605 2.4956
-0.44073 0.111779 1.22701
1.49102 -0.89838 3.9065
0.141642 2.40287 2.54774
1.62422 3.95654 2.55542
0.00606136 -1.27828 3.01847
-0.357569 1.30191 3.66369
0.678703 0.168712 3.59469
3.05163 3.44906 3.0092
0.400363 1.61729 3.66548
-0.63607 2.55192 2.42457
-1.35871 -1.46281 2.88845
4.74733 -1.72064 3.50337
-0.200685 3.94195 2.34285
3.48546 3.31603 2.78572
-2.16228 2.97764 2.42198
-1.17649 -1.48738 2.82305
1.71447 1.52981 3.65401
0.438821 4.07889 2.44177
-1.21185 -0.642167 2.88395
-0.26464 2.78647 2.56636
0.26836 0.372428 3.54699
1.56799 1.40386 3.57177
0.448873 4.14866 2.42055
1.20718 2.69271 2.7423
0.51645 -0.00401289 3.42279
2.4928 2.28012 3.00382
-0.607923 4.24619 2.20233
3.37742 0.669602 3.76366
0.205952 3.60787 2.41953
-1.23496 0.0557211 3.26801
0.383374 2.24145 2.68714
-0.0129252 3.69291 2.40314
1.00828 -1.2818 -0.33743
1.91123 -1.02276 3.46608
3.0214 2.21369 3.06611
1.32707 -0.501469 3.47649
0.321141 3.85847 2.50042
-0.127045 -1.07151 2.98925
3.01951 2.32836 3.02785
-1.10508 -1.56182 2.84214
-0.153126 1.15614 3.6387
-0.22245 -0.642178 2.99961
-1.02469 1.11235 3.37903
-0.563666 3.72308 2.26934
-2.45352 3.64615 2.4951
0.733064 2.49928 2.65612
2.73612 2.56009 2.93264
2.11242 -1.50381 3.38175
1.36121 1.25559 3.82839
0.277095 4.05101 2.51845
1.35191 5.03198 2.58134
0.70916 2.42369 2.65434
-0.607101 -0.592388 3.25471
4.26557 1.08957 3.73821
-0.484036 0.757432 3.82127
1.38042 4.00201 2.51689
-1.80392 3.38338 2.29699
0.139818 2.57327 2.46614
-1.78904 1.6331 2.81822
-0.724054 -1.27483 3.20582
-0.800604 4.20109 2.24607
1.34935 4.07903 2.51395
1.3695 1.29785 3.46004
4.16416 0.427111 3.47691
2.55408 4.27615 2.73882
0.403497 2.49849 2.52137
0.0222173 -0.504985 3.23569
-1.39678 4.04676 2.31261
0.414311 2.75765 2.5286
1.55374 4.12342 2.49223
3.03815 -0.428968 4.39495
1.27008 1.61346 3.50062
-1.11928 1.03097 3.26548
-1.27025 4.57935 2.27682
-0.670468 2.79523 2.51103
0.233003 4.14961 2.35275
0.0748721 -0.845997 3.09866
2.11616 -0.228583 4.76168
3.71606 1.15688 3.36752
-0.149677 2.903 2.44219
0.17716 4.3873 2.3092
-0.199618 -1.505 3.06099
0.181743 4.16352 2.30162
3.41359 1.45087 3.46577
-1.39689 -1.66129 2.88376
-1.36453 -1.06926 2.88142
0.0180911 2.79775 2.43607
4.12855 0.238365 3.51098
1.67271 1.58147 3.42601
3.7476 -0.632173 4.23763
3.65243 1.48957 3.4194
2.93977 -0.860065 4.40974
-0.147272 -1.23236 4.64971
-0.609461 2.96152 2.34731
-1.04188 0.432093 3.16967
2.2659 -0.632185 3.5759
-0.804943 -0.553865 4.00237
1.38637 -1.46168 4.70636
0.621307 -0.20427 3.5081
-1.11453 1.59381 3.1233
2.5805 -0.20716 3.91599
-0.754196 -1.27467 4.48755
1.21842 1.90385 3.21139
1.94388 4.33868 2.5471
-0.244243 3.2024 2.49537
-1.1129 2.45248 2.45597
0.0396421 -0.275693 3.33578
-0.60566 -1.10536 5.02982
2.33222 1.67688 3.27247
1.15377 4.4468 2.41474
-0.0405047 3.08452 2.44516
4.41 1.37122 3.42819
1.66689 1.1345 3.72018
1.0004 3.84446 2.55484
2.34631 4.21747 2.68135
-0.200218 2.4501 2.55408
-1.17039 4.1441 2.1936
-1.19293 -0.423434 2.8269
3.70456 0.700926 3.6522
1.00742 3.88624 2.527
-2.07463 3.26195 2.30965
-0.379332 2.36391 2.52485
3.39695 2.23675 2.91642
-1.84202 3.44972 2.31287
3.72433 -1.02584 4.29636
3.88067 -2.52571 3.69262
1.16491 2.61453 2.75165
-0.776767 -0.847844 3.22471
-1.2066 1.28638 3.57022
2.89943 -1.30798 4.45075
0.834895 3.94793 2.49557
-1.32424 1.92863 3.0416
0.953179 2.51626 2.69825
0.0166793 -0.69043 -0.543916
1.28502 5.15734 2.5135
0.4595 1.48245 3.69976
0.942181 3.98139 2.47133
1.90483 2.79746 2.87803
0.241326 -3.10216 2.73133
-0.66108 1.62903 3.12605
0.257563 -0.0439289 3.36841
-1.66346 1.70861 4.45343
-0.918232 3.79097 2.15354
-0.317776 4.18513 2.1629
4.40304 0.17218 3.42866
1.45455 2.75469 2.84839
2.53081 1.19038 3.49177
-1.46201 -1.35129 2.8443
1.40147 4.08884 2.46971
3.18987 1.23539 3.37419
-1.35262 4.0543 2.29086
2.1052 2.93661 2.93664
0.943987 4.1633 2.42132
2.02329 -1.69594 3.27793
-0.408937 0.226721 3.38004
3.9615 -2.25476 3.53471
1.68405 4.15565 2.42177
-0.109005 1.84304 3.21093
0.433497 -1.60295 3.11574
-0.676756 0.884232 3.34632
0.993685 2.98732 2.65654
1.75189 1.56382 3.44044
-0.746514 4.03843 2.13569
0.802481 0.161916 4.41998
2.25512 0.187024 3.87538
1.1865 2.93599 2.72482
-1.41927 2.3757 2.7016
0.797305 3.12313 2.59195
-0.415262 -0.248709 4.43597
4.32825 -1.94212 3.7656
2.83833 5.10936 2.55443
0.379141 1.82797 3.04386
-0.827151 -0.828323 2.92424
1.14862 3.09622 2.69526
-1.3371 -0.375341 2.9929
-0.971005 -0.0344092 4.06438
0.371935 1.73668 3.02424
0.83384 4.45823 2.41457
2.04062 -1.48929 3.05768
-2.5502 3.97944 2.33854
0.404999 3.17598 2.47137
3.08726 -0.613393 4.51891
4.71684 0.922093 3.39416
2.43029 5.43219 2.70342
1.57432 0.725521 3.75396
0.709721 1.93069 3.0092
1.48272 4.52385 2.45416
2.65506 -0.413897 4.54984
-1.44848 0.780538 3.08157
1.48164 3.31035 2.7642
0.919456 1.83625 3.0362
-1.46542 -0.969235 4.17919
0.594467 1.96934 2.92759
2.89729 -0.0362342 3.95193
1.88898 3.46947 2.8257
2.85455 -0.827359 4.27712
3.57332 -0.735867 3.81562
5.03352 -0.805019 4.08203
3.75381 -0.715652 4.04974
-0.662231 2.86728 2.43052
-0.681712 4.05506 2.22971
0.223244 -0.15674 4.58265
2.25393 1.38748 3.2614
-0.0917443 1.73457 3.3079
-0.465931 -0.01072 3.34991
-0.770501 0.945873 3.32321
4.05951 0.297171 3.61248
0.136395 4.11393 2.27159
1.96812 -0.069315 4.1646
0.487982 -0.95579 3.27583
-0.0741567 2.69969 2.41136
-1.01914 0.539295 3.19891
-1.7815 4.39288 2.33396
0.894777 3.07793 2.65161
3.69148 -0.412764 3.84058
-0.0731521 4.25966 2.28281
-0.806855 1.99365 3.15963
1.08638 -0.942341 3.32893
-0.50892 2.93269 2.42258
-0.303728 -1.4625 3.06147
-0.424286 1.40466 3.29665
-0.764442 1.89886 3.13931
2.86076 4.7564 2.55207
-1.81856 -0.00706504 2.79505
4.33998 -0.758022 4.38986
-1.29281 -0.733904 2.95324
3.88091 -0.601789 3.74614
3.74599 1.60922 3.38367
2.84886 -0.572186 4.08354
0.453351 3.0149 2.45581
1.48371 1.84221 3.33212
2.46831 0.20139 3.92086
3.05261 1.7062 3.18847
1.15237 4.58949 2.43141
1.99935 -1.03469 4.76691
0.476764 3.20878 2.50375
4.13485 1.81008 3.26698
1.25706 1.88511 3.19962
-1.04234 -1.16737 4.14783
0.682538 -0.850816 4.50236
2.0852 3.31208 2.84153
2.22942 -0.523786 3.66636
3.26953 2.66392 2.96313
-0.792669 3.32608 2.335
4.94931 -0.714466 4.05196
-0.465999 1.14671 3.14646
-0.476632 -0.362537 2.97574
1.18465 0.788707 3.94301
2.76648 1.89535 3.16329
2.47737 5.03733 2.61132
2.62515 1.88074 3.2386
0.356564 0.645486 3.52129
1.60268 3.44164 2.76491
-0.410242 0.402096 3.20152
2.16765 0.704665 3.94599
-1.42722 0.6106 3.32998
5.19283 0.340707 3.31259
-0.339747 0.926964 3.24289
0.216683 2.25394 2.9067
1.86577 3.5729 2.75165
-1.12718 3.00277 2.3217
-1.32543 1.28757 2.83961
-0.060705 2.1251 2.7933
1.7726 3.67329 2.7492
1.31404 0.194531 3.58525
3.04363 0.360162 4.07349
-1.39393 3.63803 2.34683
1.07927 0.730834 3.62802
0.417506 3.4203 2.35807
-1.58012 2.37278 2.71526
0.757555 2.18302 2.80599
3.65465 0.352049 3.88106
0.936672 0.83295 3.59433
-1.20331 1.09971 2.71673
-0.404492 3.61352 2.37127
3.59497 0.596811 3.71491
3.95141 -0.0825659 4.21137
2.3017 2.36455 3.08735
1.7908 5.00166 2.42721
0.0531881 -2.04692 2.78273
0.286253 3.77197 2.48673
-1.24385 1.06122 2.85848
2.86401 0.251537 3.89254
-0.778133 2.32124 2.60828
-1.14335 -0.399685 3.21811
0.0954716 4.26364 2.29972
3.84187 1.42374 3.14969
-0.405945 0.203463 4.30015
1.9565 5.02307 2.51828
-0.93534 2.87131 2.24539
3.8377 -0.762956 3.7757
3.55907 1.4054 3.2774
1.52577 -1.55135 4.71527
3.1074 -0.322413 3.94915
0.131997 2.85048 2.43126
-1.34628 0.903005 2.8227
4.03099 -0.236323 4.18856
-0.288276 3.09427 2.3903
3.70115 1.67764 3.20604
-0.638598 2.03109 2.99228
4.08348 0.0378439 3.59021
2.03308 -2.28356 3.55238
0.25219 -0.769755 3.25262
4.07141 1.85347 3.2202
2.23859 0.0631772 4.07059
1.544 1.81423 3.31653
0.769319 4.5291 2.41267
1.43056 3.23743 2.76985
2.92732 2.75718 2.99656
1.99214 3.36748 2.75271
3.91183 -1.15886 4.26669
0.589723 -0.456423 4.77492
1.68587 1.94661 3.13759
-0.852855 3.17576 2.32077
0.760319 -1.73636 3.20713
-0.876671 2.18151 3.03547
-0.316006 1.02625 3.25341
2.723 -0.247655 4.48515
-0.899517 4.35643 2.12965
2.36257 5.21936 2.48313
3.41624 -0.488145 3.83824
-1.18316 0.927617 2.67577
4.56289 -0.823195 4.81825
1.41146 3.47517 2.69319
4.37032 0.996988 3.39613
-0.700179 -0.582112 4.45167
1.22609 2.05272 3.09177
2.20981 2.05667 3.04366
1.20308 0.962593 3.66315
-0.74454 0.232547 2.99799
-1.18006 3.78823 2.29744
0.5768 2.10692 2.88552
-1.43783 1.23166 2.86356
0.168565 3.52962 2.49569
2.25262 3.59673 2.82096
-0.0165193 -2.22518 2.87099
4.48208 -0.456062 3.94324
-0.983998 3.54097 2.32264
-0.452075 0.664545 3.09877
-1.3615 4.31358 2.21064
1.70829 2.3107 3.03114
-1.19645 0.494046 2.75819
1.93655 3.80785 2.74356
-0.144799 0.3005 3.36932
-0.475448 2.28295 2.72174
-0.940792 2.86462 2.42098
-1.50913 3.1801 2.27226
0.552559 2.33487 2.64634
-1.49075 1.28096 3.24676
-0.329152 3.6476 2.34241
4.12383 0.356159 3.73453
0.210876 1.15051 3.83054
-0.822913 2.42 2.62036
-1.20426 4.24069 2.19676
4.3178 -2.12794 3.69695
1.01158 5.02664 2.47819
-1.16935 0.791805 3.92949
0.477061 0.981677 3.95755
1.89697 2.55172 2.90432
2.82512 3.9549 2.73588
-0.733729 1.17494 3.33569
-0.335894 -0.366121 3.03172
3.44247 0.191809 4.0148
4.39766 0.947061 3.65158
1.32605 3.91065 2.57959
0.0736121 2.43516 2.57533
-0.351663 0.403943 1.27566
1.84251 -0.438631 3.63512
2.28307 0.556711 3.87733
4.01681 0.754629 3.58718
-0.726471 -1.16646 2.88931
-0.291947 -2.41916 2.91606
-1.58459 2.94899 4.22882
0.375896 1.07666 3.57815
0.61602 3.47774 2.56454
0.32818 2.04882 2.8747
4.06402 0.0674783 3.78301
-0.442202 -2.7187 2.84204
2.16811 3.52535 2.80775
-1.21231 3.55144 2.30969
-0.0190624 0.643304 3.5
-0.36021 0.739386 3.89859
1.22895 3.63677 2.68081
-0.869958 2.34387 2.74165
-0.411058 1.41648 3.28889
4.23754 -0.660836 3.88376
-1.70198 3.76081 2.41778
-0.876946 2.35439 2.83885
3.94462 0.320014 3.65113
4.13055 1.36701 3.49976
-0.444884 3.54456 2.37719
2.13098 -2.01224 3.20924
2.59041 5.39234 2.63457
0.762807 2.2514 2.68726
-0.316033 -0.14433 0.696769
-0.334519 3.60624 2.37274
3.22374 0.689861 3.82833
-0.645196 0.516935 3.92703
4.0475 1.10701 3.55915
2.65796 2.37849 3.02055
0.138938 0.687756 4.09996
-0.837166 2.30103 2.59029
2.10027 3.81558 2.68607
1.87744 -0.602398 3.58181
1.28549 1.14257 3.75721
1.39795 0.329824 4.27868
0.39772 0.396378 3.46433
2.21867 2.40603 2.99934
-0.743809 -1.59822 2.92708
-0.352397 3.72796 2.34291
1.09263 0.970178 3.6525
-0.02555 0.411383 4.29002
-0.950151 -0.798313 3.26514
2.06409 -0.869049 4.71166
1.69776 1.18712 3.58139
0.0404988 3.91765 2.46578
4.95345 -1.73248 3.37103
0.605656 2.47608 2.61138
-0.795484 0.204526 3.31337
1.48719 -1.161 3.27899
-0.0418544 3.90878 2.38642
-0.820344 1.03443 3.578
-1.00442 -1.44678 2.83707
-0.274124 0.237182 3.3827
1.43436 2.53317 2.89894
-0.268938 3.90732 2.31333
-1.40752 3.98066 2.36142
1.98352 -1.13153 3.9434
1.39699 2.72215 2.82188
-1.73167 3.33263 2.38567
0.033389 0.929528 3.36322
1.70139 1.39185 3.62598
-0.179128 -0.462917 3.23204
1.25141 -1.082 4.84066
-0.407065 1.43642 3.44847
0.206394 1.02056 3.63205
-0.325474 2.6052 2.52762
4.22642 -2.25826 3.74832
0.291658 4.6505 2.38731
1.17031 4.09801 2.51298
0.912215 2.7957 2.63789
0.650505 -0.0153995 3.4643
0.496872 -0.805412 3.36592
1.67952 1.56882 3.54033
-0.812353 3.78872 2.232
-1.08738 4.5176 2.23704
1.34291 2.81873 2.82606
-1.16634 -0.746567 3.15921
4.05307 1.14803 3.5356
1.33079 4.14007 2.4437
3.82646 2.20237 3.09907
0.0286658 0.70444 3.35834
-0.419035 4.19477 2.29855
3.95541 -2.19995 3.39749
-1.23839 -1.49083 2.88982
0.600389 2.83742 2.55421
1.16602 1.6539 3.40681
2.28565 4.10006 2.70182
0.943342 0.675221 3.57039
3.26303 3.04297 2.99741
1.34528 2.232 2.98717
1.60769 3.68204 2.68842
0.240609 0.333965 3.4306
-1.38426 0.407295 3.31623
-1.29325 1.00027 2.85361
0.563224 0.950529 3.91755
-0.0226367 3.61166 2.40807
1.26341 2.31947 2.85961
0.470181 0.95709 3.56932
2.5743 5.28878 2.66158
2.24466 3.86596 2.74407
-0.529641 0.509312 3.10925
4.43433 0.697312 3.675
1.29212 2.25018 2.89675
0.772912 3.85309 2.54828
1.57018 2.56673 2.95525
-0.960937 -1.5286 2.9233
3.48716 0.516121 3.82582
-1.27982 0.74404 3.28877
3.54195 0.813133 3.7823
-1.06952 -1.71835 2.78863
3.64302 0.616777 3.55918
-1.38637 3.97563 2.37612
-0.744008 -0.139154 3.31553
-0.191758 2.49642 2.72101
-0.375722 4.1524 2.35188
0.56981 3.92094 2.51257
0.133334 4.60428 2.35034
-0.356131 2.59463 2.5193
-0.557875 0.387036 3.32802
1.82683 1.27451 3.62986
-0.695679 3.77281 2.23973
4.48534 -1.93247 3.59606
-0.362131 0.444307 1.2867
-0.776645 2.59877 2.55494
-0.702308 -1.36349 3.15487
3.76699 0.493115 4.19461
0.664118 4.10091 2.53475
3.69186 0.806753 3.55178
-0.744928 0.849696 2.76835
2.66593 -0.610446 4.66747
0.207912 1.18905 3.625
-0.070383 4.06964 2.40657
2.57361 3.86715 2.71399
-2.41557 3.62029 2.37619
0.0898266 2.58422 2.47519
2.51958 3.96347 2.69632
-0.888676 -0.314263 3.95632
1.74675 1.33617 3.53834
-1.22266 -2.05938 2.88555
1.25015 4.0738 2.46088
4.64339 -1.92501 3.51153
0.738539 1.61805 3.38577
0.723857 5.15653 2.47419
0.922509 -0.948309 4.92296
-0.412076 2.7981 2.47234
0.334545 -0.802053 3.23698
-0.371624 3.99814 2.21123
2.49748 1.28863 3.51446
3.14257 -0.740352 4.18865
-1.34021 0.44369 3.19603
0.737283 2.6844 2.5987
1.09414 2.98551 2.67805
0.717316 4.26962 2.42754
0.110814 1.77715 3.18561
4.36187 -1.37387 4.6157
-1.01713 -1.37916 3.15845
4.25855 1.4815 3.85507
-1.0887 1.22484 3.19572
3.41277 -0.653553 3.82883
-0.719054 4.09142 2.19034
1.82868 0.477551 3.77992
2.90322 -1.03933 4.18531
1.99578 2.97159 2.87039
-0.374293 1.46434 3.31886
-0.969343 3.00149 2.2887
1.38402 -1.68502 4.6893
2.30634 1.65462 3.19123
0.884068 -0.952005 3.43777
2.20641 3.09798 2.8274
0.526095 -0.627092 3.42992
-1.10446 0.583525 3.06107
3.45197 1.4629 3.35806
-2.86227 4.31473 2.37434
0.68893 4.46809 2.42902
-0.650402 -0.619829 4.25298
-1.84966 1.55797 4.94554
-0.544865 3.71796 2.21183
2.70824 3.76388 2.80844
2.1467 2.61755 2.91745
-1.0877 2.9045 2.41821
3.47816 -0.646021 4.64758
-1.10023 -1.79449 2.89412
-0.719114 3.68971 2.12055
-2.02825 3.70247 2.4367
0.712707 -1.70492 3.35758
-0.565154 4.40586 2.28393
2.20644 1.3561 3.49611
-0.866552 3.73256 2.1479
-1.15273 -1.51251 2.81144
3.48863 -1.06473 4.41727
0.495908 2.6741 2.54991
-0.998499 -1.68851 2.91328
0.305553 0.0600999 3.38839
0.929176 4.81374 2.54113
1.93908 1.35798 3.64171
1.11204 -0.947959 4.95123
-0.519353 3.89906 2.19228
-0.815003 -2.05618 2.91913
-0.424705 2.63606 2.46271
0.021705 -0.690399 3.22073
-1.3921 3.10776 2.29274
3.10416 2.89342 2.84436
-0.424531 3.97736 2.19501
0.161798 1.71146 3.25111
3.6881 -0.543554 3.80561
-1.11672 3.23233 2.32775
1.99909 2.89053 2.87982
-1.11768 -1.21993 4.22988
0.508893 4.25116 2.38846
-0.641861 1.71057 3.24069
-0.382537 -0.757785 3.01493
-1.75577 4.65606 2.34875
1.89261 3.13294 2.82341
-1.1115 1.15732 2.9519
1.56354 -0.824333 3.43652
-0.227829 4.08294 2.28579
0.891998 1.80237 3.28164
-2.2999 2.70358 2.52429
-0.833714 2.86145 2.3222
-0.688281 1.24008 3.21944
0.0673249 -1.47668 2.94061
1.28793 1.77595 3.48327
2.54683 5.06161 2.47345
3.82551 0.196401 3.92049
-0.0551976 1.86614 3.02054
-0.872941 3.01505 2.30816
3.77642 0.17399 3.85367
1.89187 4.13682 2.5998
3.20632 0.391785 3.94926
4.28273 0.842477 3.51493
2.31201 -0.151616 3.8352
1.55455 4.43709 2.46015
3.67901 -0.791631 3.77206
2.70938 1.7619 3.22509
4.8119 0.649251 3.36895
3.65245 -0.0854942 4.23922
0.036978 3.16005 2.42988
3.85288 0.052844 4.09241
1.64823 1.84939 3.24139
3.84332 2.64938 3.09919
-1.00033 3.16837 2.3611
3.03883 2.6595 3.05059
1.80375 3.48132 2.75392
-2.06769 3.51041 2.35483
3.39698 -0.363937 4.43108
-0.611863 2.13568 2.81056
-1.19797 0.21001 3.50228
-0.328804 1.34704 3.22824
-1.45555 3.52805 2.28331
0.191324 2.07578 3.00469
4.28501 -0.0597406 3.84651
-0.831276 0.943997 2.99742
3.51542 -0.139148 4.28347
-0.00223029 3.27035 2.45987
-1.13071 3.8546 2.23358
1.91707 -0.166168 3.68328
0.970195 2.16215 2.92888
-1.39669 1.85487 2.78701
3.91128 0.21317 3.83633
2.17856 -0.426843 3.66208
0.21556 3.41481 2.48136
3.04279 -0.456331 4.26086
0.432686 3.54992 2.54759
-0.946375 0.808222 2.9148
-0.402014 2.17152 2.7901
0.272871 2.71841 2.50066
-0.64439 -0.750608 2.97364
0.538837 0.273478 3.51854
-0.884349 1.70056 3.29126
-2.81642 4.27506 2.37207
-0.79392 3.84048 2.14933
3.76846 -0.517961 4.09516
0.345253 -0.181807 4.68298
-0.21295 2.70638 2.49962
2.38952 -1.92825 3.82023
0.369607 1.6979 3.618
-0.841991 3.80937 2.14066
-2.32467 2.93736 2.48144
0.932238 1.67362 3.3708
-0.206414 2.83828 2.45462
-0.805747 -0.640713 4.10965
2.62103 3.71643 2.82157
0.939239 4.18801 2.39441
-1.0646 -2.17312 2.88351
-1.13773 -1.63082 3.13877
3.89671 -0.62617 4.21482
2.37472 3.67145 2.75547
0.519799 4.30267 2.37261
1.42348 1.7158 3.31747
1.43911 0.324142 3.60896
-1.50911 1.68406 2.90411
-0.140353 2.97273 2.43402
4.23542 1.50479 3.60154
2.85033 4.77381 2.7431
1.36139 3.03575 2.77121
-0.26046 1.44269 3.30955
3.5416 -0.918726 4.66577
1.19389 3.24809 2.69599
1.77295 -1.24864 4.37352
-1.23381 0.981836 3.048
2.63879 0.134033 3.93225
2.89907 1.66425 3.27556
3.98731 -0.92516 4.36451
1.5723 0.600124 3.73785
0.220907 -1.15519 4.88955
4.71438 1.4115 3.35908
1.22558 1.85731 3.33504
4.17187 -0.948137 4.26613
0.879713 -0.714566 3.49618
0.986224 3.14962 2.64782
-0.626023 3.21601 2.34445
0.382053 -2.10345 2.1012
-0.257828 0.867715 3.23472
1.9783 0.731349 4.02601
3.32234 1.79728 3.29033
1.77614 4.65499 2.5097
0.278387 0.786885 4.1491
4.67401 0.746507 3.39518
0.210955 3.13745 2.42905
0.827237 1.89048 3.00943
4.48905 0.0513342 3.85069
0.60391 1.98118 2.86902
4.48234 0.939419 3.37669
-0.883014 0.281672 3.88181
2.07661 3.50067 2.80337
-1.30457 1.13477 2.84146
-0.097905 -0.131012 3.31807
1.24558 4.76535 2.46012
3.76268 0.220502 3.80542
3.45972 2.00731 3.08548
-1.67739 1.31112 2.84396
2.01747 5.08199 2.65483
0.103659 2.10711 2.81212
1.52621 3.56124 2.66915
0.410083 1.0551 3.57329
-0.747522 0.586503 2.99233
-0.234914 0.181127 4.32763
1.4497 3.57438 2.72606
4.18287 -0.691514 3.95017
-1.28476 0.639185 2.74155
-0.341798 1.17196 3.27659
-0.257621 -0.0127598 4.29839
0.956883 2.21268 2.78961
0.786956 3.60469 2.55782
-0.880661 4.09631 2.17078
2.26822 4.37401 2.66859
-0.62201 2.24333 2.66078
0.51837 0.146655 4.43167
-0.425624 4.25668 2.28569
-0.687204 1.04228 3.09585
0.0237222 3.62011 2.42746
-1.43619 3.81205 2.41194
0.687021 0.51619 4.20109
4.11861 1.87909 3.18027
-1.42524 1.16558 2.79858
1.44778 4.56859 2.4499
2.62673 0.00459972 3.91992
1.81256 0.732012 3.84566
1.84596 3.26766 2.7879
3.08621 -0.461482 3.93967
-0.597051 2.01932 2.99502
1.06606 2.01738 3.12647
-1.22772 -0.21018 4.15363
-0.114289 3.28238 2.46274
0.334135 -1.04216 -0.986786
1.88814 0.265769 4.23674
0.755522 1.91136 3.0098
-0.927866 4.03889 2.18616
1.90224 0.587996 3.80183
0.573068 3.21961 2.54014
2.84752 0.400017 4.16402
-0.571727 0.972162 2.59977
1.30005 2.09978 3.03463
3.0048 -0.0924366 3.91011
4.15227 -0.456878 4.05475
-0.466046 3.40204 2.40123
-0.793154 0.771817 3.02922
2.57567 4.38661 2.70214
1.66108 2.01566 3.13196
2.61924 0.10514 3.97055
-1.26749 4.12712 2.15746
0.587712 3.36339 2.53327
-0.454439 0.747952 3.10855
-0.329973 1.24352 3.29386
1.10802 -1.56204 4.49768
2.09301 -0.205104 4.33418
1.47108 2.19351 2.98007
-1.75931 3.58147 2.38226
0.491444 3.44233 2.46601
-0.259313 0.695975 3.24081
-0.0396459 -1.28371 4.07659
4.87432 0.54122 3.36752
0.0900578 2.21666 2.84549
-0.140961 3.49041 2.36583
-0.997434 3.07016 1.90559
0.181258 -1.39066 -0.602296
2.11261 3.77725 2.74109
0.357579 1.03605 4.1651
-1.59285 1.92027 2.57737
1.88249 2.23234 2.99584
0.271017 0.128554 3.56426
1.63715 -0.52499 3.51138
-0.84441 3.67706 2.34252
0.432258 1.07834 3.89146
3.98993 2.5416 3.2742
2.37691 4.40966 2.69377
-1.40662 1.14335 2.86044
1.38987 3.84798 2.60356
0.038098 -0.289103 3.21468
0.114064 2.3138 2.65706
-1.09759 0.744537 3.25241
3.82716 0.794656 3.58584
0.713012 3.97123 2.56404
1.37958 -1.91161 3.15013
2.0312 2.56515 2.94139
-0.767338 0.898906 3.29701
-1.416 2.75725 2.16878
0.28744 1.23781 3.86742
1.4779 4.03669 2.60323
-0.806768 4.2059 2.26845
0.227233 2.42106 2.5826
-0.9906 -0.239201 3.25907
-1.21004 -1.18645 2.82499
1.5243 2.72403 2.84711
0.967448 0.79946 4.04406
-0.56262 -0.971166 3.2332
-1.22697 2.89393 2.46128
3.43544 1.02032 3.50397
-0.552806 3.77839 2.2043
-1.81786 4.10046 2.40376
0.0312385 -0.151828 3.28365
4.54791 -2.10649 3.60436
1.02323 2.60388 2.74576
4.33061 0.946046 3.60125
2.5298 4.16985 2.70715
-0.895341 3.31378 2.33431
0.201739 -2.65032 2.78638
3.05018 1.88293 3.24476
-1.62162 -1.19739 4.22466
2.72668 0.605113 3.72291
1.42823 4.76935 2.47131
0.523345 3.31189 2.55858
2.07575 5.13028 2.63274
2.32649 1.94984 3.30753
-0.361748 0.394948 3.25004
2.55872 0.322118 3.92032
-0.136277 4.36831 2.19912
-0.495785 0.00487383 3.07453
-0.711409 3.34054 2.31501
4.20834 -0.0141342 3.57098
1.54719 0.645528 4.1926
0.796457 2.06753 2.90122
1.54458 2.18661 2.98003
0.752526 -1.18128 -0.595774
0.953911 3.56601 2.61153
0.114436 0.370047 4.23356
0.736623 0.220674 3.63936
1.15956 -0.393269 3.49195
0.569292 -2.04034 4.4224
1.50388 2.15946 3.05811
-0.861206 0.433317 3.90192
0.645508 3.578 2.53598
-0.914218 0.596735 2.98714
-1.44174 1.31743 2.84565
4.12089 0.0897874 3.76126
1.81074 0.12003 4.3232
1.11009 0.872251 3.93734
1.84746 3.74515 2.69816
-0.261812 -2.26184 2.78987
3.84806 -1.55661 4.06401
1.5012 2.34274 2.95731
3.10979 -2.5142 3.27857
2.39569 0.239723 4.16688
0.646871 3.69964 2.49355
-0.618149 0.729669 3.04787
-0.469765 2.34295 2.72458
3.03902 -0.679567 3.86539
3.83357 2.06291 3.17194
0.812857 2.41914 2.71197
3.85913 2.76332 2.9504
-0.759596 -2.15548 2.90896
1.68881 -1.29417 4.4376
1.78768 1.04087 3.62049
-0.704079 3.65167 2.26343
-1.11568 -1.63113 2.79596
-0.0526729 2.39006 2.63277
-0.929211 0.271227 3.22454
-1.61795 3.95346 2.38519
1.96913 -1.03802 4.43791
3.4154 0.674268 3.65902
0.665753 3.98251 2.57338
1.97953 2.66541 2.95696
-0.599676 0.47828 3.32808
-1.42504 -0.158792 2.69156
1.6808 -0.826105 3.484
3.33075 1.03397 3.69687
1.30379 3.95586 2.54721
4.62685 -1.66257 3.57701
0.0109769 0.969773 3.66657
0.406546 2.39649 2.56407
1.81461 -0.365583 3.63534
0.302105 1.26866 3.81886
0.927101 4.06636 2.53959
-0.59293 0.133393 1.21042
4.81 1.21352 3.86526
2.69015 3.46604 2.92739
-2.22463 2.21991 2.61457
1.77962 2.71857 2.8849
2.98445 3.19275 2.97359
0.625767 4.15499 2.53026
0.283097 0.282825 3.52691
-1.8185 0.576497 2.8027
4.89687 -1.88539 3.48038
2.32535 1.44449 3.55358
2.5519 4.07896 2.52554
1.07219 2.8081 2.70439
0.91782 1.1962 3.64429
0.711743 -2.12641 2.97486
-0.62858 1.55693 3.18007
-0.738815 3.90086 2.12414
-0.80877 2.74417 2.45915
-1.32186 0.653989 3.23863
2.12467 2.37217 2.95641
4.46819 0.914778 3.50296
4.42171 -2.0261 3.62126
0.0713715 1.24491 3.81275
2.18357 -1.20208 3.51592
-0.875967 3.62291 2.30272
-0.967613 2.3408 2.57528
3.20017 -1.23076 4.02039
0.692434 2.25534 2.68535
0.429012 3.8028 2.49157
3.69824 0.565174 3.60882
-0.864298 0.537405 3.21084
-1.64631 2.26426 2.7304
-1.02956 3.70436 2.22315
-0.622822 0.177502 1.12471
0.0326579 2.42319 2.57609
1.38974 -2.43041 3.00134
-0.400125 1.24636 3.60895
1.04418 0.9744 3.63077
0.672534 -1.4435 3.20366
1.88205 1.25285 3.62978
0.173414 3.93241 2.43368
3.66346 2.82681 3.00528
-0.171597 2.51159 2.47354
-0.27622 0.902362 3.55086
1.27945 4.01242 2.52966
3.34164 0.912775 3.67229
4.80232 -1.98333 3.46366
-0.554615 -0.618547 3.26261
1.46239 2.60342 2.91469
1.64697 4.04426 2.53528
-2.17679 2.78445 2.58821
-1.15724 -1.50635 2.81232
0.851432 2.71366 2.65446
-1.65464 1.05574 2.83728
3.97972 1.09832 3.37926
0.277938 -0.29546 3.27621
0.78674 1.51159 3.57137
0.129799 -0.64496 3.2296
-1.57766 0.245688 2.71019
-0.378151 2.65008 2.48655
-0.0145472 4.05257 2.34055
-1.10451 4.0328 2.24131
0.166978 -2.39824 3.22871
1.82924 2.96338 2.85678
0.56067 1.66802 3.3003
3.42276 -0.386398 4.33231
1.4309 4.1156 2.43537
-0.271552 2.81216 2.52884
-1.05482 -1.94747 3.10916
1.44005 1.60191 3.55976
-0.809228 -0.0521876 4.12175
-0.387149 4.06631 2.21421
0.899725 -0.607098 3.51225
4.69966 1.44103 3.39077
-1.16076 4.48111 2.24684
1.83273 -0.566282 4.73412
1.55668 4.22675 2.40903
0.152432 -0.847231 3.18649
-1.13543 4.22595 2.23165
-0.807926 2.87364 2.34583
2.09594 -0.421164 4.50887
2.87111 4.08693 2.74268
0.799247 1.70478 3.24471
1.9832 -0.78913 4.97869
2.40299 1.63743 3.29131
0.423943 -1.37302 4.64556
-0.784308 2.97885 2.29753
-1.59296 3.03608 2.37505
3.92305 -0.810061 3.53144
2.15108 1.60923 3.3481
-0.55262 -0.577702 4.24187
-0.768862 3.02794 2.41492
-0.983554 0.372287 3.0483
0.604888 -1.74004 3.14005
2.05305 -0.0361087 3.78854
0.39591 -1.14422 4.79838
-0.113774 1.93477 2.86452
0.998625 4.50017 2.4176
0.149156 3.18724 2.48142
4.80846 -0.685801 3.42819
2.37043 -0.907417 4.61372
1.5708 1.84452 3.22962
3.97517 -0.626735 4.12203
3.99791 0.412777 3.5661
0.335896 -1.04217 -0.98536
0.341711 3.10808 2.48215
-0.170442 3.788 2.36169
1.58507 -1.73389 3.1721
-0.11048 2.53233 2.60877
3.37074 2.27598 3.23161
4.16833 0.870195 3.61455
-0.822285 -0.910058 3.99847
-2.30709 3.74337 2.49263
3.72821 0.727756 3.66865
-0.832177 -2.36419 2.88064
-0.894504 -0.7268 3.22889
1.91176 2.50531 2.98962
3.111 -0.937761 4.45765
1.03409 3.9439 2.52771
3.9242 -1.38511 4.37746
3.47393 2.56492 2.92905
-0.520419 -0.167209 3.2431
-1.34689 0.114389 2.717
-1.59932 3.47187 2.41497
-0.645098 1.47191 3.31752
1.32348 4.05 2.56187
2.61306 3.31893 2.89257
-1.84369 2.39585 2.68344
3.45134 2.52228 2.90816
-1.32765 4.02053 2.30445
-0.847361 3.74965 2.14185
-0.466831 1.41762 3.50368
-1.56181 0.0672061 2.90792
1.41553 -1.94418 3.11135
0.463658 -0.510675 3.26535
-1.23673 4.45108 2.26861
-0.485671 3.99129 2.25794
2.46909 2.73642 2.91466
2.45229 3.62596 2.82034
1.16044 1.45742 3.40822
-2.2158 2.12956 2.60948
0.706018 4.24731 2.47219
-0.174868 1.77654 3.29322
0.314031 -2.39704 3.22936
-0.0528368 2.75963 2.40687
-0.612267 4.12226 2.32105
-1.64445 -0.106959 2.80863
3.41051 1.21363 3.45432
-0.378905 -1.54234 3.15191
-0.441913 2.76013 2.45142
2.64058 3.03777 2.91942
0.678972 -1.72674 3.19649
-0.150887 4.15443 2.23808
1.65283 1.6547 3.28918
-0.178794 2.88087 2.35746
-0.796102 1.24385 3.287
3.58322 1.46782 3.59019
2.85925 4.70059 2.74004
3.68652 -0.190817 3.89448
-0.828616 0.281069 4.15001
0.764161 2.92714 2.6044
4.27279 1.38989 3.42462
-0.794384 3.05131 2.30181
-0.865124 -0.318322 3.34727
1.26883 -0.00197178 4.56947
3.19331 1.62245 3.28591
0.976449 4.57591 2.41934
2.18316 0.245308 3.86106
0.677352 3.09908 2.57916
2.34115 0.0223223 4.12917
3.23248 1.57298 3.40794
4.03356 2.09383 3.08472
0.445181 -0.60845 3.39675
1.80811 4.46648 2.49599
2.01278 -0.429421 4.57676
0.0802459 -2.14759 1.94251
-0.479998 0.881779 3.16002
3.49571 -0.792019 4.1975
4.01401 -0.436017 3.69812
-1.25007 -0.283811 4.11158
1.15699 3.35271 2.72797
0.766157 -1.96207 2.02928
-0.473363 2.02199 2.93415
4.91964 0.564941 3.37512
0.441295 2.01449 2.89287
2.01724 4.21288 2.6175
-0.474922 3.28778 2.37226
-0.274332 -0.8558 4.99935
1.35502 1.96369 3.12488
4.0693 0.57627 3.48234
0.421439 -0.674714 4.7872
-0.760259 3.24616 2.35121
4.21751 -0.385024 3.93614
-0.498585 -1.53673 3.15096
0.910835 2.96021 2.64977
0.884468 1.68998 3.25421
3.62682 -0.19207 3.90879
1.18971 4.1916 2.41984
3.18392 -0.48711 3.93516
4.08546 1.33335 3.49804
-0.55252 1.09021 3.40712
0.788916 4.2736 2.38496
3.82958 -0.0802765 4.04387
0.250888 2.8005 2.48504
3.65862 -0.0725258 3.93495
-0.647712 3.03607 2.36407
-0.552331 1.53796 3.16206
0.409791 -0.786841 3.36168
-0.222417 4.52902 2.19145
2.90814 1.54601 3.27882
-1.17304 4.40998 2.25358
1.62559 3.20427 2.88414
3.97579 1.88896 3.29397
2.70386 -0.292573 4.3019
-1.32029 -0.724546 2.78813
1.89555 1.66599 3.35698
1.23577 4.58494 2.43854
0.724623 1.89204 3.11264
1.65549 -1.93413 2.45849
-0.397812 -0.628777 4.57342
3.06214 -0.220582 3.95909
2.05645 3.34377 2.87571
1.85473 4.28154 2.51109
-0.535532 -0.385799 4.68657
4.51425 0.808113 3.41292
3.34704 2.37872 3.11895
3.69036 -0.847089 4.23572
3.31959 1.78512 3.10729
2.88038 -0.998979 5.09979
0.03039 -2.26785 2.00034
3.73955 -0.352939 3.81314
-0.960513 3.27366 2.36126
0.536634 1.97432 3.08551
3.55788 -0.787133 4.39101
2.17285 3.34301 2.81514
4.03976 -0.804173 4.11249
-0.247834 1.10146 3.24085
1.20639 3.52496 2.67135
1.61803 2.08432 3.10494
0.722398 4.72451 2.38081
-0.986075 1.2435 2.97777
1.84072 2.06305 3.2483
-1.02324 4.3586 2.15714
-1.69206 3.08249 2.30118
1.61586 3.50732 2.76693
-0.404308 0.571501 3.10988
1.7682 0.828042 3.84649
4.02987 0.272475 3.73336
0.785798 4.7621 2.43862
3.19014 -2.32944 3.59838
0.402389 2.24682 2.85265
-0.109675 3.42656 2.39768
0.275116 4.43625 2.3411
-0.389143 0.0637646 3.06565
0.326356 2.19869 2.90255
-0.843831 3.48831 2.31232
3.97446 -0.292341 3.69295
-1.26077 0.421049 3.83797
-0.378675 4.33206 2.27182
1.27553 0.885073 3.67208
1.64895 3.75394 2.69077
3.41684 2.54808 3.08469
2.36494 2.23678 3.08092
-0.691007 -1.40376 2.94993
3.54849 0.438022 4.0147
1.97468 -0.661251 3.60589
-0.634014 0.903012 3.63934
-0.434316 2.3541 2.53365
0.33438 3.7223 2.47332
-1.11878 3.6068 2.30255
0.214556 0.251436 4.38448
-0.736054 3.64207 2.25964
4.03764 0.12901 3.96014
-0.136931 0.873787 3.85665
0.25994 0.831535 3.43359
-0.786936 1.06129 2.5415
-0.997179 2.04865 2.53917
0.00111886 2.328 2.67372
1.77485 -1.59227 4.66164
1.71554 0.391239 4.31625
2.21004 1.75405 3.45972
-0.34312 1.47846 3.32323
3.50157 -0.153145 3.97686
-0.565666 3.09336 2.43521
1.28204 1.7938 3.41473
0.892901 4.64954 2.37528
0.856764 3.03692 2.64458
1.12952 0.309886 3.58306
-0.859406 -0.189466 3.32676
3.44022 -0.0539105 4.19847
0.510253 3.24423 2.55897
1.36525 4.40229 2.44444
3.47948 1.753 3.42273
3.46568 -0.311709 3.96147
4.59 0.792605 3.39048
5.01626 0.554404 3.36918
0.355104 -1.04628 -0.96534
3.65003 0.0452187 3.87062
2.78407 1.69561 3.31342
4.26394 -0.610686 4.17503
2.93385 3.47487 3.09662
-0.124557 0.732356 3.27507
-1.03408 3.36747 2.39244
1.48464 4.67497 2.4631
2.09712 5.26104 2.65393
3.43355 -0.393152 3.97964
1.11167 -0.0463317 4.51885
-0.567593 2.10539 2.81512
2.0809 3.41724 2.81495
1.03396 2.01898 3.14631
4.06525 -0.255898 4.00628
4.47422 1.11137 3.3589
-0.339317 -0.0444659 3.08653
2.43414 -0.617122 4.38154
2.40667 0.144609 3.91339
0.8813 3.44539 2.59253
1.19271 -0.372361 4.66435
3.92835 1.94135 3.11061
4.1007 0.40914 3.7629
0.239822 -1.93829 1.80992
-0.223434 2.2016 2.69796
-0.619122 3.50212 2.39261
-1.56176 1.67814 2.81541
3.90166 0.0247927 3.84957
-1.04331 3.53784 2.34902
-0.0168037 2.18661 2.81759
0.77772 1.11881 3.63126
0.125538 -0.840635 3.24705
0.398664 4.6632 2.35638
-0.538085 -1.96372 2.93872
0.111278 0.121253 3.49721
-0.583592 3.57373 2.33792
-0.698934 2.39283 2.64577
2.59251 5.23331 2.68954
3.76474 0.558773 3.82539
-0.422581 -2.28907 2.91606
-1.23199 2.41028 2.7739
4.09731 1.42948 3.32973
0.597843 2.2286 2.76217
0.0910758 3.67005 2.41405
2.9898 3.69331 2.86079
-0.0824645 2.46169 2.62373
4.49609 0.541853 3.51664
2.62119 0.9105 3.63611
-0.129557 0.759066 3.92869
-0.0951185 3.69097 2.36393
3.42458 2.27167 3.22941
1.28483 2.38208 2.84207
-0.642895 -2.35572 2.9091
1.69919 3.9284 2.63657
2.65774 0.809334 3.64392
-0.714549 -0.427302 3.26077
-1.14842 2.93561 2.35195
2.86777 -1.01717 3.87314
-0.480572 3.78138 2.26622
1.64957 0.460745 4.08158
-0.944555 -0.0765633 1.57934
1.73798 2.56041 2.91816
0.940949 -0.267185 3.52363
-0.264641 0.618877 4.14987
3.5434 0.905695 3.75591
-0.149514 -0.215068 3.17483
1.3054 2.17665 3.0621
-0.639258 -1.86175 2.90379
-1.05333 4.19909 2.20545
-1.08499 0.288403 2.86728
-0.870887 3.3845 2.27688
-0.286318 2.09058 2.71878
-0.114443 -3.05094 2.60219
3.93114 -0.277644 3.91859
1.98904 3.5407 2.77066
3.38205 -2.43914 3.62325
-0.600581 0.861076 3.10149
0.33938 4.61496 2.33961
0.809102 2.20904 2.7802
3.32569 3.50017 2.89969
1.88921 3.6993 2.74902
-1.0462 0.785163 2.85988
-0.151104 4.1848 2.12304
2.30587 5.13929 2.67256
-0.53008 2.24255 2.6698
1.21052 3.73025 2.62952
2.72129 0.561834 4.08294
1.63959 2.38558 2.90081
-1.32112 2.75572 2.63955
1.70883 3.80951 2.66819
4.41016 0.699697 3.73689
3.99919 0.726144 3.55951
3.01163 3.03729 2.99921
0.571699 0.860302 4.15296
0.900944 2.25064 2.7279
-1.0303 4.31921 2.17855
0.996183 0.881403 3.96012
1.73342 3.89917 2.67737
1.21413 -0.328001 3.50054
3.27799 0.878108 3.84675
1.13158 0.655179 3.62062
2.13225 2.45662 2.97043
1.25103 0.419499 4.19743
-0.372994 -1.1188 3.0218
0.027142 3.81123 2.38687
1.05546 0.877956 3.62865
4.1357 0.231987 3.98208
-0.938322 0.57112 3.24053
3.04074 0.984272 3.52643
-1.46779 -1.18579 2.84301
0.275976 4.16151 2.42286
2.37602 2.60811 2.94927
-0.407367 0.929374 3.4725
3.15709 3.10961 3.00711
2.11701 -1.50877 3.3815
0.478726 4.04154 2.48554
2.07063 1.17025 3.73016
-0.681655 -0.740132 3.2423
5.30008 -1.52594 3.2989
-0.584696 2.58682 2.5941
2.37981 -0.758439 4.48183
0.328533 0.553367 3.6314
4.09674 -1.16048 4.44936
1.07218 2.73373 2.71466
-1.27331 -1.0838 2.83879
0.681632 1.61899 3.57758
2.06953 4.24845 2.73065
2.82404 -0.976437 4.82813
0.322818 1.6103 3.60318
0.367913 1.16409 3.69759
-1.12022 2.9786 2.30089
-0.47407 2.66621 2.51454
0.857847 4.21462 2.52209
-1.65791 4.16014 2.39653
-1.71799 1.64737 2.81888
0.279002 -0.509247 3.38123
-0.716166 -2.24369 3.13916
-0.528057 2.84662 2.43801
3.84997 1.25707 3.39174
-0.513587 4.00912 2.21825
-0.826643 2.66682 2.44693
-0.962536 -1.31885 4.42154
-0.328707 -2.11827 3.10887
2.71246 1.28534 3.39584
-0.282116 4.01421 2.20547
3.67487 1.47297 3.64075
-1.75733 4.53313 2.33867
0.291181 2.8673 2.49234
-1.50335 -0.148963 2.90278
-0.326257 4.0439 2.22812
-1.07187 4.34048 2.24109
-0.908917 0.33699 3.19677
2.77718 3.72234 2.93345
-1.17578 0.0462107 3.83854
2.60438 1.4472 3.33195
-0.427039 2.9896 2.52438
3.49141 -0.73712 3.78786
-0.584818 4.05054 2.20416
4.9102 -0.00312273 4.56503
4.11577 0.996721 3.45599
-0.44538 1.05438 3.42067
1.88888 -0.903513 3.40641
2.6765 4.6628 2.78139
0.0221737 1.83957 3.04049
-0.592436 3.04145 2.39089
3.82494 -0.424351 4.08409
0.211381 -0.0481847 4.32509
-0.0647721 1.84147 3.14509
0.607321 4.58804 2.42029
-0.414037 1.2832 3.27808
1.78054 3.12868 2.83204
-1.01076 0.727846 3.25317
1.3418 5.33312 2.54514
-0.490737 3.10907 2.32781
3.48349 2.02119 3.24194
3.86422 -0.844954 3.75519
2.11168 1.8906 3.338
0.658998 -0.726135 4.9756
2.75463 2.06861 3.13573
0.400033 3.04685 2.44462
-1.54894 0.468347 3.0521
-0.16771 1.08944 3.31273
0.204155 1.89804 3.0128
3.22634 -1.02149 4.20957
1.09681 -2.07699 2.12509
0.951145 -0.448172 4.94623
3.3794 -0.912318 3.8291
0.00348387 3.28338 2.43148
2.99849 -0.618563 3.82972
1.27863 1.99466 3.07023
-1.52544 -0.162239 4.08863
2.18787 -0.707139 3.53025
0.127461 3.25055 2.48126
3.25626 -1.63224 4.29848
0.446914 -0.783656 4.64511
1.86285 1.94341 3.23356
-0.458926 2.0969 2.71936
0.675687 1.23196 3.64629
-0.727354 3.29765 2.28855
-0.927578 0.351837 2.80203
4.17183 1.26204 3.5016
2.76591 3.24511 2.95069
2.91379 3.80315 2.76511
-1.08004 1.00728 2.9137
2.8541 2.07058 3.10254
-0.256563 3.34639 2.32962
-0.0431058 0.742416 3.95157
3.8767 -0.287511 3.89033
-0.675018 2.15694 2.67516
0.267572 3.49581 2.44943
5.31513 0.380462 3.31204
3.95913 0.153292 3.80283
1.5727 3.76307 2.70453
0.846235 2.26993 2.75955
2.36164 -1.26365 3.61006
-1.19352 0.324739 3.8947
-1.46747 4.01478 2.29015
2.35015 0.84522 3.9316
-1.45167 0.861162 2.05337
3.28745 3.02335 2.9654
3.28198 -0.298637 4.07348
-0.538058 2.35256 2.73525
0.996417 3.74151 2.56122
2.87825 0.574977 4.04225
1.52145 2.46033 2.89891
0.297496 -0.334987 3.41873
-1.34267 -0.10904 3.25562
0.381805 -1.26992 3.1714
2.53461 0.936803 3.70192
2.90254 3.84454 2.67337
-0.947567 0.370832 2.96092
-0.570089 1.1037 3.50301
1.13781 1.02149 3.65191
0.42607 2.38714 2.70978
-0.971487 0.156593 2.86936
-1.15539 0.253087 3.94247
-0.648988 3.64286 2.21409
-0.494784 0.92709 3.77135
-1.8042 3.13168 4.81892
2.00652 4.86424 2.59526
-1.88466 3.1677 2.3002
1.28354 3.42772 2.68002
-0.174698 0.503755 3.39929
4.13235 0.117013 3.81776
0.86397 1.98562 3.04208
-0.635808 0.856998 3.05595
2.0802 5.37137 2.67954
1.96421 3.46938 2.84704
-0.999772 0.582788 3.65984
2.56466 2.03631 3.11832
-1.35467 1.72116 2.79765
-1.01668 4.22896 2.20372
2.04981 -0.333802 3.62195
-0.242634 0.712579 3.98057
1.31773 3.58241 2.66908
-0.889377 0.197902 1.75841
2.24253 2.03966 3.18325
-1.4102 0.45563 3.32439
2.04568 -0.159484 3.7625
-0.294777 3.27043 2.32813
0.185657 2.20734 2.67116
-1.51192 2.01955 3.10971
1.93355 3.67438 2.74158
-0.155009 0.282007 4.25785
-0.503154 4.35647 2.25867
0.547175 -1.24914 3.22925
-0.633503 3.59669 2.35331
0.712297 2.1824 2.83397
-0.514648 0.403324 4.2445
1.12318 1.10314 3.63182
-1.30341 3.10071 2.52542
-1.01369 0.952874 2.75682
1.08538 0.121891 4.43235
0.0572948 3.66741 2.41132
0.0637944 0.945486 3.39425
2.15739 2.28632 3.00302
-0.603968 0.527194 3.07905
3.35609 0.57792 3.64245
3.13908 0.0946446 3.75068
3.49472 -2.42324 3.6169
2.54611 -1.08363 4.29938
-1.02723 3.65343 2.25748
1.56653 1.16852 3.79852
-1.21046 -1.2714 2.81458
1.19343 2.51234 2.8946
3.73666 -0.873805 4.00673
-0.969978 2.20939 2.44591
2.5485 0.872653 3.7643
1.41034 3.88948 2.58757
0.321932 4.5578 2.49059
-1.39204 3.94937 2.3633
0.981546 2.38568 2.80114
-0.884876 0.925058 3.2234
-1.69968 0.770385 2.80507
0.991987 1.42277 3.68513
-0.605379 3.74791 2.25981
-1.00798 0.0826519 1.58207
1.3436 2.58537 2.78554
-0.935381 0.0323258 3.27044
2.10965 4.8669 2.60231
1.20069 1.302 3.71001
1.54208 3.99519 2.5485
3.62138 -1.4323 4.25789
-0.158444 0.860071 3.58492
0.185033 2.40593 2.50744
0.353301 0.248998 3.50876
3.43098 2.63243 3.07752
0.370333 0.933032 3.70477
2.38987 2.75554 2.92635
1.96175 1.32822 3.49509
1.24754 4.04409 2.506
5.38706 -1.6479 3.06131
0.183945 0.766053 3.61701
0.675238 2.60714 2.62016
-2.23312 2.7115 2.52668
0.998018 4.11833 2.48067
2.46402 3.74575 2.71801
3.83156 0.975989 3.60309
-1.20246 -1.33662 2.88978
-1.34477 0.682691 3.26153
0.405429 2.81318 2.54031
2.06889 1.50059 3.48067
3.12971 3.16264 2.98665
-0.117899 3.99011 2.25853
-1.54997 0.30877 2.81155
1.18428 2.7971 2.7147
-0.456904 -1.33641 3.17072
4.48469 -2.28235 3.48028
1.10368 1.55885 3.40362
0.282892 4.18179 2.35005
-1.4321 0.650953 3.33097
-0.474318 -0.550342 3.04619
-0.971196 3.40709 2.32027
3.45426 -2.32909 3.45365
0.162069 0.70833 3.39587
0.440146 2.19908 2.93059
-0.417354 -2.54691 2.88121
1.37192 3.72319 2.72585
-0.74135 4.18397 2.10399
0.677358 2.23767 2.79806
3.0397 3.70797 2.74177
2.38834 2.14443 3.10297
-0.0942256 3.56001 2.38318
-0.493593 0.83181 3.10924
-1.18202 3.77146 2.28336
1.57534 3.79972 2.6567
1.95618 0.932711 3.70234
-2.19093 3.50678 2.35823
3.43491 0.472625 4.10317
1.72005 2.37416 2.93343
-0.269866 -1.41557 3.86212
-0.906964 0.796434 3.74347
-0.482309 3.66157 2.30636
-1.60666 3.60019 2.34014
1.32383 -1.31972 3.20614
-0.833821 0.716477 3.84346
-0.387579 2.34622 2.64893
-0.992927 2.25534 2.42943
4.24033 0.656103 3.55316
1.1291 0.802109 3.64984
2.26312 2.4989 2.94223
3.47753 0.317946 4.0222
-0.983492 2.69466 2.57227
-0.70208 0.94785 2.54753
4.01442 0.707704 3.20987
1.51179 3.91197 2.6201
-0.920328 0.159718 2.90902
1.11917 2.47166 2.85624
3.50213 3.30635 2.7913
0.49027 -1.23678 3.22433
-0.692139 1.00822 3.65589
1.40522 3.93892 2.55987
-0.726209 2.63853 2.444
-0.725058 -0.872159 3.22721
0.212532 -2.95608 2.79186
-0.701154 1.43003 3.32178
1.88543 -0.823755 4.88732
1.71779 4.01731 2.57819
-1.18109 -1.42936 2.89929
1.76511 2.64796 2.93145
1.52224 -0.566451 4.42068
0.26257 0.338069 3.46031
3.78393 0.898404 3.6328
1.59495 4.0322 2.543
-0.316994 -0.495263 3.0632
4.41031 1.14243 3.67356
-0.984381 -0.992697 4.18879
0.233433 2.61623 2.49816
-0.995635 3.70394 2.20185
0.926924 4.71591 2.37477
-1.13605 4.02333 2.24159
-1.32433 3.92138 2.30759
-1.14492 -0.892706 4.27282
4.39088 1.41154 3.24676
-0.552583 1.74693 3.17598
1.23285 4.13879 2.45388
4.08968 0.610024 3.5011
1.57547 2.95573 2.84009
-0.7134 -1.8573 3.14239
0.0675437 1.77432 3.45715
-0.657982 3.56565 1.87756
0.610234 -0.646492 3.48125
4.13689 -1.4834 4.54219
0.793746 2.74401 2.62848
-1.0074 -1.84573 3.11622
1.17782 3.05139 2.70441
-0.225899 1.04395 3.53183
5.50511 -1.47602 2.97588
0.945567 4.24081 2.38147
2.07681 1.61947 3.3575
-1.57809 4.37876 2.32052
2.17698 2.97597 2.84402
-0.760779 1.30502 3.21159
2.50871 3.71397 2.75701
2.18898 -1.28267 4.48059
3.09334 1.34861 3.34252
-2.29757 2.9543 2.48268
0.981001 -0.980467 4.77202
5.26176 -1.7845 3.26304
-1.76165 1.12674 2.82055
-0.6965 2.63498 2.63987
3.82027 -0.839149 4.22432
-1.32149 -0.689317 2.72144
1.12362 3.93738 2.53225
1.52337 1.23046 3.69478
-1.27491 3.96833 2.34181
-0.994934 -0.0888202 3.25433
-1.90809 3.6431 2.38654
1.42386 1.35592 3.52603
-0.767367 3.76636 2.18479
-2.16001 3.18651 2.31554
-0.645975 -1.38417 4.33367
0.420049 2.53586 2.51377
-0.256603 0.643989 3.47151
0.363217 4.06006 2.44824
-0.839824 1.3956 3.44099
3.12757 -1.07475 4.028
0.802947 2.54425 2.66735
-1.26082 4.08731 2.27552
-0.51703 2.73714 2.42145
-0.929297 3.83486 2.18802
2.85181 1.31873 3.51374
-0.79847 1.51481 3.28184
-0.594595 -0.0176774 3.30618
-1.1318 -1.6659 3.20208
1.30334 -0.741657 3.45804
0.315522 2.61628 2.4945
1.76298 4.18832 2.53216
1.19001 -2.08467 2.3489
-1.6091 4.51177 2.3178
-1.02769 -1.51943 3.14663
1.90631 2.99223 2.81586
-2.30302 2.52266 2.58484
4.35331 0.286139 3.43819
1.87015 1.54424 3.33071
-0.765583 3.9213 2.16118
1.3922 2.92601 2.7833
2.56984 -1.28834 3.81657
4.09028 2.0643 3.04324
0.639068 1.61531 3.27592
-0.780653 4.001 2.16119
3.30743 0.115356 3.98427
-1.25526 -1.76907 2.86946
-0.426448 1.57959 3.21689
0.191186 -1.25037 4.58012
3.28018 0.254032 4.0916
2.67799 -0.15283 3.9359
4.01718 0.651578 3.54723
-0.677627 3.00067 2.43118
2.28475 1.58221 3.32791
3.12572 1.60786 3.26181
0.984584 4.41224 2.40316
-0.504195 3.10997 2.39257
3.88414 -0.305866 4.23374
-1.19421 0.988142 3.04218
-0.682554 2.0204 3.16334
1.86193 4.21619 2.52175
1.54914 3.21516 2.811
4.5544 1.37918 3.36044
2.8316 -0.493922 3.91118
0.625966 0.0942493 4.55056
0.891454 -2.09406 2.99478
1.40527 1.93465 3.11786
1.29251 4.47521 2.44243
-1.17038 -0.378236 4.43223
-0.762864 0.690971 2.93715
-0.524612 3.17027 2.31933
4.95529 -0.106187 3.45202
3.44604 1.73519 3.34601
4.79218 0.302222 3.935
3.6431 0.0180721 3.9366
2.26315 -0.259667 4.29989
2.02257 3.37914 2.84547
0.145132 -0.767028 5.21452
3.72524 2.25923 2.98149
1.2878 0.524895 3.61474
0.377896 3.38741 2.50346
2.543 2.00569 3.21024
1.24618 4.71364 2.45205
-0.234939 -2.15888 1.56494
4.03187 0.062166 3.74885
-0.542954 3.24551 2.33465
3.79762 1.90224 3.29108
3.52547 -0.869797 3.79905
-0.389157 2.68975 2.48572
3.8073 -1.76534 3.83907
-0.621649 -0.669278 4.5519
2.07265 1.27049 3.4394
-0.816184 3.75406 2.26057
-0.515201 2.62228 2.48394
0.608318 0.843553 3.68944
-0.542326 4.56719 2.27754
0.321558 1.65175 3.66693
-0.37195 -0.417868 4.42144
0.0704606 4.03715 2.36782
2.93194 3.70686 3.00281
-0.949409 -2.03942 3.136
-1.27969 -2.19114 2.87372
-0.970938 -1.25959 2.87885
0.826232 -1.03756 4.93135
-0.0502681 2.62208 2.39247
0.124233 4.14242 2.3808
-2.00265 1.88078 2.67494
3.47337 1.16601 3.41655
0.743865 -2.62832 2.83931
4.44417 -0.861797 4.5103
-0.944484 -1.01536 4.10844
0.413708 4.22602 2.38729
0.195544 1.75567 3.25223
-0.907047 -1.96861 3.10591
0.389246 2.89715 2.55683
2.51599 0.183416 3.93154
0.245334 4.2254 2.32797
3.98814 -0.585395 3.71233
2.57887 1.41262 3.46523
1.32954 2.92813 2.80084
4.1724 1.78015 3.38048
1.15909 -1.15056 3.19353
0.129102 -1.22974 4.55979
2.95538 1.48099 3.21827
-0.20125 3.01175 2.41648
-1.30611 -1.38844 4.23023
-0.872445 1.54011 3.15449
0.541644 1.71407 3.11129
1.66826 4.58046 2.4844
-0.986661 0.109614 3.02883
4.73148 -1.75664 3.22525
-0.0771951 2.93651 2.44328
-1.57713 4.45596 2.32697
5.09548 0.443419 3.35129
-0.107661 3.15892 2.43483
0.790819 4.4379 2.40849
1.39877 1.91724 3.23253
-1.1868 0.39621 3.86214
-0.652131 3.08696 2.3629
4.02235 -0.540841 3.68635
4.91921 0.443609 3.37353
3.04365 1.6206 3.30636
0.297944 -2.02317 1.86064
1.00272 0.641584 4.14153
1.13649 4.53406 2.42015
1.6443 0.754422 3.75616
2.77048 0.122688 3.79327
3.45759 3.22724 2.85585
1.56796 3.39035 2.75173
0.540364 0.351472 4.35451
3.98088 0.718375 3.54249
2.20918 1.88765 3.22557
-0.333696 2.09464 2.75212
3.26078 -1.64541 4.34986
0.152267 0.0653562 4.3374
-0.729837 -0.392458 3.04298
0.839092 3.49584 2.63364
-0.57657 -2.77482 2.7597
0.181649 -2.38113 2.99176
1.13273 2.07431 3.14322
-0.0683455 3.27958 2.43102
2.97049 3.68888 2.75739
2.17959 5.07631 2.40738
1.37215 -0.249667 4.49763
2.0083 3.63171 2.78681
-0.350182 2.12107 2.57546
-0.573018 0.924338 3.08339
-1.33837 0.139386 3.31024
1.12414 -2.04216 3.18138
4.67108 -0.263031 4.37463
0.553081 3.5474 2.52965
-0.825141 2.31575 2.84377
-1.13306 1.53624 2.94569
0.836872 -1.31294 4.31238
3.37137 -0.179602 3.97525
-0.00467981 3.09443 2.43296
-1.06363 1.30449 3.17063
2.66133 0.333399 4.01009
2.19047 1.72394 3.22244
1.9704 4.11979 2.6552
2.93164 0.403552 3.99933
1.04571 3.1229 2.66461
4.20676 1.94066 3.10192
2.68309 -0.445857 3.89575
0.792649 1.83444 3.22124
1.8165 4.39103 2.51417
3.63806 1.68274 3.18942
