ply
format ascii 1.0
element vertex 1924
property float x
property float y
property float z
end_header
2.22041 3.02023 2.69636
-0.811145 3.66002 2.44795
-0.067635 2.15859 2.99628
-0.347699 4.10623 2.16487
2.36197 1.40499 3.50522
2.44732 2.94856 2.73981
-0.15991 3.07062 2.54272
1.48021 -0.50898 4.67492
-0.748365 2.31547 2.79692
-0.309101 3.68622 2.39777
0.552707 1.6323 3.30595
-0.452957 4.12151 2.11905
3.51398 0.664219 3.87628
2.65546 1.55934 3.41703
-0.0292764 -0.314815 4.32463
4.9767 -0.592124 4.2939
0.596571 2.2567 2.87235
0.370947 3.74061 2.37391
-0.694855 2.98452 2.55584
0.644942 1.80024 3.19094
-0.397812 -0.628777 4.57342
-0.0515549 1.00415 3.99198
2.14847 3.46796 2.71335
-0.33134 2.47231 2.72825
-0.606934 -0.476779 4.69136
0.684674 3.98991 2.4158
0.58806 1.14653 3.71161
2.24108 4.17246 2.48359
3.16764 1.92569 3.12467
2.78466 -1.02921 5.14529
-0.5104 2.63193 2.68739
4.72507 0.445427 4.11146
-0.775447 3.39819 2.50793
2.43242 0.570143 3.81109
0.458499 1.87328 3.17016
3.55788 -0.787133 4.39101
0.0245661 1.06716 3.75848
2.24953 3.45995 2.64009
0.00562313 2.55044 2.70931
-0.546697 3.88028 2.22758
1.02516 3.03467 2.60193
0.300898 2.27388 2.87832
0.775906 1.58411 3.39263
3.33088 -0.173783 4.0642
0.141614 3.58282 2.39095
1.46338 4.23167 2.24243
3.88723 1.51187 3.5605
0.815369 2.20712 2.92123
1.11515 4.32044 2.22993
3.54691 -0.0602831 4.18779
0.360714 2.87938 2.53908
1.9144 3.81386 2.49491
-0.080805 2.41731 2.78591
-0.511212 3.13693 2.50169
0.699216 3.81622 2.42325
2.18769 0.840402 3.86715
-0.222417 4.52902 2.19145
2.78306 1.69963 3.28143
1.01528 2.39646 2.91336
1.73519 3.30864 2.75717
2.53039 -0.34269 4.38334
0.703828 0.731621 3.93361
1.81788 1.68173 3.42272
0.400409 3.83373 2.37764
-1.28424 0.356264 3.84934
-0.654613 -1.1277 4.78392
1.82066 3.83825 2.51212
0.388703 4.31311 2.22143
4.03782 -1.00684 4.88073
2.33396 2.36952 3.03117
3.26939 0.464547 4.05437
0.756269 3.02443 2.59244
-0.714884 1.55584 3.29945
0.113384 1.70012 3.23207
0.502797 -1.43139 4.67737
-0.670621 0.810331 3.65363
-0.449261 2.38507 2.74593
0.612887 3.79095 2.40505
1.19336 3.1724 2.54738
0.154222 0.150232 4.39964
3.55588 1.65572 3.41266
3.96107 0.201129 3.99411
-0.192118 0.729924 3.87486
-0.704538 -1.28333 4.28215
0.787712 3.09692 2.56675
-0.450817 3.75449 2.3221
-0.00628741 2.35434 2.84694
-0.341418 3.91488 2.20743
1.38951 3.5859 2.52772
-0.523502 2.74362 2.60056
1.59857 2.14137 3.13194
3.98342 -0.611495 4.064
0.835591 1.2079 3.5391
2.90953 1.31797 3.59725
1.81733 2.12316 3.27026
0.70685 2.69978 2.65819
3.05895 -0.489214 4.27534
1.76699 3.59917 2.61161
0.562934 4.10884 2.27446
2.14768 -0.857109 4.95168
1.63355 0.603836 3.96846
0.229802 2.84574 2.51002
2.98792 1.55403 3.63763
-0.558735 3.91739 2.09544
0.384739 2.25779 2.98653
0.124912 3.51593 2.4096
0.642814 2.79952 2.57458
0.288077 2.16264 3.0007
-0.604462 3.60491 2.40255
3.57118 1.41719 3.56857
-0.0729347 4.12473 2.17723
2.8818 -0.0508813 4.22259
-0.132994 4.07576 2.24928
2.45028 2.89358 2.78044
-0.722075 0.142751 4.06004
-0.372318 3.54822 2.49747
1.02485 1.32045 3.5456
0.500178 2.03775 2.9608
-0.118892 2.27882 3.00731
1.03835 4.30186 2.32639
-0.358017 1.47453 3.37152
0.0795805 3.44899 2.36052
0.0587536 2.86148 2.5209
0.753312 -0.332924 4.64514
2.34523 -0.168458 4.24596
-0.242265 2.17908 3.01461
-0.322714 4.23169 2.22995
3.22736 1.37829 3.45472
0.610654 3.66808 2.45363
-0.368324 2.81664 2.58642
0.145833 3.86505 2.33203
2.0326 3.50058 2.67288
-0.0847905 2.58175 2.74266
-0.00971002 1.86179 3.13915
5.99469 0.362717 4.83438
3.96641 1.00592 3.71121
-0.876406 -0.973229 4.00727
3.49006 0.888043 3.71145
-0.0582984 1.75587 3.09602
3.26551 0.472576 4.13302
1.93499 2.62715 2.93941
3.07396 -0.918691 4.4307
1.40989 3.31895 2.58685
3.85894 -1.39044 4.41006
3.23134 2.87751 2.86516
3.7303 0.196923 3.95406
-0.0389523 3.39185 2.44694
1.28531 3.98998 2.36372
-0.707982 1.17875 3.40006
1.57017 4.10991 2.38193
1.49131 2.05466 3.15371
0.469003 3.28506 2.4401
3.26036 2.7617 2.85806
2.38966 1.99248 3.22368
-0.523285 3.86726 2.17884
-0.540038 1.12104 3.59753
1.89084 -0.504535 4.63318
0.350156 4.10669 2.42762
-0.471429 2.55179 2.71714
-1.25007 -0.283811 4.11158
1.31615 3.42295 2.60942
3.02003 1.00782 3.68571
-0.612402 1.85235 3.11603
0.399318 1.99717 3.0495
0.447327 1.24622 3.66359
1.13032 4.05276 2.34428
-0.27141 3.39918 2.4518
-0.274332 -0.8558 4.99935
1.24802 2.73881 2.71114
1.45641 0.63698 4.16862
1.32167 1.98687 3.20195
3.33837 1.0767 3.59891
-0.628613 3.86737 2.18056
0.421439 -0.674714 4.7872
-0.578907 3.35198 2.47733
2.5477 2.76712 2.86038
0.689755 3.79327 2.4745
-1.11487 0.706492 3.78305
0.214988 4.21732 2.16963
1.57581 1.64788 3.36374
1.77405 2.42704 2.96186
-0.0593672 2.98964 2.47094
2.01498 3.89342 2.48741
3.42518 1.62973 3.56522
2.91059 4.88803 2.50812
0.890767 2.28606 2.90677
-0.894999 0.14663 4.16072
0.878977 2.9941 2.57267
-0.642132 3.16526 2.44888
1.14899 -0.157308 4.6088
1.68841 2.63314 2.94654
3.05475 1.80841 3.25968
2.24786 4.01977 2.5132
3.13009 0.882026 3.67508
0.824156 3.16648 2.5395
-0.501556 2.3959 2.75666
2.19437 -0.0428872 4.2139
3.08745 1.73949 3.38384
-0.817914 0.810269 3.6305
-0.524847 3.76204 2.26352
3.70481 0.618582 3.96133
4.31266 -0.755506 4.39587
-0.713375 3.75008 2.30094
2.74668 -0.559097 4.13617
1.06674 2.49302 2.85701
0.602329 3.07698 2.43137
1.31224 0.887334 3.87484
1.41906 1.81939 3.38711
2.93119 1.88579 3.16475
2.03712 1.09475 3.80008
1.88384 -1.08892 4.80981
0.647506 3.27523 2.46826
3.39667 0.348735 3.8559
1.20394 2.62368 2.76108
1.21159 1.8765 3.3026
2.88462 0.523203 4.16746
4.52359 1.02627 4.0681
0.682538 -0.850816 4.50236
0.0157403 3.93748 2.36196
2.16539 3.4331 2.67078
-0.138701 2.55982 2.78491
1.42428 4.03696 2.37914
-0.581125 2.96526 2.5999
-0.524416 3.58085 2.42947
0.880885 2.22698 2.91176
-0.328598 4.15826 2.21872
0.141681 -0.271833 4.59777
2.12407 1.43567 3.27915
-0.278194 1.43635 3.41415
1.70337 2.21277 3.04059
0.497889 4.16099 2.17827
1.84491 -0.130552 4.22355
1.05172 3.67497 2.43873
0.0234588 2.80459 2.53483
-0.701355 2.36443 2.8006
1.02546 3.14808 2.5799
3.65788 -0.397886 3.85974
4.9053 0.805955 4.38138
0.316881 4.32142 2.20563
-0.991219 1.68616 3.26752
0.380276 3.6875 2.38134
-0.402225 3.00819 2.54559
-0.620759 2.31745 2.87493
0.822968 3.76621 2.37671
-0.970385 1.58745 3.28408
2.90785 4.78225 2.50576
2.76715 0.266769 4.14144
4.63903 -1.39831 4.72443
0.65595 3.47652 2.303
0.992085 4.27699 2.24938
-0.539118 -1.09236 4.80127
0.771191 2.23075 2.91536
3.34456 0.361738 4.00118
1.86153 1.51181 3.45323
1.97723 3.04229 2.68938
-0.230643 4.13048 2.10404
3.65617 1.6571 3.31223
-0.127532 3.7257 2.40453
3.34552 0.707427 3.77085
0.258209 3.02403 2.47041
3.86553 -0.0172993 4.25779
2.28995 2.51133 3.03223
3.00826 1.56837 3.33609
1.08337 -1.60187 4.80333
0.56821 3.84635 2.42515
1.91764 3.09477 2.64074
2.63363 0.136531 4.06788
-0.85142 2.26977 2.80454
-0.505312 1.26927 3.58287
-0.587297 3.43643 2.44844
1.41374 4.07165 2.3464
-0.486925 2.68927 2.60982
1.10157 0.653508 3.99782
2.68289 2.05109 3.12868
4.23384 -0.786914 4.58056
-0.350641 1.16975 3.58695
2.54661 2.01756 3.21872
2.29699 2.80613 2.86247
3.09596 -0.569844 4.08833
1.74 3.53546 2.61379
3.18513 -0.798928 4.00225
-0.0981975 2.84662 2.57428
1.94313 0.515767 4.03751
0.094353 4.02567 2.25751
3.57646 1.41964 3.48935
-0.734244 3.93633 2.1514
0.180824 2.21886 3.03037
1.99103 3.67273 2.57107
2.23239 2.97088 2.8273
-0.114173 2.08837 2.97739
1.93107 3.75824 2.5727
-0.908112 1.30786 3.34219
1.61778 4.1951 2.25609
-0.917771 -0.103929 4.1806
1.94591 2.91097 2.76444
1.19511 3.57583 2.49745
-1.66346 1.70861 4.45343
-0.602244 3.9149 2.1901
-0.651688 2.02719 2.87934
2.31981 0.00447403 4.21169
1.5236 2.85566 2.79975
2.33842 3.65267 2.63186
2.36636 1.21283 3.5258
1.30015 2.07008 3.14222
-0.154348 2.14442 2.92628
1.63147 4.13422 2.28121
3.01678 1.38386 3.38368
3.22514 -0.410056 4.11078
2.14978 3.06447 2.80859
1.2372 4.21073 2.26148
1.81943 3.69799 2.52826
-0.242105 -0.270264 4.47633
1.49653 0.979056 3.85154
1.24082 3.89411 2.40715
1.00443 1.86406 3.27541
-0.184652 2.48548 2.70465
1.77676 3.41171 2.6498
3.44949 0.824667 3.74838
1.2529 3.93245 2.3712
-0.675323 1.75486 3.22434
-0.395066 2.41173 2.74777
0.391779 0.411797 4.18196
1.35143 3.25334 2.58407
3.71121 -1.02591 4.30376
-0.473395 3.34209 2.45258
1.2361 2.71695 2.76184
1.44198 0.158501 4.25975
1.42838 1.99104 3.1605
-1.23945 1.17526 3.58694
2.85095 -1.31856 4.47486
-0.382951 3.23744 2.4275
1.96576 0.265563 4.03373
1.01913 2.60825 2.74091
1.13329 1.94005 3.23719
1.1083 3.99449 2.34979
0.28794 1.09937 3.75949
1.20792 4.02733 2.31904
-0.202449 2.58278 2.70909
0.574642 3.24057 2.44479
2.95472 -0.623106 4.58025
4.23769 1.07347 3.84669
0.496365 3.95087 2.37636
0.656544 1.89887 3.15351
-0.636343 2.59642 2.8254
2.53515 -0.445904 4.6141
1.61893 3.39428 2.63483
-0.126035 0.998843 3.86164
0.981899 4.00875 2.36313
0.867023 1.80181 3.15602
0.542916 1.9309 3.04729
2.53001 1.17428 3.73461
2.00551 3.581 2.65654
2.84893 -0.837311 4.23794
0.360225 0.562892 4.25927
0.715705 2.64289 2.67742
0.0936667 4.01961 2.30507
3.71361 -0.701667 4.07429
1.70214 0.623893 3.91518
0.0192713 3.61903 2.39447
1.8904 4.20431 2.21605
-0.268197 1.59459 3.32492
2.39885 2.44053 3.0727
1.11289 3.05551 2.60021
1.6534 1.53534 3.50986
-0.278915 3.70035 2.38334
-0.537884 4.10895 2.09312
0.709517 0.02996 4.44347
0.472828 2.20558 2.87764
1.28838 3.01359 2.65793
0.93748 3.18478 2.52473
-0.440721 -0.269527 4.44053
2.37077 2.51195 2.89609
2.86811 5.13713 2.50227
0.27388 1.7297 3.20896
-0.747297 3.81754 2.40315
2.70841 0.822836 3.6914
1.27187 3.16933 2.60734
1.68427 2.43732 2.93446
-1.00582 -0.100944 4.07499
0.26077 1.63852 3.20793
3.34946 0.73298 3.91422
0.762012 3.88638 2.40127
0.93161 1.93573 3.20572
3.45445 -0.407129 4.10088
-1.05641 1.02083 3.39103
1.74978 3.46416 2.61672
0.798248 2.59789 2.71834
-0.239882 3.82501 2.28668
2.35385 1.89384 3.33316
1.16632 1.00306 3.88915
0.613386 4.1248 2.42603
2.04379 3.44921 2.67698
0.771985 2.52468 2.7511
3.98684 1.28791 3.76407
-0.52783 0.659923 3.83662
2.0192 2.06463 3.13071
2.79474 -0.744787 4.55271
0.214576 2.65906 2.57638
1.6077 4.05367 2.33175
1.45306 3.54939 2.53992
1.59476 4.13305 2.32992
4.30156 -0.620521 4.5921
1.22055 1.16266 3.58654
-1.91011 3.46029 5.44392
0.465171 2.60038 2.62428
0.652511 3.35341 2.46741
2.44201 2.4438 2.9318
0.217495 3.02456 2.46497
3.11599 0.725765 3.80954
-0.318103 -0.751429 4.4665
0.160865 0.0463488 4.41133
0.506566 1.68516 3.26934
0.471536 3.67004 2.36558
0.21816 2.94258 2.48952
0.387767 2.28461 2.83882
0.283637 3.76419 2.36744
2.75318 1.57059 3.30378
1.65723 0.161456 4.17679
0.921772 -1.54605 4.79579
0.493046 -0.269164 4.77161
0.628051 3.93306 2.42452
2.93747 2.53745 2.92464
0.246165 3.0997 2.44096
1.29142 -0.112103 4.37621
-0.232011 0.871962 3.70487
0.966973 1.81272 3.34188
3.49283 1.71098 3.39671
2.83345 -0.863249 4.46169
2.69419 0.703502 3.67508
3.52266 0.514639 4.14422
-0.172507 -1.26158 4.65313
-0.484224 3.05794 2.49043
2.3737 2.44193 2.92897
-0.864564 -0.624363 4.00564
1.33915 -1.48977 4.7109
2.89947 0.619697 3.86445
0.249787 3.74679 2.35713
0.688203 0.306299 4.23507
0.401985 0.987578 3.80499
-0.754196 -1.27467 4.48755
1.17444 1.89476 3.31976
0.71125 2.52198 2.74769
-0.0742539 3.31181 2.55448
0.124052 3.82814 2.35358
1.62242 0.408255 4.16507
0.522203 3.88373 2.33348
-0.60566 -1.10536 5.02982
-1.00886 0.866346 3.65728
2.25691 1.7709 3.30299
2.89736 2.53733 2.92447
0.119863 3.17052 2.50147
0.514235 2.84132 2.57247
0.761079 2.17301 2.95843
2.91586 -0.425225 4.46209
1.14211 1.474 3.54326
1.77875 4.18186 2.30314
1.09168 3.55763 2.47914
-0.618246 2.84037 2.66632
1.40875 2.1682 3.10415
0.584527 4.21288 2.25459
2.01571 -0.306133 4.81886
3.52034 1.29918 3.43418
-0.0326051 2.26944 2.81635
0.847328 3.64573 2.48328
-0.0242364 3.01191 2.55235
-0.377164 3.67746 2.42422
0.542703 4.21243 2.20378
3.25635 1.62462 3.44727
-0.736716 2.22267 2.87815
0.132977 2.89492 2.5303
1.5684 1.53113 3.48124
0.172427 3.64605 2.34805
3.67039 -0.588746 4.2835
-0.820711 2.08972 2.82471
-0.0277198 0.186528 4.31359
0.111883 1.44598 3.45806
0.443226 2.8246 2.5568
3.758 -1.3515 4.59865
1.30094 4.21265 2.25896
0.55673 0.310493 4.27437
-0.225495 3.57937 2.42397
3.78222 -0.150171 3.92544
1.17905 4.23903 2.22362
2.38277 1.65568 3.49245
1.39673 3.75596 2.49324
-0.0624256 2.26128 2.80644
-0.367498 3.08413 2.61443
1.62695 3.8045 2.46757
-0.607731 0.0466026 4.22745
3.58262 1.56751 3.62587
1.6919 4.27358 2.18823
1.94624 3.07626 2.71492
1.70544 2.29937 3.01645
2.38465 3.56864 2.64386
0.197518 2.6125 2.63442
3.07293 0.515424 4.13953
2.13033 2.0298 3.21998
1.83681 -0.913554 4.84868
0.705433 1.19064 3.6835
0.242676 3.97419 2.32803
1.17969 3.44022 2.59779
0.141041 2.54806 2.6584
0.235183 1.92644 3.18024
-1.54922 -0.715402 4.63412
4.09288 1.00847 3.53836
0.390048 0.677752 4.04894
0.996778 2.81148 2.65301
0.195624 3.97766 2.27739
1.01915 3.57929 2.49772
2.49136 1.35229 3.54559
1.29741 4.14137 2.333
1.11958 2.11808 3.03911
-0.0279858 2.68676 2.60091
1.37244 3.54417 2.54015
-0.107854 0.429844 4.16548
2.26377 1.22908 3.55035
3.23148 -0.962667 4.09612
0.109334 2.04278 3.06856
0.823208 -0.280017 4.64657
2.9782 1.97455 3.15692
0.290562 1.21516 3.75511
1.35216 4.1242 2.26795
1.78099 3.51525 2.59943
-0.613813 2.60755 2.62482
2.60868 -0.137808 4.1266
0.136628 4.01914 2.30255
1.58732 1.41719 3.69218
0.769304 4.14075 2.33043
-0.00462088 2.0792 2.96216
3.2086 -0.552748 3.99044
-0.189949 2.84409 2.68152
2.17632 3.71128 2.6012
-0.976031 -0.383296 4.44386
3.17799 2.09719 3.20929
1.43139 1.27998 3.66469
0.788092 4.20638 2.31056
0.0988723 3.48287 2.49229
1.28193 2.7707 2.70455
-0.311345 3.14862 2.48042
2.05632 3.92757 2.49222
1.4926 2.54718 2.92478
2.82413 4.99843 2.49735
-0.460707 0.181994 4.14029
1.92612 1.82635 3.40982
2.3665 0.832208 3.6801
2.29841 0.732825 3.80283
2.6526 1.70312 3.36453
2.94506 -1.22523 4.16255
1.94502 2.47712 2.96464
4.0961 0.236241 3.97637
-0.822998 2.57049 2.6783
1.11387 3.10051 2.53953
0.980112 3.33399 2.51449
0.0887875 3.82567 2.35175
2.63313 1.04768 3.65308
0.444803 4.03167 2.42865
-0.38439 1.87495 3.0828
0.172022 2.48126 2.69684
-1.8694 0.026027 5.43603
-0.976602 1.83571 3.18008
-0.594841 3.18729 2.44922
-0.441919 0.979998 3.73657
1.8195 4.01787 2.36782
2.98177 3.11017 2.76332
2.13083 2.27018 2.9996
-0.063814 4.05161 2.17082
-0.0122096 1.47611 3.33682
3.63946 0.105315 3.87935
-0.0938282 3.51378 2.3922
2.04931 3.00943 2.7608
-1.11768 -1.21993 4.22988
1.96757 2.20016 3.04122
3.7595 0.215707 3.90984
-0.707502 1.40487 3.35207
3.03562 3.90827 2.61697
-0.916357 2.37732 2.82981
0.867034 4.30811 2.26785
1.96989 3.24173 2.67817
1.1367 3.79648 2.47273
2.86925 0.708099 3.79968
0.039518 4.19802 2.14919
0.794781 1.70029 3.3865
1.53379 2.38769 3.00935
-0.743897 2.96254 2.50925
2.02887 -0.00284532 4.12495
-0.800319 3.68552 2.31827
1.17974 1.64851 3.51054
2.57549 5.07555 2.44515
1.60404 1.98852 3.17109
-0.69714 -0.686293 4.2635
-1.84966 1.55797 4.94554
3.63303 0.622074 4.07817
0.379047 3.31578 2.45211
-0.203135 3.81532 2.23261
2.14647 2.7433 2.80839
3.44922 -0.653473 4.6572
-0.395893 3.80057 2.17492
-0.735543 3.32396 2.4961
2.08622 1.34893 3.56875
3.7413 0.327846 3.86255
1.95968 2.14251 3.10374
3.44532 -1.07871 4.4463
0.585987 2.75919 2.60518
-0.553851 3.86241 2.16478
1.23705 3.54666 2.48477
3.66952 0.45832 3.79816
1.79299 1.26251 3.67873
1.11204 -0.947959 4.95123
-0.0576109 2.00419 3.03218
-0.173141 3.9864 2.19005
-0.378587 2.6959 2.63071
-0.81132 3.5055 2.50439
1.92633 3.57401 2.57607
-0.591281 3.90539 2.23671
0.986266 2.71098 2.65963
3.27566 -0.336176 4.4961
-0.741009 2.01049 3.03014
1.72213 1.2815 3.72671
2.57222 1.13117 3.64189
0.113492 1.99865 3.16176
1.14406 2.70067 2.75712
3.31508 -0.166909 4.41932
0.18762 3.35262 2.47743
-0.27423 2.8918 2.63607
1.05918 4.19004 2.37253
3.75347 1.41115 3.48199
0.964775 2.19137 3.01862
-0.654873 3.90637 2.14572
2.27915 2.87854 2.74451
0.425572 3.48947 2.44534
2.91648 -0.445406 4.33108
0.66071 3.62301 2.48409
3.4856 1.28838 3.47091
-0.487501 2.09811 3.00217
3.50256 0.231767 4.07174
-0.195248 1.70924 3.18492
-1.22082 -1.15592 4.02906
-1.18852 0.842664 3.64079
-0.739286 3.11378 2.46443
1.13232 4.18764 2.25152
0.0907247 2.42248 2.76969
2.61263 -0.917626 3.76123
2.92184 0.350201 4.00091
1.76277 3.91389 2.4269
-0.491403 1.05516 3.63339
2.61634 1.90082 3.21244
1.19491 3.92483 2.36943
1.0789 2.61032 2.76502
3.5385 -0.0269495 4.30211
0.211767 3.23697 2.44195
3.76929 0.11222 4.13464
1.60362 1.87046 3.3093
3.60773 0.886788 3.64406
-0.868412 3.29416 2.54161
-0.230334 3.81696 2.23303
-0.867633 2.58209 2.81327
1.04273 3.90103 2.41586
2.31677 3.39919 2.65361
1.63072 2.67653 2.94799
3.23513 0.594393 3.89817
1.0749 1.87267 3.30345
-1.30012 -0.67164 4.21754
3.31934 0.931211 3.81432
3.39852 0.785325 3.61848
-0.439772 1.70665 3.1794
2.86028 -0.582356 4.16291
-0.197942 2.50898 2.87546
0.594608 3.14582 2.50838
0.86518 3.98546 2.40538
-0.317589 2.65805 2.70077
0.111337 3.34645 2.4732
1.67695 1.15689 3.69636
-0.392028 3.89294 2.28084
2.78833 1.98716 3.19095
0.846752 3.27437 2.48033
-0.784315 2.60981 2.74885
3.50025 0.514249 4.22726
0.973368 1.92555 3.23417
-1.16417 -0.923471 4.97042
3.45875 0.998566 3.60081
2.41001 -0.148323 4.20979
0.979534 4.15936 2.40417
-0.148465 1.53465 3.46247
2.08919 3.09665 2.74892
1.36183 2.3011 3.03841
1.326 4.17021 2.20071
2.49553 -0.0188667 4.05706
1.7698 3.76132 2.51066
0.481615 0.762746 3.94832
0.189271 4.21383 2.15668
3.43708 1.68441 3.4262
0.253492 3.69161 2.39269
1.30599 2.41683 2.9149
-0.287353 3.10599 2.54857
-0.686655 -0.458358 4.84411
2.34832 -0.3244 4.51254
0.205189 1.59446 3.37905
2.37864 3.98451 2.53763
1.28328 -1.40365 4.71208
1.51135 3.12964 2.67394
1.32402 2.35122 2.96417
1.20728 3.05427 2.60438
0.899331 3.66499 2.44266
0.739767 2.28693 2.87979
1.05269 4.3206 2.28278
-0.0497567 1.55631 3.28731
3.80818 0.2887 4.77452
4.34996 -1.38961 4.61796
4.06918 1.65633 3.86888
0.948047 0.38349 4.13796
0.319048 2.22416 2.92013
2.82649 -1.02913 4.22193
2.04364 3.08685 2.7375
1.22408 2.53337 2.92475
-0.668735 3.75222 2.43345
2.5455 0.129911 4.16464
-0.83051 3.11443 2.4703
0.976196 0.910799 4.04517
-0.491519 4.16968 2.13522
2.1868 1.70931 3.26492
2.14839 3.93091 2.5007
1.33826 -1.70867 4.70532
2.24801 3.21714 2.66554
0.197655 2.36551 2.83595
3.29487 1.64804 3.34688
-0.62797 3.76321 2.31975
-0.364072 0.791851 4.08109
2.5399 -0.648889 4.73505
0.285601 4.14342 2.3392
0.15854 2.68224 2.6221
-0.930375 -0.377041 3.965
0.816309 3.48905 2.51555
1.59997 1.23379 3.58937
2.21598 2.08714 3.20591
0.636738 2.12741 2.92195
1.49775 4.11589 2.27971
0.594745 1.46661 3.55011
0.921892 -0.953567 4.92293
-0.331924 2.85304 2.59843
2.02087 0.50193 3.99044
0.905705 3.65167 2.50726
3.68207 0.569069 3.80533
2.9074 2.18049 3.18839
2.33873 1.31124 3.52179
3.10637 -0.736584 4.20939
0.289655 3.46818 2.43096
-0.0100003 4.06735 2.18032
0.820503 2.75752 2.61212
0.79764 2.3553 2.82221
0.16433 3.12857 2.56496
3.35996 -1.0946 4.6594
2.99508 0.73418 3.87842
-0.699777 0.399616 3.94088
1.69682 1.71716 3.40637
-0.0506919 3.70827 2.39419
0.0774045 0.547902 4.11767
0.308774 2.97116 2.52115
2.33167 -0.93865 4.88079
-0.911284 2.24305 2.78718
-1.17674 1.6257 3.38672
2.23856 3.91709 2.488
1.52523 4.2934 2.20031
1.85121 1.80021 3.38931
0.240045 -1.53074 4.63769
1.19186 0.879324 3.87494
1.27673 0.164971 4.33483
1.84492 3.33804 2.66692
2.21287 2.55477 2.94837
-0.0476494 3.82783 2.35428
2.7 -1.35011 4.60358
-0.0802951 0.309302 4.30597
0.397727 1.38347 3.59037
1.87753 4.08231 2.30631
-1.58459 2.94899 4.22882
1.91859 2.92344 2.77591
0.817264 3.54925 2.48771
0.276907 2.0274 3.05656
2.1293 1.24237 3.61105
0.110482 4.08868 2.24458
0.58492 -0.496385 5.32682
2.26686 3.64528 2.62501
-0.174204 2.72912 2.65894
-0.4054 0.643228 3.91244
0.756043 2.93875 2.58377
3.80311 -0.726065 4.24719
-0.97674 2.2494 2.91883
1.4241 3.69853 2.52745
-0.101596 4.19955 2.251
1.19578 1.55339 3.53849
1.87318 1.47397 3.58582
1.85394 -0.642528 4.90639
-0.990318 2.21115 3.01508
1.91209 2.97443 2.71976
1.85097 4.24152 2.2369
-0.179307 3.65753 2.42229
1.00409 2.86296 2.60841
1.55751 1.47214 3.57516
-0.499103 3.92988 2.15133
3.08508 -0.0130076 4.43518
2.40432 2.21633 3.06936
0.841769 0.167089 4.25125
1.43252 2.92544 2.77861
0.152894 3.5133 2.45422
2.18963 2.10946 3.04733
0.499871 3.53092 2.40852
3.85264 1.32076 3.53097
1.58062 4.18828 2.25488
-0.637622 -0.262492 4.36982
-0.101673 3.58456 2.37361
-0.199877 4.25785 2.23299
1.91806 2.29854 3.0266
0.706904 2.91236 2.5607
1.03823 1.51455 3.44
-1.03734 -0.0953608 3.79351
1.96045 -0.912762 4.7534
1.5543 1.07097 3.72499
-0.497878 0.526032 3.93316
-0.460905 1.87115 3.08642
0.372244 3.99337 2.40461
0.67071 2.58234 2.72074
0.347747 3.25299 2.45289
-0.624903 1.78109 3.09674
0.28536 3.97959 2.33503
-0.858174 0.930012 3.59287
0.335365 3.19868 2.47523
1.48726 2.63391 2.89269
-0.684699 0.296917 4.09045
1.98825 3.59547 2.58856
1.95338 -1.1532 3.9382
1.46243 2.82452 2.77536
0.0677757 3.98442 2.28383
-0.93433 2.01402 3.03303
1.56611 1.27632 3.68989
1.21489 -1.10202 4.85617
-0.0192745 1.96627 3.09238
4.14573 0.338265 3.92417
-0.482809 1.14618 3.54527
-0.284703 2.66553 2.69608
-0.159204 3.29371 2.42635
1.43252 4.14448 2.33916
0.356244 2.58924 2.62418
2.08271 3.47689 2.58107
2.07277 1.20304 3.82511
0.589723 -0.456423 4.77492
1.65922 2.00325 3.19528
-0.698306 3.29206 2.47146
0.167632 3.99529 2.34461
0.291145 2.57537 2.70826
-1.03201 1.93555 3.19528
-0.101833 3.92975 2.2536
2.55842 -0.321567 4.568
0.905922 1.09357 3.77474
1.53443 4.10793 2.32134
-1.0708 0.621051 3.73728
4.53795 -0.826218 4.82178
0.646152 2.6838 2.62323
1.56855 3.54376 2.54564
3.0325 1.21767 3.58207
-0.700179 -0.582112 4.45167
1.21973 2.09418 3.19271
0.477956 4.31702 2.20361
3.68839 1.58503 3.20433
-0.422653 0.177834 4.30534
1.61477 0.750777 3.89652
-0.696013 3.65449 2.35678
-0.815329 2.9738 2.42584
-0.306928 2.4103 2.88404
3.39254 1.54944 3.32453
1.47549 -1.57958 4.72943
2.18812 3.94778 2.50831
0.24713 2.92813 2.48239
2.04069 2.37162 2.99279
-0.301733 3.7806 2.32437
3.93998 -0.170266 4.23988
4.14088 0.867963 3.57966
1.05622 2.54805 2.79117
-0.788374 1.81433 3.15305
-0.130434 3.19873 2.47033
1.06986 0.880461 3.87039
2.09845 -0.00293722 4.15326
1.47671 1.79162 3.36506
1.37818 2.51272 2.88926
1.56223 3.32113 2.65062
-0.546605 3.76032 2.25211
1.25125 3.24352 2.5872
0.598734 2.4423 2.79598
0.138989 -1.36744 4.58854
1.35217 -0.972972 5.05818
0.835091 1.79948 3.36202
4.03323 0.444402 3.77459
0.128557 0.894333 3.89314
2.38805 3.19647 2.6422
-0.881702 2.36636 2.81612
-0.0392399 3.74554 2.35985
2.09917 -0.745633 4.48002
1.99118 1.74397 3.50582
-1.2133 0.657998 3.94621
0.398191 0.782326 3.98797
1.92029 2.67521 2.83998
2.81259 4.14914 2.58668
3.36301 0.242982 4.05453
4.34944 1.0143 3.66532
-0.387601 -1.26223 4.42972
0.106069 2.50955 2.7358
0.156326 1.90724 3.17067
1.54403 3.96377 2.39576
2.6283 3.44011 2.68257
2.09722 0.371258 4.03107
3.88472 0.880929 3.64071
-1.13158 -0.84349 3.73046
2.56076 1.80636 3.20828
2.17533 2.19567 3.03481
2.35973 4.3107 2.39307
-0.874214 -0.259269 4.09399
1.33856 1.4248 3.45459
0.080624 2.78521 2.5281
0.538308 2.07661 2.97528
0.193674 4.14749 2.22133
3.20405 -0.155629 4.14034
2.15481 1.35797 3.59926
2.35026 3.72596 2.62376
0.40654 3.60447 2.45859
0.72004 2.76196 2.60966
-0.755834 3.65468 2.41575
0.950304 4.26524 2.24695
-0.751362 -0.502421 3.9319
1.44448 1.61496 3.42892
1.73597 2.41736 3.04611
-0.551045 3.01923 2.56013
0.0710811 -0.411861 4.50774
0.311032 1.52761 3.45229
2.09115 3.90521 2.54804
-0.538603 2.23725 2.91926
0.929721 4.30115 2.20371
0.288181 2.87317 2.52272
0.1825 2.30294 2.82412
2.78438 3.25244 2.76227
3.42267 -1.07986 3.83654
1.60704 4.28538 2.23749
4.13453 0.258629 3.8684
-0.418063 1.60746 3.26981
-0.267363 3.67057 2.40605
2.01437 0.415271 3.98604
1.14326 3.00506 2.62677
3.48235 -0.954751 4.29852
0.56887 2.24654 2.885
0.514025 3.71746 2.38641
-0.206727 1.55481 3.41201
3.12043 -1.54211 4.23887
0.224711 0.0656689 4.39536
1.5358 3.8947 2.45282
3.07067 4.87104 2.47186
2.05661 2.46407 2.92573
1.73803 3.27158 2.66779
3.268 -1.60277 4.48316
0.633886 0.793023 3.87722
-1.81035 0.218531 4.89709
-0.485803 1.68499 3.23441
0.413531 1.33119 3.70321
0.1666 4.03407 2.29533
0.225255 -0.605987 4.97677
-0.960423 2.01077 2.97006
1.18953 2.79176 2.70642
1.51563 3.58115 2.55047
0.46093 1.95954 3.04714
-0.402363 3.95903 2.20206
2.75313 1.16371 3.59324
0.0141242 3.36179 2.45238
0.886981 2.69596 2.70668
1.51934 0.569384 4.1854
-0.644378 2.89687 2.60753
-1.02537 -0.715035 4.04884
0.867719 3.5709 2.47977
0.348897 4.05708 2.21221
-0.218962 2.16214 2.91145
5.10356 1.70168 4.12338
-0.286479 1.36221 3.41217
0.962456 -0.7751 5.04113
0.954068 2.15716 3.06294
-0.101213 0.710285 4.04301
1.48822 2.93923 2.7612
0.544741 4.17628 2.2253
-0.836135 3.60408 2.42551
-0.0405585 2.83058 2.63986
-0.545346 1.35821 3.393
1.92315 -0.102121 4.24744
0.664113 2.11257 2.99026
0.723911 3.38305 2.40484
0.508044 4.10073 2.29489
0.689377 2.72034 2.62894
-0.623058 3.50993 2.42304
3.06778 2.11626 3.19129
0.87838 4.25264 2.32858
2.0402 0.0303834 4.30003
-0.238743 1.26782 3.512
-0.803618 -0.336023 4.08616
1.72279 3.71099 2.51598
1.94896 4.26912 2.28747
2.77353 3.08573 2.81441
3.30352 1.44834 3.48872
3.41059 -0.256125 4.08631
-0.56694 2.14141 2.87655
1.58038 -1.01373 4.72249
0.415969 1.85331 3.20141
0.242781 0.452341 4.24631
2.75607 0.959321 3.71467
1.36973 3.35337 2.57665
1.82772 3.94471 2.42824
2.0526 2.64141 2.88564
2.12745 1.92275 3.54218
2.63243 0.863269 3.71701
0.608204 3.95701 2.36439
0.381239 3.18096 2.49856
0.23039 2.4317 2.7589
0.934918 1.16788 3.53922
2.2755 0.169194 4.09146
2.7997 -1.59512 4.37804
-0.418783 1.93871 2.99941
3.26616 2.82206 2.86412
0.530162 3.97983 2.31875
3.30957 3.65601 2.69102
3.07251 0.287823 4.0602
2.23926 1.12047 3.77251
1.85946 -1.22125 4.46554
-0.679272 1.86823 3.03436
2.27548 2.70795 2.83841
1.84837 3.48249 2.62272
1.08883 3.41037 2.5652
-0.201521 3.9844 2.26228
1.6262 2.75038 2.87917
-0.0986996 1.88731 3.08098
2.14216 -0.571547 4.44776
-0.679061 1.07841 3.53649
-0.406009 3.79222 2.25667
1.2577 3.30356 2.53782
1.90733 2.66111 2.90834
-0.355678 1.85738 3.19224
2.56772 0.940035 3.63743
-1.07358 -0.345503 4.2033
-0.101154 2.70058 2.60189
2.02083 4.10266 2.41282
0.713621 3.50184 2.49052
2.71471 1.23214 3.51801
2.12791 0.532321 4.02859
2.27377 2.08037 3.12584
-1.25594 -0.750718 4.25452
0.887121 4.20341 2.40328
2.49418 2.82737 2.86702
2.29204 3.55997 2.61765
-0.46129 0.698089 3.95346
2.33638 1.14863 3.55739
2.00648 -0.766882 4.90777
3.11599 2.03633 3.22296
1.20026 4.11506 2.31261
-0.635308 1.6165 3.28239
1.86614 0.0319512 4.23978
1.87112 3.81463 2.52457
-0.628352 4.13368 2.14962
1.54298 3.16936 2.67479
0.045397 2.3223 2.85094
-0.406582 -0.852221 4.49407
1.05545 0.199885 4.37251
-0.982975 1.53532 3.36292
0.626465 2.94373 2.5673
-0.318802 3.73976 2.39454
1.1462 2.27721 2.94493
3.88278 -0.277536 4.15811
0.458233 0.926911 3.88981
1.20964 3.84739 2.42042
3.63283 1.76168 3.28029
2.61891 5.03756 2.45135
-0.130032 2.46124 2.79305
-0.52927 3.16552 2.48122
3.39607 0.7314 3.77613
0.149701 -0.0802922 4.44503
-0.567104 1.67176 3.2104
1.65548 3.92378 2.41448
-0.626269 2.35579 2.76835
0.0949839 3.11224 2.52705
0.706452 3.09153 2.51497
-0.820029 2.37786 2.78895
3.28163 0.384704 4.0368
-0.610246 1.68543 3.23763
0.572898 -1.08094 5.01778
2.67042 0.741626 3.77442
0.713239 3.07119 2.58188
1.4703 3.82118 2.46728
-0.165351 2.37248 2.91386
0.916405 -0.909694 4.78765
3.39881 1.67244 3.50172
2.6581 -0.827395 4.40548
0.423797 -1.58031 4.67487
1.13404 0.553843 4.09149
0.0309806 3.78252 2.36943
1.43983 2.65976 2.90682
0.623173 3.21142 2.46446
1.7975 0.98935 3.79224
0.485343 3.86716 2.36978
2.7693 1.88721 3.31287
-0.864759 2.54014 2.87548
-0.577193 3.09887 2.42545
4.4572 0.835596 3.60155
1.19842 0.32034 4.21105
3.22958 1.79053 3.33285
-0.895383 -1.15523 4.30753
0.328687 3.9776 2.37887
2.59611 2.13707 3.06022
-1.42667 -0.347157 4.27252
1.81961 1.38655 3.55451
1.77993 2.95008 2.77567
1.85556 4.22051 2.3187
1.36146 3.62471 2.52074
0.34962 -0.259733 4.82391
1.45905 1.54954 3.46367
0.29008 0.7258 4.20514
1.62706 3.76749 2.55566
1.05943 -0.771105 4.93505
1.77337 4.21823 2.25674
0.740586 2.26803 2.92533
0.568914 2.94615 2.56918
3.80949 2.30577 3.16431
0.72089 -0.592368 4.7779
-0.425598 1.48214 3.48074
1.28967 3.77224 2.49135
-0.365933 4.16195 2.15514
1.75249 3.04821 2.77017
2.41361 0.552794 4.07428
1.53731 -0.824272 4.53992
1.14928 3.82376 2.4017
2.72027 4.50514 2.47788
4.85934 0.666315 4.12504
0.0614041 2.37086 2.77854
2.68683 -0.70173 4.47722
1.33159 3.23457 2.62656
-1.10749 0.783922 3.71227
1.19943 1.76055 3.42669
-0.886396 1.83901 3.14743
1.95546 1.00003 3.76982
0.820027 3.31634 2.54113
3.26209 -1.2982 4.78602
0.265685 3.7851 2.30977
-0.165775 0.343819 4.21027
2.69479 1.76646 3.24897
1.6753 2.69626 2.93937
1.46052 0.929509 3.90218
1.3146 3.93416 2.35258
1.14525 -1.01549 4.86102
-0.401658 3.26517 2.54816
0.0724233 0.44848 4.03291
2.75929 2.56314 2.92942
2.99533 1.44134 3.44563
0.0312968 3.38681 2.33475
0.519718 2.15136 2.88736
1.26812 4.15333 2.26804
-1.29325 -0.321546 4.09046
-0.0178469 2.85993 2.57068
3.02712 1.34692 3.45795
-0.199745 3.56595 2.40011
-0.71042 2.07762 2.91384
-0.425391 4.00635 2.11925
-1.28639 -0.186644 4.1344
0.783145 2.80531 2.61572
-0.508299 2.3744 2.90308
1.83479 3.1968 2.69618
2.66592 -0.53452 4.31187
1.20339 4.26059 2.21559
2.65444 1.62032 3.35853
1.65181 3.73796 2.46247
-0.00208215 2.97937 2.58561
2.14952 2.29381 2.96683
-0.482937 3.6983 2.36489
0.744222 -0.873852 4.73265
3.29317 1.57128 3.53156
1.59088 0.194072 4.20907
-0.933564 -1.48837 4.37918
2.05488 2.30152 2.9757
1.69084 1.51254 3.36817
-0.621011 2.99633 2.60092
-0.298734 3.57035 2.40271
1.81559 4.24354 2.26884
-0.45165 0.341052 4.14677
2.79814 -1.23014 4.551
1.78256 3.02948 2.74521
-1.07452 1.45211 3.38754
1.20939 3.73302 2.45623
1.1416 2.21616 2.99466
2.61952 1.63285 3.38413
0.908186 4.37215 2.27619
0.495026 2.9701 2.49025
0.269081 -0.0588093 4.45141
-0.576162 2.32221 2.83558
0.575463 -1.00716 4.76009
1.07648 3.76971 2.42696
3.29798 0.0232605 4.14909
3.73585 1.17788 3.65786
1.29282 3.99821 2.33084
-0.200703 1.95569 3.01589
1.53238 2.80785 2.82619
0.975875 3.42411 2.50592
2.74251 1.08517 3.66702
0.595564 4.10604 2.34346
0.606973 1.92409 3.13268
2.59804 0.65094 3.86012
-0.652412 2.64815 2.73527
2.59256 -0.692537 4.42864
0.160781 3.31605 2.47649
-0.704245 -0.878204 4.12185
-0.820145 2.87303 2.67474
2.28308 0.408655 3.95928
-0.745195 2.08883 2.93001
1.77069 1.41212 3.59941
1.62455 4.13722 2.31999
0.577485 -0.877422 4.82556
-0.162419 3.45525 2.44853
3.27415 0.526445 4.00913
-0.649635 2.77471 2.67006
1.96087 2.08669 3.11872
-0.020028 4.00027 2.17366
2.18168 1.2457 3.52268
4.22249 -0.257204 4.07436
-0.707853 2.77969 2.67532
1.81718 3.63063 2.58746
-0.237785 3.55873 2.45601
0.715214 1.29042 3.5999
0.414162 4.16069 2.37689
-0.476822 2.04132 3.01391
1.29823 -0.0826386 4.63064
0.270903 2.61534 2.61367
0.5772 3.2492 2.37276
0.703862 4.1415 2.31802
3.12027 1.11388 3.45433
0.713697 2.03639 3.17897
2.29694 2.15556 3.07498
0.688345 1.38447 3.49229
0.0515733 -0.528174 4.58106
2.06297 2.9509 2.77372
0.925608 4.17103 2.28066
-0.323472 3.53721 2.43912
2.53517 -0.380702 4.2462
-0.439924 0.894777 3.68354
1.08169 3.89596 2.44957
0.198449 1.78885 3.24188
4.45524 -0.257789 4.14882
1.09373 2.50465 2.84838
0.418528 3.13779 2.45662
2.22992 4.02837 2.48197
0.218826 1.66886 3.22117
1.21634 0.812976 4.00256
-0.808615 0.318054 3.84903
-0.538032 3.10753 2.50606
-0.824251 -1.1365 4.32318
1.54583 2.50135 2.96095
2.21475 3.50661 2.63738
2.21191 0.0386695 4.26193
-0.258951 2.6056 2.69749
-0.522413 1.89528 3.06555
2.50574 1.06642 3.59894
0.924382 4.03093 2.41232
3.95726 -1.53654 4.34665
-0.353914 0.218579 4.30563
1.16383 2.63424 2.86754
2.78603 1.84515 3.22236
-0.230659 3.26591 2.49415
-0.333537 0.990567 3.6579
0.761093 4.08423 2.38004
-0.438108 2.57951 2.78819
2.36268 3.45622 2.66334
1.95126 -0.768652 5.03885
0.593602 1.02861 3.86954
2.12264 0.699442 4.11467
2.37745 1.89663 3.31009
-1.08786 -0.488253 4.22665
-0.436533 3.23001 2.52739
1.51185 3.97556 2.44181
0.766779 2.49162 2.82428
-0.0932348 3.82373 2.27293
-0.514133 1.75443 3.17037
3.5921 0.857578 3.73489
2.21142 0.421091 4.08149
1.3339 3.42255 2.56881
4.53613 -1.06543 4.82408
3.33922 2.8193 2.96491
0.950726 4.10359 2.39561
-0.00138851 -0.851825 4.73143
0.328424 1.93448 3.15686
2.74112 0.533498 4.01919
2.26451 1.0532 3.54531
0.09401 1.55719 3.42673
1.35461 4.23918 2.26353
-0.65811 -0.0640404 4.18625
1.64098 2.40298 3.10405
-0.472718 3.63367 2.44799
1.38078 3.0661 2.68519
-0.922447 2.18433 2.92824
-0.22816 3.66807 2.40092
-2.38571 2.69493 6.39351
0.478325 4.21919 2.19104
0.578944 2.8416 2.56243
1.90692 3.29756 2.69262
1.45444 -0.399097 4.70154
0.931498 2.39704 2.82525
0.993644 3.76507 2.42131
-0.0186888 1.71423 3.30661
0.86197 -0.872908 4.77189
1.11851 0.792374 3.89162
3.88778 -0.257822 4.22693
0.960084 1.66299 3.40868
1.59999 2.41004 2.97754
1.02405 3.878 2.43609
-0.241595 3.05922 2.56617
-0.802205 1.21684 3.3786
-0.770148 3.89059 2.2164
2.36706 2.10186 3.18282
2.1831 4.83018 2.34108
-0.220982 2.76714 2.67901
0.00911934 3.42203 2.43573
2.51711 4.34905 2.4624
3.95917 1.20019 3.79391
0.161708 2.00727 3.12913
-1.24113 -0.110855 4.28722
1.39912 2.74192 2.77765
1.21508 3.46525 2.54593
2.92316 3.09219 2.82642
1.84253 -0.417779 4.66388
1.35466 2.25039 3.06781
0.517437 4.20357 2.30185
1.71943 1.47486 3.54771
0.551506 3.5245 2.45652
1.66226 -0.263716 4.33927
-0.235966 2.83297 2.65781
-1.12432 2.27258 3.21224
-0.143367 4.15849 2.21779
0.725042 1.3466 3.46013
0.936366 3.65245 2.48224
-0.336062 0.328981 4.29123
-0.804104 2.58252 2.7974
-1.368 -1.1413 4.21104
0.987668 3.3173 2.55852
0.175959 1.0347 3.94435
-0.486819 3.73088 2.27899
0.0487905 1.84235 3.18512
3.40184 0.351141 3.76435
0.302105 2.41655 2.74929
3.96176 -1.0952 4.7978
0.868255 3.22504 2.54497
-0.285446 0.874389 3.67983
2.1424 4.09204 2.47095
-0.383583 1.75176 3.19364
2.5344 1.91455 3.18365
1.69365 1.09428 3.71886
2.3014 0.0168392 4.27152
1.37649 3.36979 2.5362
0.223737 2.54509 2.64926
1.21504 4.08299 2.39805
1.75748 0.167605 4.13551
2.18661 0.992451 3.89841
-0.164006 1.78876 3.08575
1.30674 3.89876 2.39937
2.51383 2.67702 2.94329
0.936179 3.32265 2.56679
2.50585 1.77265 3.29922
1.88518 4.05509 2.44514
3.96668 0.839865 3.77999
-0.125819 3.14174 2.471
-1.003 -0.53604 4.37185
0.171384 2.46323 2.80176
-0.544402 -0.799962 4.3824
0.741163 3.41271 2.50541
3.80004 0.484259 3.88367
-0.40997 2.69503 2.71398
-0.643006 1.94845 3.02355
1.15478 4.0014 2.34783
3.28328 1.13132 3.55435
-0.491702 -0.718514 4.59238
0.851559 1.12368 3.78466
2.87533 0.640431 3.94333
1.53754 1.8943 3.13616
2.72455 2.7843 2.94445
0.557857 3.29588 2.48124
2.58541 4.3619 2.51892
1.84273 2.42011 3.01668
0.55935 2.99018 2.52806
1.62165 3.85639 2.56155
0.6986 4.33177 2.26836
3.9503 -0.14464 4.01883
1.57647 0.0260515 4.39159
1.93816 2.30533 3.00767
1.71711 1.62773 3.38816
2.28006 3.08289 2.71758
-0.2938 1.52473 3.39614
-0.545696 3.72803 2.39735
0.232921 -1.07815 4.61333
0.932933 1.72996 3.36434
0.966474 0.801061 4.02179
2.01516 3.27687 2.69224
-0.702464 -0.372754 4.41354
-0.16107 2.44437 2.90083
2.52211 4.97141 2.44264
0.48135 3.80133 2.38824
1.32534 -0.256348 4.31396
3.30722 -0.994985 4.34505
0.443877 4.18145 2.18172
1.66783 1.61964 3.37212
0.955051 3.65864 2.42128
0.489713 2.29193 2.84955
0.949751 3.03993 2.58207
2.14422 3.87804 2.51588
4.01741 1.56453 3.61988
0.268971 -0.655131 4.60945
2.84372 0.386491 4.07694
1.63697 3.08455 2.71176
2.22668 2.28253 2.99062
0.279175 0.198776 4.37816
0.776478 3.19334 2.52181
-0.616461 2.44223 2.76828
-0.709733 3.878 2.43572
2.08775 1.77952 3.30363
0.601987 -1.52245 4.71185
3.83369 0.840931 3.7334
2.75394 -1.20284 4.20173
-0.121838 0.804856 3.98794
-0.396781 0.325623 4.20261
0.878494 1.72383 3.35769
-0.568576 2.31892 2.73997
1.77273 3.24985 2.665
-0.687933 2.82993 2.65151
2.07948 3.97249 2.45544
-0.112346 3.44841 2.39031
-1.17702 -0.539069 4.39925
-0.35736 1.35761 3.45816
0.978013 4.14961 2.33382
2.23841 2.13247 3.059
-0.824106 -0.392979 4.64951
-0.643443 3.46619 2.46126
-0.306093 2.7418 2.65387
1.02888 2.10258 3.16958
0.36064 1.29415 3.64857
0.301484 4.19401 2.29775
0.566607 2.13478 2.89286
3.41438 1.43246 3.49311
3.42922 0.485926 3.8549
1.85572 3.04396 2.77443
-0.600424 -0.789992 4.32312
0.291327 4.16117 2.21742
-0.141884 3.52863 2.3876
3.11767 -0.737669 4.45234
1.52973 0.693157 4.15685
1.68891 2.18015 3.12573
3.72787 1.31538 3.47953
1.29319 0.031787 4.30311
1.54411 3.63124 2.53367
-0.0260244 3.95595 2.21221
1.69955 2.94903 2.79075
0.166542 2.05352 3.07444
0.0840576 4.07595 2.22735
-0.071221 1.27873 3.59223
1.64597 3.6067 2.5838
0.519336 2.68732 2.60823
3.75652 1.62036 3.73133
0.601328 -0.271291 4.70247
1.448 3.06278 2.69464
1.96278 3.73307 2.54505
0.126412 4.02796 2.1457
1.29599 2.29847 3.00497
1.44201 1.46808 3.54137
2.46258 -0.126131 4.12436
2.21684 2.21008 3.02588
-0.134076 4.22948 2.20957
1.20545 2.93618 2.66613
-0.060196 3.64894 2.40615
2.23461 2.71017 2.85087
1.79248 3.47663 2.62727
0.42276 1.14025 3.83229
1.51376 -1.03472 4.67001
1.25953 2.00258 3.32185
1.70454 0.393784 4.03593
-0.825748 3.31532 2.54757
1.35582 3.9314 2.36443
1.28528 2.60322 2.84753
3.26177 -0.894754 4.60258
3.33151 1.95729 3.46208
3.64097 0.470264 3.82387
1.19418 0.975834 3.7861
0.894419 4.06061 2.38426
0.70734 4.3657 2.5134
-1.09366 0.188178 4.07937
1.57013 2.79472 2.8401
0.511738 3.30609 2.42758
4.25923 0.246272 3.96802
1.34959 1.19491 3.68977
3.17228 -1.23278 4.26029
1.88966 2.06324 3.2602
0.845328 2.88137 2.60759
1.40367 4.15342 2.27852
-0.684619 0.0582474 4.25211
2.06428 2.19388 2.99479
4.90005 1.71446 4.17997
-0.815827 1.34799 3.40489
1.45583 2.1777 3.10843
0.63606 2.76411 2.58726
1.02294 4.28118 2.29017
0.636771 3.58187 2.49267
-1.66158 0.190927 4.60215
0.338387 2.30667 2.84106
0.471619 3.59066 2.43147
-0.103906 2.93494 2.46003
2.38206 1.59846 3.31963
1.54458 3.80633 2.52299
1.4171 4.32905 2.26586
-0.360672 3.04429 2.65535
-0.157303 2.28442 2.94119
4.09039 -0.137048 4.09169
1.29234 3.80786 2.45752
2.2498 1.50015 3.3814
0.410884 -1.10064 4.67352
0.946574 0.558179 4.11068
-0.161389 1.8777 3.06418
-0.709223 -0.724468 4.00464
2.35255 1.0615 3.60185
0.254966 3.24962 2.4324
0.0678086 2.57234 2.67082
-1.24115 -0.748132 4.88449
-0.0084429 0.705412 4.08103
0.742196 4.21414 2.47376
1.22061 1.27899 3.60234
0.363648 4.11498 2.35117
1.37569 2.08337 3.11849
4.07121 -1.25213 4.43488
2.13039 2.84408 2.77183
0.213444 0.330539 4.23318
-0.277483 3.43571 2.4384
2.47535 2.04647 3.22696
1.96595 0.412171 4.14368
0.533416 1.21696 3.71201
-0.797807 -0.852462 4.00297
1.11357 3.41894 2.5066
-0.177214 4.06273 2.27116
1.82914 2.75786 2.78682
-0.594591 3.82464 2.22453
-0.296054 3.32366 2.42678
-0.808835 2.66282 2.66779
2.45651 -0.417942 4.59441
1.94052 2.00837 3.1575
-0.434942 1.18453 3.58048
2.9979 1.12077 3.86489
2.82291 1.86564 3.10786
-0.468964 2.62157 2.72311
4.56932 -0.317311 4.54928
-0.246852 3.27429 2.4503
-0.00466728 3.92736 2.23316
0.0713804 2.71251 2.53281
0.127114 -0.638806 5.05008
1.90553 3.67289 2.56258
1.96337 1.35429 3.51572
-0.234433 3.91267 2.18326
1.24275 2.16996 3.09586
1.11608 3.48613 2.48759
2.05755 2.86035 2.78556
1.75686 2.16026 3.2547
1.07319 1.26085 3.54517
1.10768 4.22222 2.3175
3.76841 0.130821 3.91403
-0.722504 1.68083 3.22382
-0.12197 3.12491 2.53928
2.34323 2.46995 2.95589
-0.310635 -1.22639 4.54673
1.61138 3.88429 2.45117
1.86384 0.291434 4.11584
1.17683 -1.6121 4.79313
1.41462 0.798311 3.98847
1.08528 1.00884 3.83299
2.17546 1.84077 3.2186
-0.235152 3.77312 2.30647
0.946974 2.5337 2.75555
1.71707 -0.110632 4.36993
-0.843236 0.0545716 4.07257
2.57391 1.75438 3.25228
0.580927 3.17893 2.43841
3.68885 0.833346 3.68055
0.208781 3.9215 2.34547
2.03226 3.37876 2.67485
1.29043 2.50392 2.86398
1.15665 3.25101 2.56679
0.409506 0.913541 3.87309
0.98411 3.83896 2.4172
-0.00442209 1.7348 3.16889
1.55586 -1.58157 4.69296
0.561182 0.578477 4.21891
0.379345 2.42876 2.76429
-1.15193 -0.76903 4.30663
-0.584152 0.776265 3.77609
3.21265 1.70642 3.37059
4.73709 0.668685 4.23444
0.489612 2.38832 2.83305
3.76408 -0.716989 4.31594
1.82796 3.27528 2.68309
-1.59194 -0.962606 4.55032
1.72518 2.7533 2.88711
0.452742 0.427659 4.13098
3.27243 3.596 2.72684
1.95891 1.1019 3.75386
-0.389684 3.75211 2.29242
2.71095 1.93059 3.21296
-0.270582 3.81456 2.27698
-0.488044 3.19706 2.44487
-0.75022 2.58426 2.80002
1.85062 1.92461 3.36752
3.85182 0.933684 3.70889
-0.649701 3.89835 2.27106
2.67244 -0.2778 4.27453
0.295529 3.60291 2.44109
0.792777 4.23371 2.26023
1.68175 -0.112787 4.60674
0.130631 2.78452 2.51132
2.12008 1.46197 3.52055
1.46011 2.27072 3.09452
1.79439 4.24581 2.22731
0.353737 1.62104 3.32742
-0.0303115 3.63649 2.39434
-0.240318 -0.5758 4.70259
1.57143 3.15592 2.6684
2.60753 2.38927 2.98115
0.282034 -0.804869 4.63078
2.12893 1.54501 3.4826
-0.711305 2.91113 2.53245
0.821335 3.6934 2.37731
1.80788 2.31619 3.00955
2.20572 -0.404602 4.45397
0.972629 1.5359 3.44836
1.26661 3.66514 2.49053
0.712967 4.23906 2.26395
2.85725 0.155081 4.10253
-0.385447 2.19882 2.83217
1.09159 2.99257 2.61997
1.98771 1.4361 3.45544
1.61365 3.70985 2.45837
1.38672 2.24984 3.06735
0.863407 0.321942 4.30996
0.741124 4.31511 2.25914
-0.211298 -1.29231 4.64026
-0.384581 2.858 2.57845
-0.730947 3.20255 2.60623
-1.08304 0.053524 4.07743
0.378961 2.3761 2.81959
1.59303 1.69449 3.31357
0.0154346 3.68827 2.36774
3.52374 0.739859 3.85617
0.367646 2.97875 2.50638
0.124908 -0.90399 4.56307
-0.997852 2.33423 2.871
-0.460314 1.58503 3.23862
0.547677 -0.514365 4.71666
0.665894 3.85067 2.42296
3.30606 0.621443 3.84202
3.40003 -0.776601 4.75236
-0.154369 3.96756 2.2599
2.57499 2.78192 2.83131
-0.566616 -0.557008 4.54495
1.28383 3.45051 2.53363
4.36714 1.17602 3.734
0.662167 1.98903 3.11176
-0.531641 2.11384 2.98419
0.847063 1.36993 3.51981
-0.346061 3.96654 2.21277
0.73525 3.43845 2.39108
2.24486 -1.06517 4.82715
0.44755 2.78604 2.61194
-0.829958 0.418726 3.93099
0.954041 2.12867 3.19712
0.977364 4.20285 2.30391
-0.138542 1.25729 3.50975
0.878 -0.940648 5.01449
0.250011 3.38892 2.41495
-0.590491 0.54759 3.93342
0.579237 2.70582 2.6202
-0.449714 2.80146 2.58087
0.880908 -0.0469983 4.45797
0.843972 2.16302 3.03864
-0.621654 3.96476 2.19239
2.68649 1.38512 3.50874
-0.86006 1.23927 3.35259
2.61399 2.1193 3.14175
0.396091 2.70541 2.5866
1.34346 0.113904 4.33714
2.18529 3.66835 2.61059
-0.554678 3.55585 2.44043
2.45525 2.34807 3.02511
1.96454 4.26223 2.32074
1.96109 3.0921 2.68285
-1.38683 -0.174275 4.07511
1.78315 1.55094 3.41278
-0.505065 4.01716 2.11796
-0.329512 3.59886 2.41429
1.48552 3.02115 2.70897
2.58144 2.27479 3.06119
0.90456 3.68371 2.41472
0.505106 1.47097 3.4235
-0.545508 4.08727 2.10887
1.05709 0.492167 4.14344
0.981001 -0.980467 4.77202
-0.711653 2.64502 2.82592
3.75225 -0.801294 4.26365
-0.790511 3.36803 2.55041
-0.332497 0.613377 4.0227
1.36708 3.9816 2.36487
1.34352 1.03428 3.77324
1.96871 1.94362 3.33449
1.28601 1.21655 3.6452
-0.463479 3.88766 2.24082
0.220359 2.01805 3.09909
-0.645975 -1.38417 4.33367
4.66583 0.179149 4.1801
0.491191 2.62511 2.60001
2.56095 3.62349 2.64907
4.03368 0.300602 4.03264
-0.903929 1.08154 3.47853
3.08244 -1.07155 4.05448
1.77406 2.0362 3.31563
-0.00153578 3.29911 2.4486
0.867952 2.64631 2.72251
0.700425 4.116 2.33891
-1.13364 1.06005 3.41282
1.38394 1.97768 3.21304
-0.0627414 3.89205 2.29809
-1.23746 -0.478525 4.44056
-0.71732 2.55224 2.61162
-0.34568 3.28734 2.4363
-0.9069 0.975988 3.48731
-0.689294 3.772 2.17358
3.27353 1.93016 3.34652
2.09266 -0.354701 4.38017
-0.380864 2.58639 2.76791
2.12045 3.49777 2.67664
0.145132 -0.767028 5.21452
0.877167 2.73425 2.62619
0.581151 3.45263 2.45181
2.46227 2.12011 3.14483
-0.969186 1.23644 3.34132
0.0706629 4.01993 2.27562
-0.346288 3.36429 2.43613
-0.272696 2.70311 2.67632
3.60822 2.10236 3.29418
1.43259 4.09768 2.28739
0.772922 1.22813 3.66724
3.01871 0.0733549 4.07669
0.143045 3.69062 2.3438
0.0871815 -1.35238 4.58926
3.00003 0.194463 4.18141
-0.243317 2.38169 2.90109
-1.44181 -1.29868 4.13733
-0.562742 3.08959 2.56767
0.145992 0.723311 4.01817
2.18968 1.63302 3.3551
2.98667 1.78427 3.24237
1.46592 3.88686 2.43373
1.98625 0.923741 3.82376
-0.351546 3.22983 2.51113
3.78438 -0.21734 4.23652
-0.683628 2.51805 2.81679
-0.858607 1.71474 3.26245
3.24122 0.798059 3.86699
-0.428603 3.753 2.27597
1.66397 3.31091 2.68054
-0.304587 2.47212 2.85933
0.534404 -0.045472 4.57169
1.76122 3.8718 2.47756
1.76412 0.800487 3.8007
1.05843 -0.732538 4.80732
2.00805 1.77913 3.45679
3.18165 0.457334 4.15622
1.74178 2.49031 2.91472
4.2147 -0.945322 4.38231
-0.951392 0.684346 3.76033
1.44704 3.25187 2.62849
2.10655 1.65273 3.40143
-0.184929 3.77007 2.34526
-0.883469 0.596112 3.85926
-0.413772 2.35135 2.85922
2.49506 -0.870137 4.77986
2.58125 3.29542 2.77246
1.19214 3.27928 2.49933
3.0335 -1.23546 4.74403
2.25137 2.64062 2.85756
3.1978 0.3136 4.09354
0.911102 1.8582 3.17503
3.85708 0.890121 3.37059
0.813375 3.24872 2.53957
1.71448 3.98347 2.43706
1.16488 2.56449 2.89552
2.41139 1.81465 3.28955
-0.729423 0.911296 3.67227
1.62095 3.99735 2.37885
1.20256 -0.363885 4.70305
-0.764073 3.5215 2.41409
1.20998 4.18903 2.27328
2.5178 2.96934 2.77158
3.3116 -0.215926 4.19478
2.27384 1.41074 3.55753
0.408665 2.17316 3.04505
-0.643798 3.9218 2.06484
0.518419 1.55084 3.38352
1.57537 3.79722 2.5699
-0.0506735 -0.647082 4.58786
1.90564 3.15243 2.73453
0.681726 2.2494 2.87371
2.35257 2.28091 3.06706
1.32898 4.27652 2.21678
0.255654 1.51402 3.51897
-0.481488 2.9181 2.59873
0.172743 3.64175 2.37856
3.37773 -0.501597 4.10708
-0.752273 1.42822 3.29219
1.49245 4.18129 2.27405
1.26205 2.27184 3.0449
1.26114 3.60852 2.49111
1.66423 3.05578 2.74626
2.16926 2.22989 3.16017
0.984115 3.68045 2.48504
-0.0856286 1.42486 3.53729
-0.657982 3.56565 1.87756
0.932808 0.232205 4.34436
4.06783 -1.50857 4.5702
0.884013 2.81907 2.61767
1.28984 3.12273 2.61363
-0.513898 -0.0343287 4.32046
-0.468086 2.37429 2.88637
1.24963 4.28259 2.22019
1.9859 1.64803 3.38712
0.145759 3.62869 2.37074
3.03167 0.655908 3.8613
2.21052 3.10566 2.70321
0.00805502 2.28329 2.91341
3.45173 0.0631661 4.18208
2.05097 -1.34573 4.52952
2.95114 1.50672 3.35681
-0.707109 2.67982 2.64446
0.937832 3.73554 2.38393
0.92946 3.41248 2.48734
-0.766621 1.14607 3.38249
1.78727 -0.879907 4.92956
-1.25475 0.597375 3.84566
2.28726 2.04384 3.18483
1.90885 4.08561 2.37928
1.8052 2.75672 2.85573
1.39585 -0.65899 4.46262
1.54945 3.44688 2.5732
3.56126 1.08768 3.67157
1.79492 4.09158 2.33364
-0.831743 1.91648 3.07796
0.731542 2.07013 3.04445
4.2874 1.30808 3.69275
2.19465 0.317589 4.00719
0.47074 3.51741 2.49576
-1.03684 -1.0584 4.195
0.311454 2.70056 2.58724
-0.686435 3.87166 2.14636
-1.14492 -0.892706 4.27282
-1.08886 0.491602 4.04491
0.468039 2.97183 2.55359
0.176397 2.23414 2.84046
2.84406 -1.44143 4.45732
1.07945 4.30483 2.28735
-0.341156 1.5665 3.36534
-0.172523 0.258405 4.26404
-0.199331 2.93692 2.60221
2.07255 3.77093 2.54935
3.8355 -1.19018 4.61407
0.710355 2.2018 2.9296
-0.531388 0.37751 4.25063
2.26275 1.43275 3.37282
-0.357247 3.70797 2.41256
0.261024 4.14914 2.13657
0.974664 -0.0359751 4.46864
0.341043 3.73208 2.36811
1.01249 -1.65913 4.80918
2.14867 2.42499 2.97226
2.71682 3.25756 2.73085
3.16525 0.643028 3.75598
2.93124 0.0864339 3.86601
0.102754 1.61496 3.26523
-1.8042 3.13168 4.81892
2.05117 -0.667407 4.60493
-0.99238 1.15645 3.38393
2.57745 4.32092 2.52248
1.44648 3.48518 2.53226
1.18656 2.7561 2.74152
0.825912 1.94322 3.13188
1.06749 1.10817 3.62131
3.25936 -0.532146 4.47741
1.68312 4.09698 2.33171
2.08035 3.58335 2.67929
-0.36744 2.6539 2.71696
1.66277 1.43519 3.57
-1.04542 0.463553 3.6746
2.50778 2.19461 3.09144
0.114369 -1.00263 4.97124
2.17937 2.96604 2.75226
1.72675 4.16392 2.3201
-0.288749 0.617821 3.9957
0.231413 1.33979 3.63619
1.46146 -0.822861 4.6573
2.20523 2.15832 3.17608
1.50019 3.64117 2.51124
-0.738028 2.79526 2.66663
0.717099 4.26335 2.3082
-0.0849179 3.36165 2.36923
-0.308534 3.44497 2.42747
2.38169 2.88838 2.78698
0.0885082 2.09005 3.03957
3.26947 -0.193005 4.08338
1.8217 1.28103 3.54312
1.49518 4.09074 2.32798
0.228359 3.37669 2.44911
0.754613 2.70177 2.67962
3.78659 2.12836 3.31881
1.28413 4.16256 2.31703
-0.0336425 -0.0262456 4.37514
3.59069 1.17732 3.60553
0.51141 2.8982 2.57942
1.96286 1.49942 3.5297
0.472468 3.61443 2.49208
0.0126356 2.19149 2.91067
0.246785 4.05599 2.19041
1.2666 2.87194 2.65971
