ply
format ascii 1.0
element vertex 1912
property float x
property float y
property float z
end_header
1.81256 0.732012 3.84566
1.92547 3.23981 2.76972
-0.716343 2.04317 3.04455
1.03698 2.05411 3.14315
-1.22772 -0.21018 4.15363
-0.11088 3.29601 2.53786
0.334135 -1.04216 -0.986786
1.88814 0.265769 4.23674
0.715642 1.95518 3.05287
-0.927866 4.03889 2.18616
0.608074 3.21798 2.57978
2.7845 0.428483 4.04726
1.3039 2.14004 3.06492
3.0048 -0.0924366 3.91011
4.15227 -0.456878 4.05475
-0.465072 3.41273 2.49238
-0.905358 0.704005 3.00461
1.67242 2.04838 3.13792
2.61924 0.10514 3.97055
-1.26749 4.12712 2.15746
0.629074 3.35779 2.57226
-0.566746 0.688841 3.06794
-0.329973 1.24352 3.29386
1.10802 -1.56204 4.49768
2.09301 -0.205104 4.33418
1.50192 2.24972 3.02964
0.544712 3.43004 2.51027
-0.380849 0.648249 3.20496
-0.0396459 -1.28371 4.07659
0.0282484 2.26728 2.91995
-0.105518 3.48482 2.44309
-0.989663 3.07862 2.05142
2.22569 3.7342 2.72545
0.357579 1.03605 4.1651
1.93526 2.25246 3.00062
0.136183 0.0857738 3.49746
-0.846509 3.68015 2.44691
0.432258 1.07834 3.89146
4.01346 2.53541 3.25473
2.50032 4.35539 2.67508
1.4893 3.80103 2.6081
-0.0798581 -0.36584 3.15876
0.080503 2.35956 2.74203
-1.09759 0.744537 3.25241
3.87878 0.820505 3.49899
0.797363 3.94193 2.6032
2.09394 2.56282 2.92769
-0.767338 0.898906 3.29701
0.28744 1.23781 3.86742
1.58622 3.98487 2.61163
0.21534 2.47304 2.68478
-0.9906 -0.239201 3.25907
1.57063 2.72654 2.84968
0.967448 0.79946 4.04406
-0.56262 -0.971166 3.2332
3.47996 1.03361 3.4218
-0.498713 3.76815 2.30877
0.0312385 -0.151828 3.28365
1.04968 2.62967 2.78417
4.33366 0.948392 3.59182
2.53204 4.17683 2.69964
-0.913962 3.33222 2.45706
3.1084 1.89318 3.18645
-1.62162 -1.19739 4.22466
2.71586 0.623907 3.65029
1.55102 4.70922 2.47677
0.559175 3.31077 2.5994
2.35531 1.9783 3.2837
-0.487735 0.345623 3.21336
-0.136277 4.36831 2.19912
-0.606969 -0.078334 3.02434
-0.710958 3.35149 2.42392
1.54719 0.645528 4.1926
0.780579 2.11346 2.95218
1.57904 2.23394 3.02387
0.752526 -1.18128 -0.595774
1.02484 3.53791 2.63248
0.114436 0.370047 4.23356
0.616129 0.204938 3.56385
0.569292 -2.04034 4.4224
1.51432 2.1897 3.06899
-0.861206 0.433317 3.90192
0.702002 3.56012 2.57215
-0.914218 0.596735 2.98714
4.12089 0.0897874 3.76126
1.81074 0.12003 4.3232
1.11009 0.872251 3.93734
1.94929 3.70289 2.68986
-0.29387 -2.33864 2.80314
3.84806 -1.55661 4.06401
1.5345 2.37917 2.98785
2.39569 0.239723 4.16688
0.722824 3.67223 2.53417
-0.731336 0.673339 3.02739
-0.552502 2.37956 2.80772
3.03902 -0.679567 3.86539
0.827577 2.46543 2.77721
3.85913 2.76332 2.9504
1.68881 -1.29417 4.4376
1.72696 1.07345 3.56779
-0.685176 3.65023 2.37244
-0.0977663 2.43628 2.72154
-0.929211 0.271227 3.22454
1.96913 -1.03802 4.43791
3.44366 0.705553 3.57855
0.743576 3.95132 2.614
2.03838 2.66394 2.94214
-0.599676 0.47828 3.32808
3.35341 1.04676 3.60603
1.40593 3.90616 2.55722
0.0109769 0.969773 3.66657
0.408213 2.43145 2.60982
0.302105 1.26866 3.81886
1.01781 4.02643 2.56733
4.81 1.21352 3.86526
1.83753 2.71201 2.87499
0.705612 4.11868 2.5721
0.283097 0.282825 3.52691
2.31561 1.46776 3.5025
2.5519 4.07896 2.52554
1.10921 2.81956 2.73301
0.804789 1.22748 3.60978
-0.62858 1.55693 3.18007
-0.706532 3.87838 2.21871
-0.870793 2.76853 2.5656
-1.32186 0.653989 3.23863
2.18647 2.37312 2.93378
4.46819 0.914778 3.50296
0.0713715 1.24491 3.81275
-0.878312 3.62453 2.40672
-1.06597 2.35161 2.66085
3.20017 -1.23076 4.02039
0.698015 2.30354 2.76212
0.495016 3.77899 2.5437
3.69824 0.565174 3.60882
-0.864298 0.537405 3.21084
-1.03736 3.69607 2.32277
0.00657792 2.46236 2.66396
-0.400125 1.24636 3.60895
0.938926 0.991754 3.57201
1.83055 1.28476 3.58426
0.240101 3.90756 2.49737
-0.19987 2.55149 2.56748
-0.27622 0.902362 3.55086
1.38398 3.9648 2.54475
3.35942 0.939199 3.5844
-0.554615 -0.618547 3.26261
1.49949 2.63051 2.93555
1.76562 3.98564 2.53394
0.879363 2.73131 2.69269
3.99038 1.09243 3.36986
0.277938 -0.29546 3.27621
0.677472 1.54534 3.53584
0.129799 -0.64496 3.2296
-0.41992 2.68264 2.58759
0.0515555 4.02352 2.41182
0.166978 -2.39824 3.22871
1.89595 2.94459 2.83793
0.46904 1.71819 3.3206
3.42276 -0.386398 4.33231
1.552 4.05622 2.44186
-0.303066 2.8447 2.61379
-1.05482 -1.94747 3.10916
1.37137 1.63248 3.513
-0.809228 -0.0521876 4.12175
-0.329613 4.04247 2.30431
4.69966 1.44103 3.39077
1.83273 -0.566282 4.73412
1.68632 4.16317 2.4135
-0.851582 2.90309 2.46673
2.09594 -0.421164 4.50887
0.731586 1.74312 3.25777
1.9832 -0.78913 4.97869
2.43929 1.66449 3.27004
0.423943 -1.37302 4.64556
-0.810858 2.99612 2.41166
-1.664 3.01886 2.48955
2.16031 1.63772 3.32526
-0.55262 -0.577702 4.24187
-0.80853 3.05393 2.52522
-0.983554 0.372287 3.0483
0.39591 -1.14422 4.79838
-0.190794 1.96385 2.92839
1.10857 4.44296 2.43762
0.164677 3.18782 2.53343
4.81499 -0.676409 3.40701
2.37043 -0.907417 4.61372
1.56267 1.8788 3.23293
3.97517 -0.626735 4.12203
0.335896 -1.04217 -0.98536
0.365998 3.10756 2.52963
-0.122134 3.7723 2.43994
-0.154 2.57836 2.69593
3.45369 2.27077 3.15859
4.16833 0.870195 3.61455
-0.822285 -0.910058 3.99847
3.78005 0.742611 3.58136
-0.894504 -0.7268 3.22889
1.9659 2.5203 2.98566
3.107 -0.908704 4.41145
1.12822 3.90375 2.5518
3.9242 -1.38511 4.37746
3.42353 2.60561 2.93728
-0.520419 -0.167209 3.2431
-0.645098 1.47191 3.31752
1.43409 3.99634 2.57503
3.45134 2.52228 2.90816
-1.32765 4.02053 2.30445
-0.816492 3.74484 2.22961
-0.466831 1.41762 3.50368
0.463658 -0.510675 3.26535
-0.442057 3.9742 2.35499
2.53895 2.71972 2.86597
1.09412 1.49077 3.39635
0.798003 4.20555 2.51111
-0.304832 1.80088 3.29435
0.314031 -2.39704 3.22936
-0.0533599 2.79748 2.50706
-0.612267 4.12226 2.32105
3.4651 1.21834 3.37205
-0.378905 -1.54234 3.15191
-0.475671 2.78836 2.54597
-0.0962984 4.1249 2.31253
1.63912 1.68734 3.28237
-0.191132 2.9118 2.45721
-0.796102 1.24385 3.287
3.63113 1.48257 3.50373
2.85925 4.70059 2.74004
-0.828616 0.281069 4.15001
0.795429 2.93564 2.64358
4.26711 1.41673 3.39953
-0.815551 3.06569 2.41507
-0.865124 -0.318322 3.34727
1.26883 -0.00197178 4.56947
3.25608 1.63394 3.22142
1.08496 4.51774 2.44014
0.71153 3.10151 2.61834
2.34115 0.0223223 4.12917
3.28491 1.58829 3.34418
4.03535 2.11999 3.0494
1.93525 4.40863 2.49019
2.01278 -0.429421 4.57676
0.0802459 -2.14759 1.94251
-0.489709 0.846382 3.16683
3.49571 -0.792019 4.1975
-1.25007 -0.283811 4.11158
1.2163 3.33334 2.74035
0.766157 -1.96207 2.02928
-0.580853 2.04728 2.9953
0.40084 2.0606 2.95346
2.14734 4.15491 2.60769
-0.473716 3.30029 2.46865
-0.274332 -0.8558 4.99935
1.34773 2.00443 3.14767
0.421439 -0.674714 4.7872
-0.773424 3.25989 2.46213
4.21751 -0.385024 3.93614
-0.498585 -1.53673 3.15096
0.947733 2.96637 2.68155
0.819677 1.72355 3.26092
3.63276 -0.187048 3.87932
1.30746 4.1367 2.43988
4.08546 1.33335 3.49804
-0.55252 1.09021 3.40712
0.895098 4.22413 2.42174
3.82731 -0.066898 4.00549
0.261789 2.82461 2.55621
-0.671121 3.05566 2.46842
-0.688315 1.55224 3.187
-0.222417 4.52902 2.19145
2.96144 1.56233 3.23
1.68387 3.18887 2.874
3.97579 1.88896 3.29397
2.70386 -0.292573 4.3019
1.8878 1.70023 3.34448
1.35824 4.52193 2.45713
0.668887 1.92769 3.13779
1.65549 -1.93413 2.45849
-0.397812 -0.628777 4.57342
2.13753 3.31998 2.85386
1.98383 4.22485 2.50455
-0.535532 -0.385799 4.68657
4.51425 0.808113 3.41292
3.69036 -0.847089 4.23572
3.31959 1.78512 3.10729
2.88038 -0.998979 5.09979
0.03039 -2.26785 2.00034
-0.980858 3.29417 2.48074
0.473715 2.01264 3.11553
3.55788 -0.787133 4.39101
2.27093 3.30428 2.78884
4.03671 -0.804258 4.07795
1.2819 3.4983 2.68325
1.6324 2.11368 3.11149
0.722398 4.72451 2.38081
-0.99488 1.21788 2.98568
1.85291 2.10215 3.24813
-1.02324 4.3586 2.15714
1.70279 3.47982 2.76667
-0.517313 0.510951 3.07023
1.7682 0.828042 3.84649
4.02987 0.272475 3.73336
3.18537 -2.33306 3.60063
0.363776 2.30327 2.92312
-0.0827698 3.42345 2.46818
0.363446 4.39164 2.38818
-0.489871 -0.0179177 3.02361
0.274906 2.24204 2.95583
-0.847505 3.49613 2.42171
-1.26077 0.421049 3.83797
-0.378675 4.33206 2.27182
1.1761 0.902447 3.59898
1.7488 3.71352 2.68896
2.41962 2.24739 3.05477
-0.819762 -1.51499 2.87491
3.53916 0.463546 3.90464
-0.634014 0.903012 3.63934
-0.493927 2.3954 2.64045
0.3933 3.7036 2.53091
-1.13873 3.60757 2.41078
0.214556 0.251436 4.38448
-0.716903 3.64066 2.36793
4.03764 0.12901 3.96014
-0.136931 0.873787 3.85665
0.126396 0.824386 3.40631
-1.10019 2.05732 2.63959
-0.0438278 2.37408 2.76398
1.77485 -1.59227 4.66164
1.71554 0.391239 4.31625
2.21158 1.79122 3.43456
-0.34312 1.47846 3.32323
-0.5908 3.12266 2.53591
1.22495 1.82505 3.39593
0.892901 4.64954 2.37528
0.89247 3.04361 2.67668
-0.862761 -0.168471 3.32248
3.44022 -0.0539105 4.19847
0.541782 3.24484 2.60055
1.48619 4.34364 2.45083
3.53881 1.76364 3.3398
4.59 0.792605 3.39048
0.355104 -1.04628 -0.96534
3.66978 0.0550561 3.76597
2.82804 1.71464 3.26676
4.26979 -0.595775 4.14116
3.03118 3.45203 3.04638
-0.249573 0.692032 3.23477
-1.06184 3.38678 2.5099
1.6106 4.61499 2.47152
3.43355 -0.393152 3.97964
1.11167 -0.0463317 4.51885
-0.679085 2.1536 2.90749
2.18185 3.37878 2.79216
1.00101 2.06135 3.16962
4.06525 -0.255898 4.00628
-0.443235 -0.124616 3.04164
2.43414 -0.617122 4.38154
0.942666 3.42631 2.61739
1.19271 -0.372361 4.66435
3.92763 1.94044 3.11271
4.1007 0.40914 3.7629
0.239822 -1.93829 1.80992
-0.289623 2.24582 2.78638
-0.626412 3.51036 2.50572
3.90166 0.0247927 3.84957
-1.05938 3.54367 2.4583
-0.0804316 2.23674 2.89572
0.6586 1.14166 3.58225
0.125538 -0.840635 3.24705
0.398664 4.6632 2.35638
-0.0202081 0.0813101 3.44057
-0.565303 3.57604 2.44269
-0.779258 2.3967 2.70961
2.59251 5.23331 2.68954
3.78815 0.577981 3.72203
-1.35372 2.40341 2.83011
4.04956 1.4586 3.37455
0.582227 2.2712 2.82652
0.143391 3.65394 2.48345
-0.127925 2.50771 2.71568
4.49609 0.541853 3.51664
2.60737 0.9225 3.55752
-0.129557 0.759066 3.92869
-0.0463049 3.67793 2.43948
3.50786 2.26605 3.15365
1.31523 2.41873 2.88122
1.81097 3.88076 2.6358
2.64656 0.822067 3.56779
-0.714549 -0.427302 3.26077
-0.435956 3.77318 2.3669
1.64957 0.460745 4.08158
1.78843 2.57088 2.91731
-0.264641 0.618877 4.14987
3.57062 0.932477 3.67
-0.149514 -0.215068 3.17483
1.30641 2.21845 3.09207
-1.05333 4.19909 2.20545
-1.17826 0.182404 2.82866
-0.878257 3.39269 2.3941
-0.361368 2.13726 2.81719
3.93114 -0.277644 3.91859
2.08851 3.50131 2.75265
3.38205 -2.43914 3.62325
-0.714289 0.802938 3.08239
0.33938 4.61496 2.33961
0.811582 2.26827 2.85765
1.99132 3.65925 2.73757
-1.14935 0.690512 2.83853
-0.140854 4.18729 2.16472
-0.614566 2.27435 2.75777
1.29845 3.69717 2.64768
2.72129 0.561834 4.08294
1.68673 2.40241 2.91488
-1.41382 2.75137 2.71867
1.81121 3.76573 2.6633
4.41016 0.699697 3.73689
0.571699 0.860302 4.15296
0.915341 2.29211 2.78836
-1.0303 4.31921 2.17855
0.996183 0.881403 3.96012
1.84021 3.85429 2.6734
3.2784 0.90307 3.7588
1.0304 0.669136 3.56209
2.19276 2.45882 2.94901
1.25103 0.419499 4.19743
0.0843817 3.79028 2.45896
0.949946 0.895692 3.56728
4.1357 0.231987 3.98208
-0.938322 0.57112 3.24053
3.06299 0.992826 3.44784
0.312095 4.12814 2.47919
2.44362 2.59791 2.91032
-0.407367 0.929374 3.4725
0.560154 4.00459 2.53171
2.01947 1.20943 3.68327
-0.681655 -0.740132 3.2423
-0.65316 2.62514 2.69469
2.37981 -0.758439 4.48183
0.328533 0.553367 3.6314
4.09674 -1.16048 4.44936
1.10664 2.74743 2.74366
0.567625 1.66173 3.55738
2.19026 4.20094 2.71785
2.82404 -0.976437 4.82813
0.215727 1.62037 3.59828
0.367913 1.16409 3.69759
-0.522474 2.69957 2.61171
0.951898 4.17174 2.5554
-0.716166 -2.24369 3.13916
-0.564075 2.87374 2.53851
3.84732 1.26389 3.37908
-0.466464 3.9882 2.31118
-0.826643 2.66682 2.44693
-0.962536 -1.31885 4.42154
-0.328707 -2.11827 3.10887
2.73874 1.3007 3.34141
-0.220423 3.98359 2.28319
3.72209 1.48981 3.55371
0.304919 2.8888 2.5569
-0.326257 4.0439 2.22812
-0.908917 0.33699 3.19677
-1.17578 0.0462107 3.83854
2.6452 1.46966 3.30233
-0.464178 3.02004 2.61791
-0.584818 4.05054 2.20416
4.90899 0.00192615 4.55624
-0.44538 1.05438 3.42067
2.66969 4.68952 2.75198
-0.0793037 1.87703 3.08761
-0.615296 3.06533 2.4924
3.82494 -0.424351 4.08409
0.211381 -0.0481847 4.32509
-0.176065 1.87011 3.17088
0.702423 4.53336 2.45123
-0.414037 1.2832 3.27808
1.85013 3.10806 2.81785
-1.01076 0.727846 3.25317
-0.502106 3.12909 2.42887
3.56159 2.01658 3.16414
2.12315 1.91875 3.31347
0.658998 -0.726135 4.9756
2.81789 2.08011 3.09242
0.42828 3.0446 2.49181
-1.54894 0.468347 3.0521
-0.17475 1.0713 3.3189
0.130103 1.94205 3.06898
3.22634 -1.02149 4.20957
1.09681 -2.07699 2.12509
0.951145 -0.448172 4.94623
0.0185958 3.28151 2.4898
1.27244 2.03154 3.09131
-1.52544 -0.162239 4.08863
0.144935 3.25103 2.53519
3.25626 -1.63224 4.29848
0.446914 -0.783656 4.64511
1.87574 1.98064 3.2333
-0.551994 2.1323 2.81145
0.550395 1.25605 3.5939
-0.728837 3.30816 2.40191
4.20424 1.28056 3.43871
2.86103 3.21977 2.89601
-1.08225 0.999731 2.9167
2.91899 2.0786 3.05488
-0.234674 3.34649 2.40535
-0.0431058 0.742416 3.95157
3.8767 -0.287511 3.89033
-0.773761 2.19565 2.77528
0.310008 3.47991 2.50031
3.95437 0.188346 3.71972
1.66845 3.72308 2.70505
0.85573 2.31567 2.82685
-1.19352 0.324739 3.8947
-1.46747 4.01478 2.29015
2.28366 0.881932 3.85456
3.28198 -0.298637 4.07348
-0.625194 2.38816 2.82036
1.07885 3.70754 2.58394
2.83516 0.609699 3.94856
1.56125 2.47795 2.91224
0.173247 -0.403406 3.36455
-1.34267 -0.10904 3.25562
2.51527 0.955617 3.62747
2.90254 3.84454 2.67337
-0.947567 0.370832 2.96092
-0.570089 1.1037 3.50301
1.03199 1.04154 3.59222
0.425647 2.42349 2.76976
-1.15539 0.253087 3.94247
-0.6235 3.64366 2.32594
-0.494784 0.92709 3.77135
-1.8042 3.13168 4.81892
2.13337 4.80745 2.58372
1.35965 3.39958 2.68818
-0.222343 0.430915 3.37822
4.13235 0.117013 3.81776
0.833456 2.02083 3.07074
-0.752263 0.802195 3.04119
2.04921 3.44178 2.83095
-0.999772 0.582788 3.65984
2.62118 2.04985 3.0836
-1.48489 1.67911 2.86749
-1.01668 4.22896 2.20372
-0.242634 0.712579 3.98057
1.40096 3.55026 2.67714
-0.889377 0.197902 1.75841
2.27897 2.06224 3.1622
-1.4102 0.45563 3.32439
-0.281041 3.27114 2.41048
0.155261 2.25705 2.76244
-1.51192 2.01955 3.10971
2.03212 3.63408 2.72642
-0.155009 0.282007 4.25785
-0.503154 4.35647 2.25867
-0.619927 3.59496 2.45616
0.697992 2.2109 2.87245
-0.514648 0.403324 4.2445
1.01812 1.1241 3.57299
-1.30341 3.10071 2.52542
1.08538 0.121891 4.43235
0.109536 3.64932 2.47997
0.0568681 0.922585 3.39933
2.21802 2.29468 2.9891
3.35609 0.57792 3.64245
3.13908 0.0946446 3.75068
3.49 -2.4266 3.61923
2.54611 -1.08363 4.29938
-1.03385 3.64786 2.36151
1.47314 1.20742 3.74315
1.21195 2.54836 2.92965
3.73666 -0.873805 4.00673
-1.05505 2.20912 2.53779
2.5257 0.900406 3.69707
1.51314 3.84219 2.59438
0.996599 2.42749 2.85502
-0.884876 0.925058 3.2234
0.880272 1.46164 3.6451
-0.565169 3.73718 2.35314
1.38437 2.59435 2.80237
-0.935381 0.0323258 3.27044
1.09124 1.33587 3.64982
1.65884 3.94132 2.55262
3.62138 -1.4323 4.25789
-0.158444 0.860071 3.58492
0.174909 2.45375 2.6101
0.339678 0.221469 3.51598
0.370333 0.933032 3.70477
2.46336 2.73855 2.88517
1.93331 1.35921 3.45831
1.356 3.99472 2.52185
0.183945 0.766053 3.61701
0.695484 2.63786 2.67974
1.10146 4.07007 2.50525
3.87532 0.997475 3.51155
-1.34477 0.682691 3.26153
0.41826 2.8389 2.60491
2.05225 1.531 3.44381
-0.0457512 3.9627 2.32838
1.22614 2.80553 2.73656
-0.456904 -1.33641 3.17072
1.03498 1.59042 3.38644
0.36661 4.14504 2.40708
-1.4321 0.650953 3.33097
-0.584118 -0.649126 2.95519
-0.986871 3.41208 2.42491
0.0309995 0.693767 3.36976
0.39258 2.24016 2.97965
1.45731 3.68624 2.73077
-0.74135 4.18397 2.10399
0.664924 2.26816 2.84304
2.44447 2.158 3.0768
-0.0567117 3.55433 2.46248
-0.609743 0.771907 3.07742
-1.19383 3.77677 2.34329
1.67459 3.75651 2.65697
1.88933 0.961893 3.63244
3.39448 0.483347 4.0032
1.76821 2.39417 2.94455
-0.269866 -1.41557 3.86212
-0.906964 0.796434 3.74347
-0.449743 3.65924 2.40723
-0.833821 0.716477 3.84346
-0.456601 2.40019 2.75664
-1.07352 2.25446 2.52582
1.02332 0.820147 3.58641
2.32943 2.49139 2.91194
3.46152 0.349969 3.92136
-1.06441 2.70677 2.6623
3.99205 0.732437 3.21451
1.61855 3.86386 2.62446
-0.93486 0.112597 2.91706
1.1358 2.51068 2.89881
3.50213 3.30635 2.7913
-0.692139 1.00822 3.65589
1.51175 3.88887 2.56634
-0.786866 2.66333 2.55306
-0.725058 -0.872159 3.22721
-0.701154 1.43003 3.32178
1.88543 -0.823755 4.88732
1.83699 3.96303 2.57758
1.81585 2.64885 2.9218
1.52224 -0.566451 4.42068
0.26257 0.338069 3.46031
3.82878 0.927013 3.54822
1.71197 3.97562 2.54076
4.41292 1.14471 3.66277
-0.984381 -0.992697 4.18879
0.238073 2.6448 2.57537
-0.979578 3.74358 2.19852
-1.32433 3.92138 2.30759
-1.14492 -0.892706 4.27282
-0.680358 1.75442 3.18116
1.34776 4.08472 2.47111
1.63255 2.94859 2.83697
-0.7134 -1.8573 3.14239
-0.0339615 1.77862 3.45943
-0.657982 3.56565 1.87756
4.13689 -1.4834 4.54219
0.820568 2.76107 2.67153
-1.0074 -1.84573 3.11622
1.2273 3.04449 2.71898
-0.225899 1.04395 3.53183
1.05668 4.19054 2.41184
2.08095 1.64695 3.33246
2.25405 2.95376 2.81322
-0.760779 1.30502 3.21159
2.18898 -1.28267 4.48059
3.14493 1.35684 3.27677
0.981001 -0.980467 4.77202
-0.777029 2.66663 2.73303
3.82027 -0.839149 4.22432
1.22112 3.89545 2.55047
1.44183 1.27594 3.66014
-0.994934 -0.0888202 3.25433
1.36061 1.39309 3.50265
-0.747663 3.76373 2.29558
-0.645975 -1.38417 4.33367
0.433144 2.5645 2.58709
-0.256603 0.643989 3.47151
0.442465 4.02612 2.49948
-0.839824 1.3956 3.44099
3.12757 -1.07475 4.028
0.82446 2.57703 2.72548
-1.26082 4.08731 2.27552
-0.553711 2.76599 2.52598
-0.915381 3.83834 2.2537
2.87328 1.33752 3.45351
-0.79847 1.51481 3.28184
-0.594595 -0.0176774 3.30618
-1.16731 -1.67561 3.16053
0.323408 2.64438 2.56996
1.88645 4.13496 2.53002
-1.02769 -1.51943 3.14663
1.97806 2.96973 2.79862
1.86445 1.5778 3.32064
-0.765583 3.9213 2.16118
1.44225 2.92307 2.78792
2.56984 -1.28834 3.81657
0.555027 1.65983 3.29214
-0.780653 4.001 2.16119
3.29723 0.143385 3.88799
-0.555048 1.5923 3.22542
0.191186 -1.25037 4.58012
3.25145 0.297344 3.99908
-0.709955 3.02376 2.53274
2.30859 1.60236 3.3055
3.1878 1.61816 3.20232
1.0958 4.35797 2.43067
-0.519938 3.13549 2.49493
3.87711 -0.279654 4.18187
-1.19421 0.988142 3.04218
-0.817541 2.01999 3.17618
1.98919 4.15889 2.51357
1.61478 3.19446 2.80634
4.55544 1.39678 3.33203
0.625966 0.0942493 4.55056
1.40218 1.97512 3.13973
1.41348 4.41496 2.45633
-1.17038 -0.378236 4.43223
-0.772966 0.659721 2.94566
-0.527085 3.18644 2.42494
4.95529 -0.106187 3.45202
3.46667 1.74292 3.31058
4.79218 0.302222 3.935
2.26315 -0.259667 4.29989
2.10685 3.35316 2.82477
0.145132 -0.767028 5.21452
3.67306 2.30473 3.00518
0.413186 3.37989 2.54745
2.58742 2.02027 3.16748
1.36782 4.65202 2.46591
-0.234939 -2.15888 1.56494
4.03187 0.062166 3.74885
-0.544395 3.25996 2.43948
3.79762 1.90224 3.29108
-0.429375 2.72148 2.58331
3.8073 -1.76534 3.83907
-0.621649 -0.669278 4.5519
2.06406 1.29876 3.41675
-0.811072 3.78985 2.26156
-0.565013 2.65676 2.58654
0.608318 0.843553 3.68944
0.276919 1.62809 3.66151
-0.37195 -0.417868 4.42144
0.13716 4.00883 2.43096
-0.949409 -2.03942 3.136
0.826232 -1.03756 4.93135
-0.0543271 2.66223 2.49393
0.201229 4.10855 2.4462
3.52704 1.17637 3.3345
4.44439 -0.862917 4.50883
-0.944484 -1.01536 4.10844
0.503718 4.1855 2.44251
0.0865919 1.78637 3.2627
-0.907047 -1.96861 3.10591
0.402616 2.92436 2.61718
0.328639 4.18891 2.38718
2.59483 1.43976 3.42148
1.37482 2.93216 2.81203
4.1724 1.78015 3.38048
0.129102 -1.22974 4.55979
3.01451 1.4959 3.16889
-0.211834 3.04396 2.51265
-1.30611 -1.38844 4.23023
-0.872445 1.54011 3.15449
0.468376 1.75697 3.149
1.79459 4.51809 2.48354
-0.986661 0.109614 3.02883
-0.0817451 2.96016 2.53148
5.09548 0.443419 3.35129
-0.105345 3.17259 2.51089
0.891078 4.3871 2.43394
1.37764 1.95756 3.23987
-1.1868 0.39621 3.86214
-0.674337 3.10656 2.46657
4.91921 0.443609 3.37353
3.09645 1.63803 3.2494
0.297944 -2.02317 1.86064
1.00272 0.641584 4.14153
1.25222 4.47484 2.44185
2.77048 0.122688 3.79327
3.45759 3.22724 2.85585
1.64859 3.36302 2.74829
0.540364 0.351472 4.35451
2.24145 1.90967 3.20752
-0.4125 2.14189 2.84723
3.26078 -1.64541 4.34986
0.152267 0.0653562 4.3374
-0.847075 -0.495264 2.96992
0.896051 3.48128 2.66166
0.181649 -2.38113 2.99176
1.10456 2.11317 3.16068
-0.0529669 3.28241 2.49306
2.17959 5.07631 2.40738
1.37215 -0.249667 4.49763
2.10906 3.59159 2.76905
-0.416356 2.1599 2.67687
-0.581679 0.892244 3.08961
-1.33837 0.139386 3.31024
4.67108 -0.263031 4.37463
0.603007 3.53758 2.56995
-0.942433 2.3348 2.90469
-1.13306 1.53624 2.94569
0.836872 -1.31294 4.31238
0.0012544 3.10533 2.50791
-1.06363 1.30449 3.17063
2.605 0.347992 3.89979
2.22093 1.73966 3.20178
2.09301 4.06991 2.64624
2.88661 0.435905 3.90127
1.09505 3.11617 2.68276
4.20676 1.94066 3.10192
0.7285 1.86626 3.22795
1.94484 4.33399 2.50946
3.63806 1.68274 3.18942
-0.715148 0.100243 4.2985
-0.190655 3.14324 2.46762
1.84904 4.3557 2.47242
4.76311 1.3622 3.3507
0.908876 0.216505 4.51127
-1.16222 2.2107 2.97379
1.77167 2.08 3.23137
-0.250265 1.47349 3.33094
0.726704 3.38343 2.629
2.89313 1.78996 3.14482
-0.405205 1.29609 3.27556
0.684329 4.62324 2.37506
3.32636 -0.254722 4.27087
1.42122 3.36216 2.72122
-1.03244 1.38863 2.95438
1.05648 -0.413383 4.81192
0.706119 2.19203 2.97723
4.03079 0.185383 3.79118
-0.0004712 2.1011 2.86057
1.15045 -0.232308 4.6054
4.23746 -0.369411 3.82454
0.611374 -2.03447 2.03899
-0.040879 3.36378 2.49915
0.903913 3.52233 2.62805
-0.72722 2.37022 2.79484
0.654349 -1.0927 4.30459
0.437568 0.342761 3.43122
-0.901964 3.49693 2.43552
2.7966 -1.56247 4.276
0.62177 2.18053 2.83356
-1.01505 3.5928 2.43781
0.396306 1.04171 3.56223
2.08179 2.32173 3.01267
0.551592 3.67436 2.52804
0.506005 1.24498 3.59326
1.69129 0.942043 3.81925
-1.35615 2.77003 2.64971
1.91255 1.04829 3.60844
1.54874 3.78539 2.62341
0.602767 2.38365 2.68909
-1.16123 -1.81091 3.40911
-0.239912 3.7408 2.42876
3.62314 0.615015 3.61149
-0.800568 1.22559 3.29953
1.48954 2.42815 2.93997
3.90147 0.307474 3.81803
0.159175 3.96947 2.555
1.5336 2.64379 2.88131
-1.06394 0.449652 3.22127
0.797606 1.41202 3.56434
3.79359 0.768429 3.42161
-0.857935 -1.11843 2.89424
1.70649 0.794127 4.11962
2.63641 2.50187 2.9559
0.0125937 0.85872 3.64519
-0.793487 3.74005 2.28645
2.46702 3.36931 2.81436
3.3368 2.06826 3.18706
1.39992 0.577434 4.04742
-0.720968 2.08398 2.93693
4.24936 1.45484 3.4111
-0.429113 0.434157 3.28532
1.41971 1.89375 3.1787
-1.53219 2.75339 2.75948
3.99322 -0.42144 3.94408
1.76847 3.31539 2.78014
4.78677 0.491342 4.15668
2.76052 0.42566 3.85499
0.157083 3.40405 2.55157
4.29155 -0.633768 4.10969
0.242262 -2.23793 1.90252
0.637526 2.08961 2.93884
0.0850735 3.27236 2.50298
3.98064 -0.0569232 3.87961
2.50764 1.96737 3.2226
-1.13646 0.234061 4.31727
-0.653959 -1.01917 2.92197
0.801649 3.5153 2.62118
-0.745171 0.233532 4.09918
2.09979 -2.40245 3.60568
2.10617 2.04595 3.02453
4.85414 -1.05535 3.86659
1.71877 -2.30501 3.60611
-0.142779 3.42083 2.42612
2.63637 2.18112 3.04293
2.5067 -0.158408 4.40197
-0.324834 0.0758395 4.31437
0.0861425 2.23314 2.84897
-0.691557 3.5679 2.43996
-0.0180244 4.55077 2.25847
1.87024 -1.63808 4.26647
0.0326122 3.66192 2.50402
1.43018 2.3983 2.913
-1.3725 3.22181 2.37893
1.14894 1.07377 3.73147
4.59489 0.516327 3.52066
2.5853 2.26391 3.02043
1.17716 3.75419 2.58901
-1.12616 -1.36204 4.22576
1.72635 2.53545 2.91528
-0.863972 0.888381 3.24627
3.78979 0.784347 3.422
0.800481 3.86933 2.58651
0.355795 0.338998 3.41598
0.200569 0.18219 3.50762
-0.511502 0.469771 3.36969
1.75912 2.46923 2.95903
-0.734886 3.66519 2.29125
3.92892 0.717103 3.55377
-0.832198 -0.960147 3.24573
0.608975 3.99024 2.54282
1.28225 2.58239 2.79036
3.95796 0.89877 3.51911
3.34659 1.12003 3.44665
1.07986 3.97739 2.50473
-0.0832536 -0.378932 3.24005
-0.701847 0.783536 3.76886
1.04084 2.72282 2.74075
1.70656 4.0313 2.53571
4.23886 1.00469 3.44625
0.343394 0.074835 3.37624
-0.151672 2.6094 2.58659
3.68927 -1.51975 4.06707
0.510253 2.34608 2.8193
0.530688 3.6146 2.55598
-0.497362 2.35873 2.81431
-1.27544 2.36078 2.83929
0.823756 -0.0739209 3.54524
1.19721 3.68819 2.59356
-0.29877 2.45159 2.67029
-1.18699 0.202086 3.27628
-0.3475 3.66676 2.42611
0.810207 1.12432 3.96069
0.66032 0.641309 3.51284
1.03694 2.39601 2.84659
-0.897214 1.2777 3.29654
1.69099 1.08978 3.84735
0.703609 3.82381 2.55051
0.0569845 1.0203 3.41058
1.79529 1.15553 3.59427
0.556668 2.46444 2.66533
1.5403 3.87227 2.56379
-0.560311 0.185024 3.32366
3.10391 0.669657 3.97221
-0.553768 1.44983 3.3568
0.845213 4.06825 2.60625
2.14013 2.67849 2.89651
-0.122843 0.683918 3.4509
1.49257 0.913779 4.0833
0.304847 4.07841 2.52984
0.0121304 1.43268 3.43026
-0.746772 2.57463 2.5731
0.372792 -0.00965768 3.43187
0.38266 0.189944 3.52461
-0.765135 2.83381 2.59273
4.69866 -0.511088 4.09004
1.14503 1.56139 3.40505
-0.351622 3.83583 2.28237
-0.290384 -2.3437 3.17097
2.30782 2.76481 2.91492
1.79891 4.06635 2.48783
1.77021 -0.302309 4.50502
-1.07242 1.45093 3.44258
-0.367447 -1.23549 3.1476
0.338773 2.89573 2.59293
-0.499429 1.84828 3.22661
1.79202 4.09287 2.45124
0.533929 2.81046 2.60544
2.21858 -2.44856 3.61552
0.700574 1.61555 3.25466
2.72111 -0.674156 4.46547
-0.319518 1.88693 3.17963
-1.14156 -0.760677 4.00704
1.63738 4.16904 2.43937
0.719976 3.01601 2.64824
3.9743 -0.890242 4.72013
0.628498 -0.820539 4.744
-0.863875 1.47771 3.1577
1.51933 4.56906 2.46441
0.340516 1.91855 3.11048
-1.6862 1.46166 2.87289
-1.10598 -1.43365 4.33299
-0.0850669 3.11529 2.51197
2.84029 1.58733 3.27105
3.38341 -1.12072 4.19458
1.14578 4.52708 2.44324
1.82017 3.15647 2.787
4.3792 -2.08174 3.71956
-0.35186 1.21171 3.62588
0.900462 3.80801 2.60958
1.06802 2.45834 2.84396
-1.30818 0.874714 3.27542
2.19286 3.87654 2.67039
1.3178 1.0942 3.87244
-0.478929 -0.0331897 3.37243
-0.761718 -1.05798 4.31561
1.53917 2.42828 2.96368
-0.32961 2.59214 2.62076
-0.792747 0.756344 3.25187
2.68984 1.05602 3.50619
0.698894 3.93827 2.57107
3.95726 -1.53654 4.34665
1.12694 2.58003 2.8818
-0.112676 -0.00358763 3.28406
-0.956413 -1.32061 2.88017
-0.254481 1.31027 3.56721
0.515947 3.99377 2.54577
-0.801634 2.76198 2.59695
0.217853 -0.63115 3.29132
0.779792 1.52801 3.46242
0.118603 4.06663 2.52137
0.201931 2.56468 2.58907
0.208671 -0.130802 3.2794
0.443957 4.04853 2.47614
3.38747 0.96243 3.35719
0.746314 1.5654 3.33569
2.09026 2.81565 2.86542
0.696725 4.07443 2.46149
-1.01553 -2.17462 3.12265
0.140887 1.82886 3.32356
1.18132 4.14509 2.46242
-0.596059 0.0569576 4.17395
-1.08669 3.13246 2.4444
1.32586 2.97816 2.77576
-2.38571 2.69493 6.39351
0.194221 4.13322 2.34696
0.492299 2.78565 2.59197
-0.270181 0.933436 3.49935
1.89135 3.16537 2.81642
1.55706 -0.287938 4.6601
0.892674 -0.849414 4.75542
0.0212883 1.90583 3.17899
2.44087 5.40382 2.69579
4.15768 1.62693 3.29748
3.98097 -0.320072 4.17163
0.995611 1.79898 3.3177
2.04119 4.69097 2.58289
-0.38092 2.98381 2.53965
0.480119 -2.13305 1.94356
2.3923 3.29108 2.80686
2.04767 -0.708467 4.99775
1.9989 4.13499 2.54884
2.48661 1.82056 3.27877
2.92354 -1.95089 3.74234
-1.03883 -0.417775 4.21638
-0.601643 3.14672 2.51453
4.4705 1.67023 3.31385
-0.469097 1.94552 3.02451
0.73767 4.51977 2.45093
1.23751 3.33376 2.7039
4.57084 -1.05874 4.80964
3.9925 -0.734662 3.90177
0.0395444 -0.818103 4.72031
0.336851 2.06536 3.07837
3.195 1.31364 3.35975
1.09529 4.06175 2.45697
-1.28354 -0.303557 4.08882
-0.0941825 -2.37623 3.23557
-0.129847 2.79347 2.53855
-1.42606 0.963835 3.21278
3.25505 1.22208 3.38033
-0.687262 3.90509 2.18493
-1.21211 -0.037957 4.12774
0.716449 2.74554 2.64391
-0.315148 0.982499 3.50449
1.81525 3.07126 2.8112
2.79275 -0.531285 4.23958
1.01021 4.17147 2.40778
2.81348 1.5108 3.28736
-0.132449 2.9142 2.56034
4.31606 1.52576 3.33787
0.769196 -0.854063 4.7187
3.50125 1.41681 3.46748
3.98785 2.27174 2.9902
1.6438 -0.767596 4.50048
2.67022 4.46359 2.53727
2.82567 -0.686432 4.40888
1.25591 3.15123 2.74225
1.22064 1.84617 3.32569
-0.862293 2.08386 3.03469
1.86562 4.48618 2.4843
0.689283 3.24733 2.63412
3.31975 -1.23355 4.74638
-1.53412 0.409505 3.01437
2.85992 1.63499 3.20774
4.63072 0.661628 3.76546
1.17327 -0.997957 4.84551
-0.568277 3.18019 2.5349
2.91812 -1.94933 3.74362
-0.190994 2.0555 2.87699
-1.32926 1.30843 3.39037
0.847363 3.35459 2.62735
-0.657778 1.23568 3.14683
1.04227 -1.66998 4.65776
0.617533 2.00658 3.04459
2.81337 0.719963 3.73125
-0.326643 1.49509 3.3075
-0.0154534 3.23833 2.52101
-1.04708 1.8456 3.06781
4.12147 -0.446678 4.0012
2.49587 0.565638 3.81236
-0.735034 2.18283 2.77795
1.65153 -1.89697 1.62081
-0.375226 3.36075 2.48539
3.52559 0.512714 3.84751
-1.30214 3.61202 2.27306
2.04073 2.02665 3.12971
-0.473944 3.45574 2.49386
-1.28326 2.91293 2.48996
1.71805 0.31926 4.14287
2.13036 2.18044 2.98822
-1.74363 2.94203 2.72468
-0.527733 3.46438 2.43791
-0.398355 0.458907 4.13447
0.382137 4.38117 2.25718
-0.878479 1.32182 3.0815
1.0658 3.64925 2.61499
1.14445 2.19376 2.95018
0.338793 0.0448816 4.43541
-0.60513 2.3821 2.7361
0.916919 3.69098 2.58663
-0.27366 -0.306701 3.03971
-1.30984 3.04898 2.53487
3.54976 0.0295216 3.97582
-0.828965 4.05957 2.20425
-0.583045 1.91605 3.21035
1.99847 0.124279 4.16218
-1.68002 1.43871 2.97752
1.49265 3.06875 2.78146
-0.384749 -0.825883 4.49106
1.17403 0.391331 4.33815
-0.9227 1.87375 3.26499
0.532172 2.88388 2.61199
-1.59275 2.04087 2.85924
3.99157 -0.352978 4.09799
3.80464 1.58306 3.24214
2.49899 4.86743 2.70467
-0.69647 3.08079 2.45202
3.96473 2.16108 3.02587
0.22447 0.0326108 4.42799
-0.522973 1.9242 3.10908
1.12011 4.35211 2.43031
-0.0551055 3.03784 2.5371
-1.49483 0.233474 3.00285
0.966594 3.33812 2.68125
4.36248 0.584334 3.41367
-0.0874652 2.02359 2.9664
1.90735 4.26709 2.48405
2.27063 -0.53171 4.38371
1.17924 3.22522 2.66309
-0.338267 2.06257 3.08091
4.0044 -0.801486 3.92701
-1.07516 1.70896 2.97933
-1.03331 -0.275145 4.19247
0.544345 3.42643 2.59246
2.38124 1.98648 3.12763
-1.21128 -0.6801 4.24701
3.89907 -1.17457 4.06276
0.97184 4.74115 2.37957
-0.0990807 -2.16975 1.75327
2.30798 3.40286 2.77444
2.10449 -0.719095 4.86617
3.3023 1.84755 3.2103
0.0246066 1.07203 3.36476
2.7331 1.99291 3.05646
0.500172 1.11622 3.58791
1.2451 3.5351 2.67765
-1.29769 4.03734 2.15696
1.52565 3.66086 2.72824
0.344004 0.856029 4.18557
-0.101255 1.21453 3.39248
3.90247 -0.0236825 3.86434
0.726364 2.27807 2.88376
3.98427 2.09143 3.17486
1.14778 3.68491 2.65644
-0.695044 -0.0425393 3.03262
0.126981 4.26282 2.2311
-1.48477 1.8056 3.22432
-0.848858 2.44907 2.68954
3.57406 0.389593 3.88556
1.35454 3.71953 2.63825
2.89135 0.759024 3.64514
-0.214191 2.43539 2.84637
-1.36219 0.209353 3.25915
1.22593 0.69093 4.03403
-0.229087 3.68231 2.4523
1.41381 2.58891 2.93507
3.69311 2.1845 3.20571
1.90762 1.12792 3.62179
0.240855 3.77898 2.49623
0.00320554 -0.136759 3.37287
-0.919318 2.61493 2.79135
-0.673042 0.62392 3.36818
4.4572 0.835596 3.60155
1.30533 0.480501 4.15914
0.061998 3.88027 2.49745
-0.256905 -0.783811 2.94723
4.94423 -0.733913 4.06423
-0.936491 2.17875 2.85236
-0.889477 -1.73583 2.86931
1.42183 3.48476 2.70681
0.473526 2.02702 2.9602
-0.31067 0.49532 3.32091
-0.173627 3.27737 2.48413
4.24163 -0.635575 4.0133
1.62546 0.756932 4.08947
0.705565 3.49644 2.60822
-0.43668 0.585966 3.16703
-0.228702 2.2238 2.8004
4.20411 2.19972 3.2832
0.953282 2.1851 3.0214
-0.0413325 0.855617 4.02666
-1.16035 2.74233 2.68622
-0.87093 -1.13863 2.24357
-1.07364 3.48816 2.42922
0.147833 2.32204 2.75113
0.660593 -1.02392 4.19431
4.23043 0.167627 3.83319
-0.523181 3.56342 2.4583
2.18231 0.605683 3.84846
3.64251 2.5413 3.01268
0.553159 2.25724 2.82777
0.304258 3.63375 2.50756
0.424094 0.558048 3.46641
-1.4609 0.857214 3.26617
0.301923 0.197685 4.38216
1.4195 3.78969 2.62839
0.634971 -0.108864 3.49908
2.1135 2.33514 2.94843
0.711173 0.957382 3.83188
-1.02096 -0.309089 2.87154
-1.81035 0.218531 4.89709
1.72704 -0.926913 4.66112
2.96735 0.959355 3.61415
1.75164 3.81964 2.6114
2.09967 2.50947 2.93791
-0.807088 -0.210709 3.27493
2.84186 0.863682 3.60218
0.360143 3.8725 2.50316
0.186796 2.44244 2.73118
-0.677086 1.09045 3.35504
1.00124 1.37968 3.39699
0.276621 3.89573 2.46485
2.89226 -1.59021 4.33348
3.47306 2.54623 2.9313
-0.204596 0.432395 3.43767
2.36037 1.19511 3.64828
-1.30992 1.98671 2.96917
1.94465 -1.19587 4.43359
2.34916 2.56102 2.90386
-0.491521 3.87723 2.35197
-0.150576 2.79335 2.61213
0.293157 -0.167406 3.2964
-0.478251 1.66963 3.28521
0.24153 4.00806 2.44219
0.62795 2.6618 2.63361
0.0616674 -2.30535 3.23858
0.625243 4.14732 2.5013
-0.152381 1.60608 3.35855
2.0431 -1.48156 3.64923
1.86768 4.14933 2.49624
2.88911 2.87898 2.92216
3.53498 1.29326 3.41778
4.35133 0.0663808 3.73466
1.12483 0.757801 3.58791
0.0758527 3.51709 2.52338
-0.443678 -2.56444 2.78426
1.46499 2.24592 3.08329
-0.267976 3.53708 2.4633
4.11158 0.371941 3.5648
2.73657 2.22803 3.01769
0.645739 3.62139 2.52312
0.388282 1.22359 3.57988
1.83681 2.2334 3.0093
3.26711 -1.4793 4.10682
0.794295 3.75817 2.56883
0.492282 1.21974 3.77906
-1.23386 0.571246 3.27951
0.66718 0.785702 4.1244
0.329573 2.43848 2.74373
-0.542884 0.872353 3.76271
-0.845242 1.09046 3.28935
4.73626 0.667092 4.235
0.453337 2.39282 2.79961
-0.660008 3.62524 2.33836
1.71478 2.65399 2.93763
0.525936 0.554246 4.10739
-1.02203 1.51456 3.2634
2.06736 1.22795 3.63537
-0.558621 3.70118 2.35267
0.873832 0.419264 3.49429
-0.265844 -0.020998 3.29782
-0.811828 2.61495 2.70195
-0.93807 3.77233 2.31851
4.06067 0.795411 3.60546
3.50076 -0.794701 4.69842
-0.446902 3.86404 2.35757
-0.482668 -0.904874 3.23171
2.68701 2.59825 2.90764
-0.539715 -0.52291 4.54116
4.43753 1.07167 3.71383
0.905914 1.55192 3.36758
-0.638904 3.84661 2.28998
0.120674 0.224254 3.48017
2.42386 -0.944405 4.7142
0.367195 2.71885 2.60784
0.747637 4.10807 2.47862
-0.060239 1.594 3.39416
0.909852 -0.890878 4.99369
-0.0363058 -2.44362 3.25123
0.510907 2.64709 2.62261
1.02719 1.7084 3.37737
0.445078 4.14276 2.42894
-1.11122 -0.442696 3.17478
1.0228 2.92659 2.6992
2.08751 1.46231 3.37218
0.46765 4.21834 2.43299
-0.211298 -1.29231 4.64026
-0.499694 2.82581 2.54244
4.46514 -1.94662 3.71057
-0.889486 3.13009 2.56296
-0.819151 1.61197 3.16724
0.226574 -0.790083 4.54418
1.65601 1.71991 3.2327
0.256376 2.92594 2.54771
-1.09212 0.958756 3.19499
-0.408235 1.85554 3.15181
0.630966 -0.406509 4.70214
-0.654077 -0.646658 4.00338
2.52459 1.0716 3.49687
0.00183994 2.51542 2.59499
-1.24115 -0.748132 4.88449
0.470073 4.11562 2.63224
-0.393198 -0.312297 3.23941
1.29401 1.45402 3.47295
0.0839663 4.01739 2.48793
4.09457 -1.2346 4.42825
2.18312 2.70578 2.8563
0.703965 -1.82651 3.33731
-0.492616 3.95632 2.36726
0.598815 1.52538 3.5965
-0.783132 -0.835352 4.00047
1.85046 2.64491 2.86128
0.192413 0.0986716 3.35665
0.772698 2.81976 2.65771
1.24757 4.05857 2.47056
5.0746 1.56692 4.13672
-0.760183 1.64279 3.3172
-0.902431 -2.1286 3.1271
-1.36933 2.94916 2.49581
0.562553 2.7134 2.61343
0.787591 4.18408 2.4741
-0.35638 -0.436199 3.26533
-0.227393 2.85625 2.43178
2.53977 1.51258 3.26528
1.2421 4.22684 2.47008
-0.497798 3.00775 2.63066
-0.797419 1.18401 3.19618
2.39086 1.46648 3.32422
0.439052 -1.08204 4.66655
3.88739 0.0333889 3.85268
-0.681245 1.95681 3.12264
-0.273461 3.04171 2.52509
1.24767 -1.56265 4.77499
2.01224 0.488568 3.96297
-0.975772 1.53521 3.14442
1.80916 4.56527 2.48522
2.29057 1.77241 3.19908
0.615521 -2.36265 3.05972
1.86371 0.0184249 4.3014
-0.782606 0.179 4.06141
2.72051 1.63688 3.2031
0.44545 3.11275 2.50934
0.875523 4.54287 2.44232
2.02195 3.23877 2.81158
4.61801 1.20483 3.37757
-0.488909 3.22661 2.44022
-1.51685 -0.42121 4.28467
3.16811 -2.50663 3.58183
2.57577 -0.380436 4.5354
2.01304 1.94903 3.13362
2.98971 1.72357 3.0809
4.6418 0.27998 3.76603
4.6514 -0.379605 4.50544
-0.42823 3.1834 2.45943
-0.347514 0.398943 3.30154
0.127114 -0.638806 5.05008
1.85179 3.54775 2.73023
1.3238 4.72937 2.38173
-1.63045 2.88051 2.7239
1.24696 2.15893 3.04934
0.994204 3.41637 2.62355
-1.33216 0.0800003 3.31243
0.235841 -1.9086 1.72135
1.78746 2.14072 3.23757
-0.796898 2.81632 2.60459
0.109535 0.259531 3.38034
-1.1225 -0.448984 4.38619
-0.279974 1.70862 3.36447
0.754087 4.05832 2.51167
-0.759825 -0.297382 4.64653
-0.404075 2.71771 2.60533
-0.453405 -2.21087 3.18357
0.416311 1.60008 3.51709
0.00363035 4.09618 2.43646
3.66518 1.26336 3.42021
1.84437 2.91648 2.86665
-0.538581 -0.718274 4.31094
-0.0028502 4.06348 2.35947
-0.463712 0.182729 3.36478
3.17406 -0.7446 4.41889
3.34041 -0.98542 4.33001
0.16287 4.09345 2.33428
1.7336 1.64857 3.28595
-0.586834 -0.0944967 3.27618
0.868933 2.97303 2.66399
4.21129 1.39163 3.55635
0.360265 -0.54536 4.59395
1.60237 2.98283 2.80855
3.84475 2.27774 3.00127
0.66284 3.12504 2.60456
0.631017 -1.49251 4.72158
2.17521 1.74354 3.25201
-0.623878 1.15353 3.24156
2.84212 -1.15642 4.12503
-1.20718 -1.10882 3.00057
0.90492 1.87356 3.30143
4.19248 -1.31813 4.37646
1.74462 3.13824 2.78851
3.78168 2.07099 3.12059
1.7427 3.35498 2.77243
3.98409 1.69434 3.32309
1.26521 2.05004 3.25845
1.85233 0.593681 3.90349
-1.00653 3.21794 2.50715
3.49738 1.78993 3.42326
3.81484 0.357317 3.73723
-1.61027 -0.31248 4.29843
-1.11092 0.602352 2.71297
0.29183 -1.99978 1.79708
-1.0839 0.205697 4.07711
-0.940402 4.33225 2.17037
0.360893 3.23351 2.50762
4.34869 0.152797 3.92783
1.93347 2.03181 3.23302
1.72288 2.14648 3.11746
1.40165 0.156467 4.25042
1.44933 3.53445 2.69053
4.15501 -0.238258 3.93394
-0.997167 -0.946423 2.9322
0.162061 2.1261 2.95566
-0.969646 -0.687829 2.95637
1.56357 3.50167 2.7406
-1.22639 3.63311 2.38678
1.91287 3.60465 2.71436
0.709076 -0.122286 4.67927
-0.631537 0.0108994 3.03539
1.29609 2.27743 2.99549
-1.47323 1.20396 3.28987
2.70147 -0.0243271 3.98289
2.30634 2.08472 3.02019
-1.38958 3.86923 2.30816
-0.143906 1.18619 3.34313
-0.301578 3.54531 2.46891
-0.281762 0.438752 4.2782
0.873291 3.24685 2.66293
1.11904 -2.23357 3.15397
0.239993 -2.18902 1.79683
0.0719942 1.97754 3.05432
3.4898 0.276714 3.72503
4.31953 2.03868 3.3186
0.75057 3.16089 2.63333
-0.344126 1.94839 3.04677
1.61536 4.38277 2.45579
2.67584 1.79534 3.1679
2.48098 0.142027 4.13958
1.29889 3.29001 2.67765
4.79884 0.387643 3.37086
-1.56177 -0.585422 4.18002
1.87974 0.260333 4.06125
2.4751 2.01174 3.18716
3.20344 -1.62497 4.30722
-0.189907 3.33501 2.4833
0.577348 1.08439 3.57474
0.163906 2.1107 3.02585
-1.24113 -0.110855 4.28722
3.48408 -1.49609 4.14246
-0.101973 0.679809 3.32541
1.0993 3.37821 2.67512
-0.118304 0.647105 3.45753
1.95804 -0.33892 4.60559
0.506897 -2.09675 4.43745
1.35929 2.23884 3.05997
-1.22287 1.47162 2.88486
0.362681 3.44468 2.55085
1.77547 -0.195595 4.29567
0.850897 -1.39054 4.46237
-1.11153 2.47223 3.08947
0.77074 3.57577 2.61876
3.99469 0.266209 3.67384
1.87091 2.32429 3.01971
-1.03505 0.261474 2.8693
1.50315 3.74651 2.73335
1.98707 2.1967 2.99502
-0.635367 4.27534 2.20142
-0.808557 3.61571 2.43378
1.04405 0.942563 3.96805
0.212993 -0.0475477 3.4834
-0.214101 2.49524 2.83647
0.249687 3.71401 2.50663
-0.761817 -0.852288 2.93677
3.30416 2.19258 3.12799
2.30139 1.11883 3.75127
1.15989 3.81248 2.58094
2.59915 2.5114 2.99606
-0.622922 0.754015 3.44894
1.80232 3.93047 2.64399
4.17356 0.707132 3.67121
-0.827436 0.64275 3.2617
0.120429 2.47472 2.75819
0.980891 3.91186 2.52317
3.9137 0.382961 3.8345
-0.494708 2.68205 2.64885
-0.0601208 0.925503 3.60328
3.5426 0.992167 3.45771
0.929335 1.42793 3.66692
3.09759 0.662673 3.79254
0.614811 -1.57252 3.33401
2.83245 2.59733 3.00755
2.55305 4.16972 2.72614
0.126329 2.56736 2.59184
-0.294373 -0.00550948 3.29404
1.97882 -0.827157 4.78959
0.783371 1.48696 3.5801
-0.0352764 3.88727 2.44907
-1.41236 2.36596 2.69278
0.0831684 2.49271 2.58876
-1.47924 -0.617307 4.63184
4.20384 0.888283 3.49215
-0.0856485 3.8918 2.40208
0.943093 2.74666 2.6972
0.264319 0.0374432 3.3864
2.65518 1.34304 3.48689
1.11823 4.05096 2.52312
-0.117671 2.65432 2.5684
-1.4463 4.12269 2.3209
2.40937 1.24013 3.46004
3.31031 -0.987642 4.05139
1.19394 4.03721 2.4639
0.158667 1.74652 3.38577
0.352982 2.77202 2.57621
3.82622 -1.32897 4.56997
1.1179 4.12189 2.44797
-1.42414 1.06702 3.22575
0.983782 4.15406 2.41581
2.48961 1.62745 3.4384
4.32128 -1.97486 3.73081
-0.510108 3.02626 2.58681
3.79197 1.39833 3.54997
1.57837 4.16433 2.39531
1.96079 2.9519 2.82775
-1.27125 1.49694 2.97446
-0.46935 3.05641 2.45731
2.72952 4.9432 2.58858
-0.445507 0.207174 4.13529
1.98677 1.82949 3.35806
-1.66951 1.41673 2.89266
-1.42928 0.419003 3.03986
-1.31406 -0.619541 2.98072
2.79538 1.59264 3.30347
0.758093 4.37507 2.46359
4.17355 0.160004 3.94606
1.03854 3.03574 2.63628
0.860956 3.26657 2.6272
3.86163 2.05282 3.11203
-0.362136 2.05216 2.98316
1.81828 4.33788 2.46961
-0.772165 3.09119 2.41964
-1.8694 0.026027 5.43603
-0.946836 2.10317 3.0782
0.41209 -1.85113 4.6688
-0.482263 0.115226 3.03994
0.932188 -0.149086 4.6198
3.1636 1.7979 3.14197
1.73181 3.39691 2.75361
1.16547 -1.7391 4.73807
2.84323 -0.0600504 3.95623
-0.615931 0.386327 2.90452
-1.35832 1.48467 2.94015
-0.0123517 2.15707 2.86326
3.24282 -0.560023 3.97153
2.16012 3.55974 2.7687
-0.944764 -0.35079 4.43798
3.36777 1.90068 3.20629
-1.23686 4.13993 2.13732
-0.104045 3.39549 2.54545
4.04712 -0.262352 3.90121
-1.57371 2.25087 2.85226
0.0881858 2.96184 2.49936
-0.26264 -0.68954 4.4528
0.22461 0.148948 4.39909
0.531034 1.82594 3.14344
0.105678 2.88242 2.51298
-0.651766 1.47507 3.19255
2.93665 1.45563 3.24734
1.77858 0.270566 4.11531
0.961391 -1.51806 4.78893
4.32271 0.6292 3.45525
0.563411 -0.170192 4.75328
1.36789 4.45709 2.45351
0.106427 3.03321 2.4773
1.40779 0.0155483 4.32401
0.992166 1.95695 3.29024
0.946797 2.00148 3.12361
2.26285 4.17589 2.69931
3.56339 -0.462991 4.03954
1.69924 3.34551 2.75706
4.25201 1.06811 3.43468
-1.34262 1.36939 2.92342
2.45657 1.82195 3.29869
3.6092 3.04208 2.92212
-1.40837 1.58496 2.90146
2.02496 3.31143 2.82
2.09945 1.99692 3.12192
2.90049 -0.736632 4.50076
4.57271 0.272976 3.71854
4.14548 -0.260218 3.7287
1.35611 3.46148 2.69605
4.36322 -0.678939 4.55511
-1.91011 3.46029 5.44392
4.13448 -0.235224 3.95726
0.501912 3.2856 2.55508
-1.23403 3.59715 2.41621
0.755909 2.18822 2.90534
0.952128 3.48187 2.61703
4.21921 0.309252 3.73722
0.523432 0.750291 3.55793
1.41844 2.15018 3.06737
0.675544 3.5706 2.61455
4.19427 0.167875 3.58893
-0.0576443 2.2911 2.72683
-0.631378 3.56146 2.46301
2.17443 -2.55133 3.5899
-0.745453 2.31697 2.76948
-0.0590691 3.55986 2.43415
-0.215753 0.967989 3.30242
2.85642 0.696158 3.58254
3.77731 0.517314 4.00374
2.49061 2.3066 2.98727
-0.577716 4.32772 2.25853
3.1401 0.620255 3.72467
0.0101786 3.65604 2.45776
-1.28273 0.572288 3.27993
0.760387 0.41897 4.21055
0.484162 1.3357 3.69783
-0.139942 3.73124 2.4494
-1.03899 0.0260438 2.79083
0.66578 2.45375 2.70128
1.02932 -1.01958 3.86999
1.72103 0.516768 4.10176
0.284573 3.80144 2.46401
-0.958153 1.00696 3.63943
3.06523 2.325 2.97245
3.288 2.30618 3.0281
0.312453 -0.0791693 3.47692
1.02029 1.93872 3.19702
4.67407 0.0691037 4.0284
1.73659 3.28795 2.78605
-1.16026 2.7816 2.59005
-1.43845 1.32064 2.7726
-0.637856 1.9999 3.10583
4.28498 1.9666 3.44002
0.463201 0.528426 4.16577
1.2802 3.17003 2.70616
5.01169 -0.145219 3.44306
-0.667554 3.24187 2.44442
2.86689 2.76116 2.94055
1.56031 0.288984 4.19539
1.44925 1.97403 3.08834
0.819465 -1.78456 4.72027
-0.555259 3.13548 2.41339
2.13365 0.417684 3.90423
1.14623 1.97433 3.145
4.61844 0.217677 3.71699
-0.902155 -0.0826187 4.17757
0.834891 4.76332 2.38535
1.07327 3.49193 2.64497
-0.39753 0.36454 3.29868
-0.639678 2.12158 2.74434
2.51901 0.125833 4.07381
-0.36223 1.36378 3.30344
2.35006 3.4847 2.78985
1.30654 2.06161 3.0767
-0.166513 2.21465 2.81971
3.32415 -0.450329 4.06018
-1.11415 2.56134 2.7193
1.76213 3.57816 2.69371
-0.596753 0.134371 3.04424
-0.162172 -0.141132 4.46272
-1.48777 1.00178 3.39118
-0.213356 3.52418 2.46372
4.03915 0.216134 3.78074
2.48389 2.31159 3.10708
-0.533773 3.59298 2.43311
0.454052 2.21316 2.81431
0.21463 4.2856 2.19384
0.932873 -0.81322 3.45245
1.2768 1.02744 3.63001
2.47545 2.35937 2.9411
-1.32183 0.0376477 3.27456
-1.0046 3.7044 2.43458
2.92272 0.816123 3.5576
-1.00165 1.06103 2.98855
1.70514 2.34536 2.9412
-1.14959 1.57106 3.21287
3.5945 0.676529 3.75953
0.542903 3.80471 2.55037
-0.273301 2.57894 2.64718
-0.934497 0.871231 3.22734
4.3534 0.939815 3.80257
0.244472 3.86165 2.50704
-0.702667 2.62831 2.73667
-0.498032 -0.648802 3.259
-0.0579664 1.2166 3.81638
0.773555 3.9217 2.53112
2.6836 1.18932 3.63356
0.424695 0.697722 4.23322
0.659897 2.58196 2.66659
-0.195406 3.92381 2.42172
-1.4015 2.08959 2.97399
1.8422 0.841495 3.79262
-0.761079 3.47418 2.44174
0.874201 2.19427 2.85875
4.81306 0.402002 3.62382
-0.45512 -1.00233 2.90266
1.7387 2.13232 3.02313
3.97206 0.417252 3.59986
0.902406 3.59476 2.59004
0.685363 -0.00133021 3.54287
-0.731727 2.41978 2.6908
-0.678568 4.17347 2.18011
5.027 0.695035 4.32707
0.157687 3.60621 2.4953
0.452227 1.21501 3.5862
-1.38704 0.516481 3.28087
-0.768025 -0.10251 2.99662
-0.64919 2.39545 2.77523
0.631694 3.69153 2.52739
3.99168 0.529611 3.80715
4.57571 1.12942 3.48234
-0.975601 3.6337 2.33799
1.03973 2.45064 2.84307
1.41037 1.16663 3.74911
2.15238 1.21658 3.67529
-0.26626 3.8329 2.46198
3.5076 0.271706 3.80704
1.17504 2.54727 2.77373
-0.759386 -0.125557 3.30586
3.03661 0.560003 4.07283
4.52359 1.02627 4.0681
1.27759 3.94764 2.5686
-0.304026 -0.0442452 3.23846
-0.20799 2.55891 2.72439
-0.437352 1.57305 3.48614
1.26251 3.98326 2.5372
-0.578331 2.66381 2.5433
4.27328 -0.768036 4.56615
-1.41636 2.13453 2.76414
-0.289919 1.46019 3.51143
0.315223 0.870948 3.69028
2.36199 2.66008 2.93371
3.16782 -0.602117 4.05008
-0.194046 3.9339 2.37835
3.21445 -0.797857 3.98684
-0.206131 2.79497 2.54601
0.308223 -1.05665 3.27187
3.85473 1.23177 3.42291
-1.01143 3.81784 2.20211
2.27659 2.8247 2.92328
-0.61495 -0.155634 3.29897
-0.853483 1.58386 3.26305
1.49061 4.08516 2.45348
4.63903 -1.39831 4.72443
-0.928393 0.312326 3.2631
0.756489 4.18613 2.43364
-0.539118 -1.09236 4.80127
1.99946 2.92049 2.80166
1.94779 1.54106 3.35856
-0.230643 4.13048 2.10404
3.81222 1.50433 3.27375
0.135459 2.96713 2.50895
-1.02502 0.264185 3.08374
3.21298 1.41208 3.2687
1.13094 -1.56715 4.79268
1.9336 2.96889 2.75653
-0.461068 1.50343 3.28595
-0.945533 3.53793 2.37602
1.73975 0.986873 3.76026
-0.33014 4.37671 2.27658
-0.350813 2.44896 2.79218
2.15955 3.79064 2.69142
-1.11432 3.67394 2.16378
2.09464 2.24814 3.00231
-0.571482 3.64349 2.36908
4.22111 0.765332 3.54722
1.02178 2.47637 2.77673
0.723911 0.464366 3.49433
-1.2379 1.77959 3.10971
1.16237 1.15358 3.7322
0.297036 0.0988568 3.4845
-0.806897 0.0156636 3.28401
1.36767 2.44908 2.90009
-0.814246 3.64113 2.29489
0.289406 2.52736 2.6056
-0.702034 -0.326089 3.26499
2.17471 1.32722 3.71455
-0.118949 3.89879 2.46188
0.224395 2.55996 2.67372
-0.0148892 0.571982 3.5292
-0.393474 3.82893 2.36045
0.996395 1.39016 3.65721
0.590994 0.917839 3.69095
1.399 4.00576 2.51367
-1.01874 0.77285 3.71772
0.583467 2.6285 2.62748
3.25032 1.1303 3.49336
2.32405 4.15697 2.60325
-0.835369 -0.191032 4.08211
1.4169 1.56317 3.40587
0.699669 -0.0309567 3.41296
-0.0162098 2.72617 2.51347
-0.106493 4.05703 2.35487
3.48131 -0.136803 3.95714
2.26028 1.38742 3.48971
3.99879 -0.908072 3.84773
0.651892 2.71012 2.6374
0.71412 4.17425 2.43341
-0.737412 -0.484994 3.92886
1.49326 1.67797 3.33305
-1.12128 -0.421418 3.23599
-0.683706 2.95354 2.51654
0.152912 -0.299987 4.4942
0.360632 1.76132 3.32898
0.681445 4.2068 2.39248
0.185405 2.81651 2.54051
-1.58722 1.97712 2.83662
1.16866 3.16831 2.70263
-0.371333 1.35045 3.30618
0.24574 -1.26427 4.57735
1.35217 -0.972972 5.05818
0.848838 1.94263 3.28555
2.4643 3.03186 2.77156
4.12088 1.25061 3.43402
2.21147 -0.717591 4.43314
2.05557 1.75287 3.44404
2.2943 3.96346 2.70048
4.26404 1.21909 3.40338
2.12922 4.35719 2.58994
-0.31943 -1.20147 4.41515
0.169515 2.05606 3.10406
2.70182 3.24061 2.81829
-1.07385 -0.77768 3.72333
2.71228 1.67808 3.16912
0.450491 1.66211 3.4597
1.81014 3.96732 2.50956
1.9361 2.79804 2.86058
0.184535 0.490566 3.56183
2.24197 1.27027 3.48227
-0.189258 4.00063 2.3754
0.58492 -0.496385 5.32682
-0.266658 2.70732 2.62294
0.40794 -0.742819 3.23507
0.674175 2.87791 2.62539
3.82482 -1.79907 3.82327
3.87201 -0.76496 4.2071
-0.422233 4.09701 2.37045
1.2519 1.72045 3.48452
1.95995 1.52949 3.49176
1.97761 -0.552445 4.85495
4.132 1.98421 3.27019
1.93083 2.85132 2.81678
1.75948 4.12133 2.43808
0.0135879 3.05837 2.58519
3.35996 -1.0946 4.6594
3.96781 1.70023 3.35699
1.37608 4.19502 2.40282
1.75218 1.7551 3.32673
0.192505 2.91343 2.5521
2.47594 -0.879012 4.81376
-0.930808 0.904857 3.23658
-1.13565 1.94641 3.27987
0.276978 -1.49778 4.63411
1.91231 1.80963 3.33353
1.81334 3.21759 2.79765
1.04057 4.45689 2.43593
2.7 -1.35011 4.60358
3.05786 -2.13237 3.71479
1.16257 4.59867 2.44716
