ply
format ascii 1.0
element vertex 1907
property float x
property float y
property float z
end_header
0.0911511 2.32589 2.69553
-1.09759 0.744537 3.25241
3.88633 0.819303 3.49181
0.764588 3.94577 2.63423
2.08546 2.55589 2.93059
-0.767338 0.898906 3.29701
-1.44026 2.71382 2.26356
0.28744 1.23781 3.86742
1.5627 4.00146 2.6545
0.218055 2.43258 2.63662
-0.9906 -0.239201 3.25907
-1.21004 -1.18645 2.82499
1.5605 2.71784 2.85176
0.967448 0.79946 4.04406
-0.56262 -0.971166 3.2332
-1.27015 2.87186 2.53909
3.48842 1.03296 3.41332
-0.519521 3.74733 2.31428
0.0312385 -0.151828 3.28365
4.54791 -2.10649 3.60436
1.03975 2.60434 2.76316
4.33366 0.948392 3.59182
2.5298 4.16985 2.70715
-0.908052 3.28849 2.43065
3.11125 1.88264 3.18624
-1.62162 -1.19739 4.22466
2.72988 0.637768 3.62857
1.51733 4.72547 2.52748
0.543515 3.30513 2.61083
2.12692 5.11012 2.63669
2.35471 1.97419 3.2748
-0.453837 0.429268 3.22773
2.53237 0.363418 3.8094
-0.136277 4.36831 2.19912
-0.578564 0.0191266 3.03291
-0.70823 3.31568 2.40739
4.20834 -0.0141342 3.57098
1.54719 0.645528 4.1926
0.78453 2.09465 2.91556
1.56971 2.20552 2.98836
0.752526 -1.18128 -0.595774
1.00421 3.54241 2.66003
0.114436 0.370047 4.23356
0.652078 0.275676 3.56956
0.569292 -2.04034 4.4224
1.51143 2.1772 3.04921
-0.861206 0.433317 3.90192
0.679093 3.56157 2.59607
-0.914218 0.596735 2.98714
-1.51308 1.30197 2.84946
4.12089 0.0897874 3.76126
1.81074 0.12003 4.3232
1.11009 0.872251 3.93734
1.93096 3.71461 2.72948
-0.261812 -2.26184 2.78987
3.84806 -1.55661 4.06401
1.52443 2.35557 2.96203
3.10979 -2.5142 3.27857
2.39569 0.239723 4.16688
0.698969 3.67647 2.5615
-0.697782 0.746985 3.03672
-0.525419 2.35275 2.76043
3.03902 -0.679567 3.86539
3.89023 2.05823 3.14903
0.82069 2.4307 2.74083
3.85913 2.76332 2.9504
1.68881 -1.29417 4.4376
1.74912 1.09227 3.55689
-0.695897 3.61815 2.36643
-1.11568 -1.63113 2.79596
-0.0836448 2.39894 2.67424
-0.929211 0.271227 3.22454
1.96913 -1.03802 4.43791
3.4533 0.710213 3.56492
0.714986 3.955 2.64267
2.03049 2.65578 2.94658
-0.599676 0.47828 3.32808
-1.42504 -0.158792 2.69156
3.36267 1.05558 3.59818
1.38075 3.92102 2.59864
4.62685 -1.66257 3.57701
0.0109769 0.969773 3.66657
0.406617 2.39615 2.57088
0.302105 1.26866 3.81886
0.988711 4.03793 2.60516
-0.59293 0.133393 1.21042
4.81 1.21352 3.86526
2.7902 3.42376 2.92082
1.8294 2.70643 2.88354
3.08196 3.15355 2.94858
0.676112 4.12554 2.60419
0.283097 0.282825 3.52691
4.89687 -1.88539 3.48038
2.32333 1.47721 3.49206
2.5519 4.07896 2.52554
1.09879 2.8046 2.72851
0.836632 1.26023 3.60153
-0.62858 1.55693 3.18007
-0.726352 3.85957 2.23135
-0.846175 2.7275 2.52134
-1.32186 0.653989 3.23863
2.17717 2.36453 2.9322
4.46819 0.914778 3.50296
4.42171 -2.0261 3.62126
0.0713715 1.24491 3.81275
-0.882838 3.59153 2.40112
-1.02789 2.32917 2.61777
3.20017 -1.23076 4.02039
0.696448 2.26695 2.71493
0.469354 3.78017 2.56746
3.69824 0.565174 3.60882
-0.864298 0.537405 3.21084
-1.04164 3.66197 2.31869
-0.622822 0.177502 1.12471
0.0156137 2.42733 2.62073
-0.400125 1.24636 3.60895
0.97171 1.03171 3.57431
1.85105 1.30288 3.57757
0.212004 3.9059 2.5227
3.66346 2.82681 3.00528
-0.188499 2.50556 2.52045
-0.27622 0.902362 3.55086
1.35839 3.97961 2.58691
3.3708 0.948193 3.57721
4.80232 -1.98333 3.46366
-0.554615 -0.618547 3.26261
1.48865 2.61306 2.92332
1.74186 4.00287 2.57882
-1.15724 -1.50635 2.81232
0.87001 2.71326 2.68298
3.99038 1.09243 3.36986
0.277938 -0.29546 3.27621
0.703941 1.57214 3.53351
0.129799 -0.64496 3.2296
-1.57766 0.245688 2.71019
-0.405917 2.63916 2.5422
0.0216996 4.01928 2.43525
0.166978 -2.39824 3.22871
1.88533 2.94609 2.85708
0.491334 1.72312 3.29118
3.42276 -0.386398 4.33231
1.52471 4.07512 2.48776
-0.296778 2.80653 2.58002
-1.05482 -1.94747 3.10916
1.38958 1.65375 3.51266
-0.809228 -0.0521876 4.12175
-0.357524 4.03172 2.32232
0.851948 -0.58532 3.40956
4.69966 1.44103 3.39077
1.83273 -0.566282 4.73412
1.65766 4.18172 2.45933
0.098665 -0.837372 3.11216
-0.8336 2.85624 2.42138
2.09594 -0.421164 4.50887
2.87111 4.08693 2.74268
0.749744 1.74635 3.23139
1.9832 -0.78913 4.97869
2.43851 1.65588 3.24973
0.423943 -1.37302 4.64556
-0.794464 2.95223 2.37768
-1.63304 2.99398 2.46015
3.92059 -0.798706 3.50727
2.16711 1.63728 3.31082
-0.55262 -0.577702 4.24187
-0.794372 3.01119 2.49
-0.983554 0.372287 3.0483
0.555183 -1.72231 3.03249
2.01302 0.00748736 3.68604
0.39591 -1.14422 4.79838
-0.164966 1.94924 2.87946
1.07638 4.45918 2.48428
0.155966 3.17451 2.53513
4.81286 -0.680437 3.41403
2.37043 -0.907417 4.61372
1.56529 1.87361 3.20757
3.97517 -0.626735 4.12203
3.99791 0.412777 3.5661
0.335896 -1.04217 -0.98536
0.354776 3.09737 2.53318
-0.145297 3.75987 2.4524
-0.140841 2.53774 2.65167
3.45177 2.26436 3.17143
4.16833 0.870195 3.61455
-0.822285 -0.910058 3.99847
-2.30709 3.74337 2.49263
3.79044 0.746106 3.57137
-0.894504 -0.7268 3.22889
1.95681 2.51122 2.98318
3.107 -0.908704 4.41145
1.10082 3.91537 2.59
3.9242 -1.38511 4.37746
3.47393 2.56492 2.92905
-0.520419 -0.167209 3.2431
-1.40967 0.094651 2.69254
-1.59932 3.47187 2.41497
-0.645098 1.47191 3.31752
1.40816 4.01061 2.61678
-1.90577 2.36254 2.73816
3.45134 2.52228 2.90816
-1.32765 4.02053 2.30445
-0.827718 3.71356 2.22942
-0.466831 1.41762 3.50368
-1.56181 0.0672061 2.90792
0.463658 -0.510675 3.26535
-0.467145 3.95646 2.36696
2.53687 2.71794 2.88577
2.55668 3.58426 2.82765
1.11411 1.49984 3.37245
0.765446 4.21306 2.54791
-0.274226 1.8231 3.28543
0.314031 -2.39704 3.22936
-0.0528971 2.7554 2.47438
-0.612267 4.12226 2.32105
3.47256 1.21312 3.36322
-0.378905 -1.54234 3.15191
-0.464021 2.74674 2.50693
2.72096 3.01037 2.89982
0.626247 -1.70618 3.09105
-0.118323 4.11704 2.33599
1.64669 1.6863 3.25876
-0.190874 2.87064 2.42666
-0.796102 1.24385 3.287
3.63762 1.47887 3.49832
2.85925 4.70059 2.74004
3.68824 -0.162382 3.81962
-0.828616 0.281069 4.15001
0.785707 2.92341 2.64444
4.28416 1.39374 3.40539
-0.80118 3.02154 2.38219
-0.865124 -0.318322 3.34727
1.26883 -0.00197178 4.56947
3.25613 1.62516 3.21083
1.05139 4.53312 2.48739
2.14599 0.292977 3.75769
0.699188 3.09276 2.62378
2.34115 0.0223223 4.12917
3.28569 1.58159 3.33474
4.0516 2.09316 3.06088
0.38714 -0.582862 3.306
1.9073 4.42541 2.53873
2.01278 -0.429421 4.57676
0.0802459 -2.14759 1.94251
-0.479998 0.881779 3.16002
3.49571 -0.792019 4.1975
4.01401 -0.436017 3.69812
-1.25007 -0.283811 4.11158
1.2008 3.33479 2.76189
0.766157 -1.96207 2.02928
-0.546589 2.04073 2.95505
4.92178 0.56439 3.37369
0.411305 2.03975 2.90994
2.12309 4.16807 2.65668
-0.476668 3.26551 2.45147
-0.274332 -0.8558 4.99935
1.34945 1.99022 3.1154
4.0693 0.57627 3.48234
0.421439 -0.674714 4.7872
-0.769264 3.21801 2.43594
4.21751 -0.385024 3.93614
-0.498585 -1.53673 3.15096
0.937092 2.95515 2.68359
0.83739 1.73075 3.24017
3.63276 -0.187048 3.87932
1.27641 4.15399 2.48157
3.16991 -0.431951 3.80435
4.08546 1.33335 3.49804
-0.55252 1.09021 3.40712
0.862542 4.23536 2.46331
3.82731 -0.066898 4.00549
0.25572 2.79506 2.53333
3.66023 -0.0280195 3.79196
-0.661857 3.0129 2.43593
-0.649169 1.56848 3.15798
0.346197 -0.761749 3.28587
-0.222417 4.52902 2.19145
2.96532 1.55991 3.22361
1.67072 3.18876 2.89471
3.97579 1.88896 3.29397
2.70386 -0.292573 4.3019
-1.32029 -0.724546 2.78813
1.89497 1.69633 3.32322
1.32326 4.53885 2.50465
0.682444 1.92805 3.11298
1.65549 -1.93413 2.45849
-0.397812 -0.628777 4.57342
3.0554 -0.172098 3.83565
2.1245 3.32339 2.88408
1.95896 4.24116 2.5503
-0.535532 -0.385799 4.68657
4.51425 0.808113 3.41292
3.43139 2.34848 3.05235
3.69036 -0.847089 4.23572
3.31959 1.78512 3.10729
2.88038 -0.998979 5.09979
0.03039 -2.26785 2.00034
3.73751 -0.343342 3.7898
-0.978124 3.24691 2.45249
0.487288 2.00614 3.0844
3.55788 -0.787133 4.39101
2.2503 3.31397 2.82236
4.03671 -0.804258 4.07795
-0.345622 1.14065 3.22807
1.26218 3.50439 2.71193
1.63036 2.10369 3.09255
0.722398 4.72451 2.38081
-0.986075 1.2435 2.97777
1.85029 2.09194 3.22831
-1.02324 4.3586 2.15714
-1.73156 3.03949 2.38871
1.68496 3.48533 2.79582
-0.480685 0.591852 3.07837
1.7682 0.828042 3.84649
4.02987 0.272475 3.73336
0.846044 4.71955 2.50913
3.19014 -2.32944 3.59838
0.371872 2.27113 2.87463
-0.1009 3.4049 2.47048
0.325702 4.39503 2.42569
-0.461842 0.0773308 3.03052
0.287038 2.222 2.91843
-0.851486 3.46016 2.40643
3.97446 -0.292341 3.69295
-1.26077 0.421049 3.83797
-0.378675 4.33206 2.27182
1.20866 0.94135 3.60444
1.72847 3.72597 2.72658
2.41055 2.2385 3.04978
-0.767683 -1.3906 2.86643
3.55804 0.483382 3.90376
-0.634014 0.903012 3.63934
-0.469514 2.35229 2.58221
0.369517 3.70148 2.55114
-1.13601 3.57013 2.4009
0.214556 0.251436 4.38448
-0.727832 3.60828 2.36212
4.03764 0.12901 3.96014
-0.136931 0.873787 3.85665
0.170821 0.883248 3.39618
-0.828847 1.03189 2.54625
-1.06278 2.04084 2.58388
-0.0287828 2.3336 2.70815
1.77485 -1.59227 4.66164
1.71554 0.391239 4.31625
2.21721 1.79045 3.42091
-0.34312 1.47846 3.32323
3.50161 -0.105454 3.84049
-0.585864 3.07995 2.50557
1.23748 1.83642 3.38348
0.892901 4.64954 2.37528
0.881766 3.03262 2.68162
1.06711 0.352218 3.50334
-0.862761 -0.168471 3.32248
3.44022 -0.0539105 4.19847
0.528272 3.23738 2.6094
1.45439 4.36178 2.49947
3.54228 1.75912 3.33965
3.46295 -0.2604 3.82703
4.59 0.792605 3.39048
5.01626 0.554404 3.36918
0.355104 -1.04628 -0.96534
3.69423 0.0563314 3.76222
2.83048 1.70896 3.25773
4.26979 -0.595775 4.14116
3.02272 3.45516 3.08261
-0.214978 0.769264 3.24814
-1.05887 3.34201 2.48293
1.57622 4.63217 2.51904
2.12093 5.25368 2.65259
3.43355 -0.393152 3.97964
1.11167 -0.0463317 4.51885
-0.643345 2.136 2.85836
2.16083 3.3902 2.82408
1.0075 2.0529 3.14111
4.06525 -0.255898 4.00628
4.47422 1.11137 3.3589
-0.414066 -0.0457213 3.03614
2.43414 -0.617122 4.38154
2.3745 0.188981 3.79837
0.924357 3.42966 2.64201
1.19271 -0.372361 4.66435
3.92835 1.94135 3.11061
4.1007 0.40914 3.7629
0.239822 -1.93829 1.80992
-0.267055 2.21035 2.72968
-0.624996 3.47463 2.48976
-1.63429 1.66292 2.84182
3.90166 0.0247927 3.84957
-1.05779 3.50478 2.44556
-0.0611748 2.20565 2.8434
0.690496 1.17959 3.5865
0.125538 -0.840635 3.24705
0.398664 4.6632 2.35638
-0.621036 -1.95252 2.84588
0.0218201 0.162994 3.45035
-0.573999 3.54749 2.43614
-0.753799 2.38533 2.68157
2.59251 5.23331 2.68954
3.79908 0.586583 3.71303
-0.510157 -2.26806 2.82958
-1.31585 2.39891 2.79877
4.09731 1.42948 3.32973
0.585341 2.24441 2.78656
0.123321 3.64596 2.49831
2.9898 3.69331 2.86079
-0.114155 2.46936 2.66845
4.49609 0.541853 3.51664
2.63085 0.940647 3.55839
-0.129557 0.759066 3.92869
-0.0690714 3.66644 2.45213
3.50619 2.25575 3.16384
1.30707 2.3972 2.85934
1.78879 3.89538 2.67735
2.66543 0.839472 3.55778
-0.714549 -0.427302 3.26077
-1.1789 2.90668 2.43571
-0.458265 3.75156 2.37128
1.64957 0.460745 4.08158
-0.944555 -0.0765633 1.57934
1.77947 2.5589 2.91369
-0.264641 0.618877 4.14987
3.57939 0.936337 3.65741
-0.149514 -0.215068 3.17483
1.30368 2.20172 3.06349
-0.725377 -1.85153 2.82089
-1.05333 4.19909 2.20545
-1.14588 0.272044 2.84909
-0.877873 3.35611 2.37568
-0.336148 2.10797 2.75938
-0.129745 -3.0473 2.58866
3.93114 -0.277644 3.91859
2.07217 3.51129 2.7877
3.38205 -2.43914 3.62325
-0.679879 0.882827 3.09179
0.33938 4.61496 2.33961
0.809437 2.23523 2.81355
3.32569 3.50017 2.89969
1.97198 3.6687 2.77588
-1.1192 0.772692 2.84778
-0.140854 4.18729 2.16472
2.30587 5.13929 2.67256
-0.584744 2.2478 2.70776
1.27473 3.70729 2.68095
2.72129 0.561834 4.08294
1.67643 2.38569 2.89839
-1.38534 2.73819 2.68986
1.79125 3.77828 2.7022
4.41016 0.699697 3.73689
4.03482 0.736124 3.48764
0.571699 0.860302 4.15296
0.909819 2.26071 2.74742
-1.0303 4.31921 2.17855
0.996183 0.881403 3.96012
1.81892 3.86693 2.71405
3.29157 0.916562 3.75084
1.06261 0.712428 3.55928
2.18477 2.45036 2.95081
1.25103 0.419499 4.19743
0.0546344 3.78554 2.47395
0.983464 0.935813 3.56838
4.1357 0.231987 3.98208
-0.938322 0.57112 3.24053
3.07084 0.998355 3.43693
0.312095 4.12814 2.47919
2.43698 2.59644 2.92525
-0.407367 0.929374 3.4725
3.20328 3.09442 2.98414
0.52914 4.00556 2.55897
2.03462 1.22291 3.66331
-0.681655 -0.740132 3.2423
5.30008 -1.52594 3.2989
-0.629273 2.58458 2.64574
2.37981 -0.758439 4.48183
0.328533 0.553367 3.6314
4.09674 -1.16048 4.44936
1.09645 2.73095 2.73472
-1.27331 -1.0838 2.83879
0.593177 1.68373 3.54561
2.16667 4.21222 2.7641
2.82404 -0.976437 4.82813
0.248654 1.65144 3.59481
0.367913 1.16409 3.69759
-1.14633 2.95391 2.39226
-0.506697 2.65879 2.56719
0.920427 4.18308 2.59064
0.214477 -0.485454 3.30568
-0.716166 -2.24369 3.13916
-0.552579 2.83179 2.50007
3.85793 1.25815 3.37682
-0.492788 3.9719 2.32434
-0.826643 2.66682 2.44693
-0.962536 -1.31885 4.42154
-0.328707 -2.11827 3.10887
2.74897 1.30614 3.33348
-0.248783 3.973 2.30249
3.72814 1.48689 3.54731
0.297706 2.86115 2.53967
-1.50335 -0.148963 2.90278
-0.326257 4.0439 2.22812
-0.908917 0.33699 3.19677
2.88384 3.67994 2.93043
-1.17578 0.0462107 3.83854
2.64564 1.46503 3.2813
-0.457086 2.98292 2.58644
3.48684 -0.725419 3.76542
-0.584818 4.05054 2.20416
4.90899 0.00192615 4.55624
4.11577 0.996721 3.45599
-0.44538 1.05438 3.42067
1.88241 -0.901606 3.29887
2.6765 4.6628 2.78139
-0.0516337 1.87503 3.05136
-0.609532 3.02424 2.46047
3.82494 -0.424351 4.08409
0.211381 -0.0481847 4.32509
-0.147563 1.88137 3.14789
0.666583 4.54396 2.49443
-0.414037 1.2832 3.27808
1.83709 3.11098 2.8411
-1.01076 0.727846 3.25317
-0.501111 3.09037 2.404
3.55851 2.00599 3.16469
3.8661 -0.843085 3.74795
2.12263 1.91496 3.29539
0.658998 -0.726135 4.9756
2.81647 2.06952 3.09122
0.416906 3.03692 2.49675
-1.54894 0.468347 3.0521
-0.16771 1.08944 3.31273
0.151638 1.93201 3.02627
3.22634 -1.02149 4.20957
1.09681 -2.07699 2.12509
0.951145 -0.448172 4.94623
3.38461 -0.887679 3.75278
0.00598242 3.26316 2.49141
2.99072 -0.605078 3.78197
1.27406 2.01692 3.06292
-1.52544 -0.162239 4.08863
2.17846 -0.695476 3.41049
0.134762 3.23673 2.5382
3.25626 -1.63224 4.29848
0.446914 -0.783656 4.64511
1.87421 1.97029 3.21146
-0.518451 2.10999 2.75967
0.583881 1.29435 3.59753
-0.726411 3.27178 2.38504
-0.979721 0.329797 2.79344
4.22327 1.25607 3.44076
2.83895 3.22288 2.93087
2.93924 3.79502 2.75527
-1.08004 1.00728 2.9137
2.91802 2.06858 3.05534
-0.244766 3.32171 2.40018
-0.0431058 0.742416 3.95157
3.8767 -0.287511 3.89033
-0.73866 2.16452 2.71251
0.288937 3.47441 2.51507
5.31513 0.380462 3.31204
3.9797 0.190509 3.70862
1.64907 3.73388 2.7425
0.851262 2.28172 2.78439
-1.19352 0.324739 3.8947
-1.46747 4.01478 2.29015
2.3054 0.908229 3.84316
-1.45167 0.861162 2.05337
3.28198 -0.298637 4.07348
-0.59619 2.36479 2.77468
1.05516 3.71618 2.61689
2.85602 0.635473 3.93854
1.55153 2.46106 2.9002
0.210531 -0.305202 3.36398
-1.34267 -0.10904 3.25562
0.325751 -1.25189 3.08942
2.53314 0.970946 3.61725
2.90254 3.84454 2.67337
-0.947567 0.370832 2.96092
-0.570089 1.1037 3.50301
1.06498 1.08043 3.59738
0.425004 2.39252 2.73352
-1.03264 0.142409 2.84779
-1.15539 0.253087 3.94247
-0.636282 3.61233 2.32067
-0.494784 0.92709 3.77135
-1.8042 3.13168 4.81892
2.10786 4.82053 2.63651
-1.9303 3.11859 2.38778
1.34217 3.40635 2.71664
-0.194033 0.512252 3.39159
4.13235 0.117013 3.81776
0.840836 2.01409 3.04188
-0.715142 0.874207 3.04788
2.0802 5.37137 2.67954
2.03362 3.44741 2.86217
-0.999772 0.582788 3.65984
2.61615 2.03839 3.07657
-1.42972 1.70908 2.82066
-1.01668 4.22896 2.20372
2.02307 -0.303997 3.5116
-0.242634 0.712579 3.98057
1.3815 3.55824 2.70861
-0.889377 0.197902 1.75841
2.27231 2.05197 3.14828
-1.4102 0.45563 3.32439
2.00882 -0.116296 3.65611
-0.291872 3.24495 2.40017
0.166641 2.2215 2.71049
-1.51192 2.01955 3.10971
2.01618 3.64379 2.76541
-0.155009 0.282007 4.25785
-0.503154 4.35647 2.25867
0.494904 -1.23715 3.14145
-0.628139 3.56607 2.44998
0.700283 2.18548 2.83171
-0.514648 0.403324 4.2445
1.04909 1.16143 3.57698
-1.30341 3.10071 2.52542
-1.07781 0.936225 2.74914
1.08538 0.121891 4.43235
0.0885891 3.64185 2.49449
0.0637944 0.945486 3.39425
2.20841 2.28233 2.98062
-0.687263 0.544149 3.05063
3.35609 0.57792 3.64245
3.13908 0.0946446 3.75068
3.49472 -2.42324 3.6169
2.54611 -1.08363 4.29938
-1.03671 3.61383 2.35529
1.50132 1.2347 3.73649
-1.21046 -1.2714 2.81458
1.20353 2.52457 2.90595
3.73666 -0.873805 4.00673
-1.01559 2.18755 2.49263
2.54159 0.91624 3.68118
1.4898 3.85682 2.63441
0.321932 4.5578 2.49059
0.989858 2.39939 2.82156
-0.884876 0.925058 3.2234
0.910604 1.49448 3.65011
-0.585881 3.71066 2.35686
-0.991388 0.0713658 1.58668
1.3731 2.57813 2.79226
-0.935381 0.0323258 3.27044
1.12115 1.3661 3.65081
1.63469 3.95858 2.5972
3.62138 -1.4323 4.25789
-0.158444 0.860071 3.58492
0.178885 2.41124 2.56129
0.353301 0.248998 3.50876
0.370333 0.933032 3.70477
2.45863 2.74014 2.90483
1.94965 1.37136 3.45082
1.3287 4.01034 2.56412
5.38706 -1.6479 3.06131
0.183945 0.766053 3.61701
0.689024 2.60845 2.65451
1.07145 4.08373 2.54578
2.57517 3.6887 2.71991
3.88544 0.997295 3.51125
-1.34477 0.682691 3.26153
0.412131 2.81182 2.58662
2.06118 1.53602 3.42708
3.17566 3.14584 2.96865
-0.0764895 3.95376 2.35163
1.21568 2.79069 2.73417
-0.456904 -1.33641 3.17072
4.48469 -2.28235 3.48028
1.05604 1.60352 3.37458
0.332722 4.14869 2.43905
-1.4321 0.650953 3.33097
-0.54304 -0.541062 2.98319
-0.98329 3.37486 2.40936
3.458 -2.32773 3.44482
0.0739773 0.748346 3.3645
0.401768 2.22093 2.94178
-0.501148 -2.51263 2.79478
1.43635 3.69539 2.765
-0.74135 4.18397 2.10399
0.667621 2.2493 2.81311
3.0397 3.70797 2.74177
2.43711 2.14823 3.06873
-0.0758368 3.53899 2.47007
-0.575271 0.850922 3.08864
-1.19164 3.73835 2.33916
1.65328 3.76876 2.69531
1.91378 0.986455 3.62929
3.39448 0.483347 4.0032
1.75874 2.3762 2.92978
-0.269866 -1.41557 3.86212
-0.906964 0.796434 3.74347
-0.466608 3.63189 2.40615
-1.64543 3.57485 2.40157
-0.833821 0.716477 3.84346
-0.433412 2.36121 2.70065
-1.03657 2.2323 2.48107
4.25847 0.661215 3.51707
1.05729 0.860264 3.58934
2.32518 2.48744 2.92119
3.47647 0.36802 3.90885
-1.03594 2.67739 2.62436
4.01442 0.707704 3.20987
1.59629 3.87724 2.66489
-0.920328 0.159718 2.90902
1.12773 2.48578 2.87335
3.50213 3.30635 2.7913
0.438288 -1.2252 3.13596
-0.692139 1.00822 3.65589
1.48842 3.90399 2.60813
-0.762864 2.62217 2.50623
-0.725058 -0.872159 3.22721
0.194833 -2.95098 2.77512
-0.701154 1.43003 3.32178
1.88543 -0.823755 4.88732
1.81395 3.97984 2.62091
1.80666 2.64006 2.92452
1.52224 -0.566451 4.42068
0.26257 0.338069 3.46031
3.83492 0.926991 3.53742
1.6885 3.99231 2.58627
4.41292 1.14471 3.66277
-0.984381 -0.992697 4.18879
0.23558 2.60954 2.54128
-0.995635 3.70394 2.20185
0.999794 4.67278 2.44441
-1.32433 3.92138 2.30759
-1.14492 -0.892706 4.27282
4.39088 1.41154 3.24676
-0.645114 1.77233 3.16341
1.3187 4.10264 2.51492
4.09831 0.617026 3.47704
1.61963 2.94224 2.84652
-0.7134 -1.8573 3.14239
-0.00318949 1.80557 3.45332
-0.657982 3.56565 1.87756
0.546173 -0.613236 3.39952
4.13689 -1.4834 4.54219
0.811283 2.74325 2.66311
-1.0074 -1.84573 3.11622
1.21351 3.04127 2.73131
-0.225899 1.04395 3.53183
5.50511 -1.47602 2.97588
1.02295 4.20443 2.45256
2.08765 1.64617 3.31713
2.24803 2.95727 2.8383
-0.760779 1.30502 3.21159
2.56147 3.691 2.74695
2.18898 -1.28267 4.48059
3.14549 1.35262 3.26185
0.981001 -0.980467 4.77202
5.26176 -1.7845 3.26304
-0.751238 2.63161 2.68756
3.82027 -0.839149 4.22432
-1.32149 -0.689317 2.72144
1.19371 3.90752 2.58894
1.46553 1.29607 3.64439
-0.994934 -0.0888202 3.25433
-1.93842 3.61988 2.42927
1.37795 1.40638 3.48248
-0.760552 3.73144 2.29331
-0.645975 -1.38417 4.33367
0.430049 2.53535 2.55962
-0.256603 0.643989 3.47151
0.412989 4.03134 2.53289
-0.839824 1.3956 3.44099
3.12757 -1.07475 4.028
0.81623 2.54826 2.69808
-1.26082 4.08731 2.27552
-0.539802 2.72305 2.48308
-0.929027 3.8048 2.25715
2.88211 1.34552 3.44559
-0.79847 1.51481 3.28184
-0.594595 -0.0176774 3.30618
-1.16731 -1.67561 3.16053
1.26817 -0.728148 3.34428
0.320289 2.6128 2.5408
1.86268 4.15135 2.57616
1.19001 -2.08467 2.3489
-1.02769 -1.51943 3.14663
1.96877 2.97457 2.8214
4.35331 0.286139 3.43819
1.87292 1.57588 3.29928
-0.765583 3.9213 2.16118
1.43049 2.91831 2.79691
2.56984 -1.28834 3.81657
4.10325 2.06439 3.02631
0.577441 1.67078 3.27067
-0.780653 4.001 2.16119
3.30874 0.171459 3.86097
-0.52131 1.61253 3.20711
0.191186 -1.25037 4.58012
3.26976 0.317661 3.98274
2.65934 -0.110742 3.80671
4.03997 0.658753 3.50107
-0.70061 2.98371 2.50062
2.31219 1.60401 3.29108
3.18751 1.60881 3.19133
1.0618 4.37377 2.47655
-0.51621 3.09498 2.46934
3.87711 -0.279654 4.18187
-1.19421 0.988142 3.04218
-0.783931 2.04363 3.16217
1.96633 4.17554 2.56012
1.6016 3.19525 2.82749
4.56719 1.38345 3.33456
2.81673 -0.44502 3.7909
0.625966 0.0942493 4.55056
0.863625 -2.09334 2.87794
1.40324 1.96054 3.10673
1.38114 4.43297 2.50345
-1.17038 -0.378236 4.43223
-0.762864 0.690971 2.93715
-0.527991 3.14841 2.40292
4.95529 -0.106187 3.45202
3.46847 1.73704 3.3107
4.79218 0.302222 3.935
3.64655 0.0621277 3.80302
2.26315 -0.259667 4.29989
2.09357 3.35837 2.85612
0.145132 -0.767028 5.21452
3.72524 2.25923 2.98149
1.22291 0.571506 3.54235
0.39547 3.37318 2.56005
2.58832 2.01788 3.16709
1.33307 4.66812 2.51507
-0.234939 -2.15888 1.56494
4.03187 0.062166 3.74885
-0.546256 3.223 2.42013
3.79762 1.90224 3.29108
3.52722 -0.849372 3.74227
-0.416062 2.67809 2.53954
3.8073 -1.76534 3.83907
-0.621649 -0.669278 4.5519
2.07406 1.3051 3.39467
-0.816184 3.75406 2.26057
-0.546947 2.61582 2.54095
0.608318 0.843553 3.68944
0.30862 1.66132 3.66278
-0.37195 -0.417868 4.42144
0.104739 4.00517 2.45563
2.97613 3.69323 2.98468
-0.949409 -2.03942 3.136
-1.05542 -1.24475 2.80721
0.826232 -1.03756 4.93135
-0.0501031 2.61889 2.45629
0.168536 4.10909 2.47406
3.53649 1.17351 3.32878
0.728426 -2.6217 2.79728
4.44439 -0.862917 4.50883
-0.944484 -1.01536 4.10844
0.469774 4.19075 2.4735
0.114486 1.79968 3.24301
-0.907047 -1.96861 3.10591
0.394951 2.89682 2.60131
2.4882 0.225542 3.81282
0.29334 4.19269 2.41783
3.98814 -0.585395 3.71233
2.60281 1.44357 3.41074
1.36375 2.92474 2.81826
4.1724 1.78015 3.38048
1.13671 -1.15283 3.08452
0.129102 -1.22974 4.55979
3.02138 1.48711 3.17343
-0.21505 3.00551 2.48454
-1.30611 -1.38844 4.23023
-0.872445 1.54011 3.15449
0.486397 1.74903 3.10621
1.76525 4.53553 2.53153
-0.986661 0.109614 3.02883
4.73148 -1.75664 3.22525
-0.0821909 2.92726 2.50219
5.09548 0.443419 3.35129
-0.116366 3.14422 2.49422
0.856805 4.40329 2.47577
1.3829 1.95126 3.2138
-1.1868 0.39621 3.86214
-0.665971 3.06427 2.4368
4.02235 -0.540841 3.68635
4.91921 0.443609 3.37353
3.09767 1.62805 3.23885
0.297944 -2.02317 1.86064
1.00272 0.641584 4.14153
1.2191 4.49162 2.48795
1.58474 0.809034 3.67368
2.77048 0.122688 3.79327
3.45759 3.22724 2.85585
1.63229 3.36745 2.77592
0.540364 0.351472 4.35451
4.01874 0.728599 3.47084
2.24125 1.90878 3.19878
-0.385872 2.1144 2.79006
3.26078 -1.64541 4.34986
0.152267 0.0653562 4.3374
-0.802956 -0.387187 2.9847
0.877212 3.48261 2.68373
-0.596726 -2.75239 2.7513
0.181649 -2.38113 2.99176
1.11006 2.10802 3.14072
-0.0648202 3.26093 2.48822
3.00136 3.68038 2.73933
2.17959 5.07631 2.40738
1.37215 -0.249667 4.49763
2.09178 3.5997 2.80431
-0.388911 2.12584 2.62029
-0.573018 0.924338 3.08339
-1.33837 0.139386 3.31024
1.0923 -2.03334 3.07076
4.67108 -0.263031 4.37463
0.583286 3.53555 2.59132
-0.907487 2.32674 2.8713
-1.13306 1.53624 2.94569
0.836872 -1.31294 4.31238
3.36665 -0.130273 3.84978
-0.00642242 3.08058 2.49061
-1.06363 1.30449 3.17063
2.63322 0.379169 3.89196
2.22354 1.73915 3.19045
2.07033 4.08313 2.68811
2.90993 0.462256 3.89336
1.0813 3.11212 2.69704
4.20676 1.94066 3.10192
2.66886 -0.406817 3.77442
0.744395 1.87244 3.2091
1.91896 4.34996 2.55694
3.63806 1.68274 3.18942
2.15597 -0.314593 3.59236
-0.715148 0.100243 4.2985
-0.197918 3.11397 2.45304
1.82095 4.37459 2.51875
4.76311 1.3622 3.3507
0.908876 0.216505 4.51127
3.0784 -0.543681 3.79722
-1.12408 2.21305 2.94314
-1.97435 3.04995 2.44059
1.76965 2.06908 3.2086
-0.21168 1.51254 3.30781
0.709298 3.37872 2.64475
2.89757 1.78223 3.14172
-0.361537 1.33735 3.24173
0.684329 4.62324 2.37506
3.32636 -0.254722 4.27087
1.40448 3.36616 2.74677
2.46716 -1.45625 3.36337
-0.983506 1.41654 2.91135
1.05648 -0.413383 4.81192
4.59061 0.772616 3.413
0.71031 2.17383 2.94148
4.03079 0.185383 3.79118
0.0185992 2.07227 2.80773
1.15045 -0.232308 4.6054
4.23746 -0.369411 3.82454
0.611374 -2.03447 2.03899
-0.0553969 3.34466 2.49651
0.883054 3.5251 2.65291
-0.696649 2.34601 2.7498
3.7533 -0.0732877 3.77057
0.654349 -1.0927 4.30459
0.448154 0.369909 3.42492
-0.903657 3.46127 2.41961
-1.16925 -0.729062 2.84369
2.76776 -1.55807 4.2944
0.62611 2.15511 2.7926
-1.01497 3.55688 2.4276
-0.905551 1.01666 2.77311
0.429609 1.0832 3.56111
2.07116 2.30555 2.99838
0.528104 3.67595 2.55184
-1.32279 0.364827 2.90006
0.53947 1.28428 3.5977
1.72299 0.984328 3.833
-1.32351 2.75032 2.62089
1.93026 1.06119 3.58632
1.52597 3.79873 2.6616
0.600324 2.34625 2.64601
4.78225 1.24674 3.24186
-1.16123 -1.81091 3.40911
-0.262091 3.72468 2.43796
3.62314 0.615015 3.61149
-1.89684 3.65203 2.44022
-0.800568 1.22559 3.29953
1.47996 2.40612 2.91635
3.90147 0.307474 3.81803
0.138831 3.9667 2.57589
0.00272488 -0.644975 -0.562761
1.52593 2.6328 2.87999
-1.06394 0.449652 3.22127
0.827595 1.44774 3.57749
3.77957 0.765994 3.44416
-0.857935 -1.11843 2.89424
1.70649 0.794127 4.11962
2.63 2.50038 2.96674
0.0125937 0.85872 3.64519
-0.805054 3.70654 2.28364
2.45155 3.37332 2.84332
3.33782 2.06091 3.191
2.00222 4.85676 2.61269
1.39992 0.577434 4.04742
-0.684626 2.0783 2.89787
4.23564 1.45421 3.44125
-0.397506 0.51731 3.30194
2.90093 -0.620501 3.78507
1.42552 1.88914 3.15708
-1.49753 2.74599 2.73787
3.99322 -0.42144 3.94408
1.7531 3.32091 2.80776
4.78653 0.494228 4.15398
2.78652 0.452562 3.84847
0.144254 3.39005 2.55813
4.29155 -0.633768 4.10969
-0.687135 -0.208459 3.00642
0.242262 -2.23793 1.90252
0.645413 2.07321 2.90347
0.073154 3.2555 2.50599
3.98064 -0.0569232 3.87961
2.50647 1.96164 3.21532
1.99645 0.541125 3.75843
-1.13646 0.234061 4.31727
-0.611658 -0.903301 2.93338
-1.06345 0.111601 2.85722
0.782724 3.51575 2.64378
-0.745171 0.233532 4.09918
2.10827 -2.37676 3.60167
2.09623 2.03183 3.00396
4.85414 -1.05535 3.86659
-0.444868 1.17247 3.18127
1.71877 -2.30501 3.60611
-0.156893 3.40197 2.42694
2.63399 2.17398 3.04338
2.5067 -0.158408 4.40197
-0.324834 0.0758395 4.31437
0.10051 2.20812 2.80565
-0.695053 3.53083 2.42631
-0.0180244 4.55077 2.25847
1.87024 -1.63808 4.26647
3.87502 1.98155 3.15374
0.0169401 3.64995 2.51499
1.42168 2.37548 2.88966
-1.35537 3.18261 2.3544
1.14894 1.07377 3.73147
-1.11975 -1.54025 2.81246
4.59489 0.516327 3.52066
2.58015 2.25694 3.02214
1.15369 3.76431 2.62446
-1.12616 -1.36204 4.22576
1.71827 2.52223 2.91059
-0.370839 -0.10121 0.678015
-0.863972 0.888381 3.24627
3.78979 0.784347 3.422
0.772949 3.87336 2.618
0.39381 0.412255 3.42308
0.24392 0.27011 3.51552
-0.511502 0.469771 3.36969
1.74906 2.45103 2.94566
-1.57263 0.82901 2.80559
-0.746907 3.63182 2.28719
3.92892 0.717103 3.55377
-0.832198 -0.960147 3.24573
3.52357 2.81344 3.03359
0.579017 3.99314 2.57277
1.27305 2.56296 2.77633
0.502231 -2.69375 2.72085
3.95796 0.89877 3.51911
3.35239 1.12167 3.43901
1.05114 3.98999 2.54344
-0.0832536 -0.378932 3.24005
-0.701847 0.783536 3.76886
1.03109 2.70458 2.73043
1.68162 4.04791 2.58011
4.23886 1.00469 3.44625
0.343394 0.074835 3.37624
-0.140928 2.56417 2.54291
4.22825 -2.21289 3.56428
3.68927 -1.51975 4.06707
0.513169 2.31629 2.78023
0.0869686 -0.786141 -0.710742
0.507054 3.61457 2.57862
-0.470599 2.33573 2.77039
-1.24054 2.35714 2.80566
0.864761 -0.000742543 3.55242
1.174 3.69732 2.62794
-0.280513 2.41084 2.62016
-1.18699 0.202086 3.27628
-1.46837 0.128129 2.77273
-0.365701 3.64405 2.42872
0.810207 1.12432 3.96069
0.664755 0.659118 3.5087
1.02998 2.36975 2.81466
-0.897214 1.2777 3.29654
-0.562902 -1.80539 2.86857
1.71815 1.12506 3.85117
0.677325 3.82784 2.57822
0.0632994 1.04158 3.40604
1.81258 1.16817 3.56925
0.637856 -2.64865 2.75725
0.552906 2.42818 2.62534
4.13717 1.23644 3.43872
1.51696 3.88754 2.60528
-0.560311 0.185024 3.32366
3.11836 0.690775 3.96514
-0.553768 1.44983 3.3568
0.814897 4.07485 2.63935
2.13269 2.67571 2.90775
-0.122843 0.683918 3.4509
-1.11711 -1.54703 2.81161
1.49257 0.913779 4.0833
0.275236 4.07624 2.56006
0.0498301 1.47301 3.41143
-0.722104 2.53458 2.52458
0.372792 -0.00965768 3.43187
0.38266 0.189944 3.52461
-0.745644 2.79388 2.55157
4.69866 -0.511088 4.09004
1.16619 1.57694 3.39629
-0.379669 3.82144 2.29666
1.54615 -1.33694 2.9861
-0.290384 -2.3437 3.17097
2.30055 2.76532 2.93025
1.77335 4.0838 2.53154
1.77021 -0.302309 4.50502
-1.07242 1.45093 3.44258
0.703643 -2.59406 2.30399
-0.367447 -1.23549 3.1476
0.331926 2.86697 2.5737
-0.470965 1.87844 3.22462
2.61832 3.65957 2.74242
1.76589 4.11125 2.49752
0.527694 2.78682 2.5918
2.21858 -2.44856 3.61552
0.014204 -2.91342 2.77754
0.721161 1.62007 3.22907
2.72111 -0.674156 4.46547
-0.290491 1.89905 3.15805
-1.14156 -0.760677 4.00704
1.6096 4.18687 2.48474
1.23616 0.0709643 3.46423
0.70877 3.0014 2.64623
3.9743 -0.890242 4.72013
0.628498 -0.820539 4.744
3.31312 -0.553877 3.79243
-0.863875 1.47771 3.1577
1.48505 4.58579 2.51261
1.79427 0.227232 3.67752
0.359994 1.91204 3.07501
-1.6862 1.46166 2.87289
-1.10598 -1.43365 4.33299
-0.0938237 3.08658 2.49249
2.84153 1.5837 3.26018
3.38341 -1.12072 4.19458
1.11191 4.54331 2.49067
1.80615 3.16087 2.81124
4.3792 -2.08174 3.71956
-0.35186 1.21171 3.62588
0.874578 3.81364 2.63959
1.06054 2.43406 2.81803
-1.30818 0.874714 3.27542
4.66949 1.25035 3.17111
2.17211 3.88969 2.71265
1.3178 1.0942 3.87244
-0.478929 -0.0331897 3.37243
-1.12272 -1.53851 2.81271
-0.761718 -1.05798 4.31561
1.52878 2.40558 2.93981
1.37768 -1.391 0.0956932
-0.315391 2.54836 2.5715
-0.792747 0.756344 3.25187
2.70562 1.06577 3.49935
0.669887 3.94247 2.59918
3.95726 -1.53654 4.34665
1.11863 2.55763 2.86071
-0.112676 -0.00358763 3.28406
-0.956413 -1.32061 2.88017
-0.254481 1.31027 3.56721
0.487558 3.9994 2.57621
-0.777844 2.72089 2.55251
2.36171 4.14701 2.73363
0.217853 -0.63115 3.29132
0.804666 1.55024 3.45631
0.0887531 4.06437 2.54566
0.201611 2.52496 2.54849
0.208671 -0.130802 3.2794
0.413088 4.05191 2.50671
3.39573 0.962634 3.34963
0.768737 1.57847 3.32026
2.08289 2.81594 2.88186
0.665027 4.08235 2.49536
3.78838 2.42363 3.02441
-1.01553 -2.17462 3.12265
1.06099 -2.62684 2.93979
0.166698 1.83803 3.29869
1.15115 4.16017 2.50441
-0.596059 0.0569576 4.17395
1.76226 0.0755193 3.59663
-1.07169 3.08566 2.40866
1.31376 2.97222 2.78373
-2.38571 2.69493 6.39351
0.161021 4.13451 2.37731
1.42975 0.00418575 3.41688
0.486326 2.76204 2.577
-0.270181 0.933436 3.49935
1.87773 3.1683 2.84015
1.55706 -0.287938 4.6601
0.892674 -0.849414 4.75542
0.0495974 1.89742 3.1349
1.23391 -0.792463 3.33539
2.44087 5.40382 2.69579
1.5181 -1.52114 2.96089
4.2361 1.59502 3.28242
3.98097 -0.320072 4.17163
1.01197 1.80552 3.30034
2.01435 4.70094 2.63259
-0.376269 2.94239 2.50613
0.480119 -2.13305 1.94356
2.37846 3.29137 2.83475
2.04767 -0.708467 4.99775
1.9767 4.15099 2.59578
2.4814 1.814 3.26332
2.92354 -1.95089 3.74234
-1.03883 -0.417775 4.21638
-0.598609 3.10721 2.48973
4.4705 1.67023 3.31385
1.6315 0.522646 3.63762
-0.436743 1.93969 2.98625
0.700059 4.53103 2.49413
3.73654 -0.261073 3.77185
1.22008 3.33537 2.72561
4.57084 -1.05874 4.80964
3.9925 -0.734662 3.90177
0.0395444 -0.818103 4.72031
0.351757 2.05262 3.03841
2.87866 0.185272 3.83028
3.19922 1.31195 3.3465
1.06678 4.07528 2.49763
-1.28354 -0.303557 4.08882
-0.0941825 -2.37623 3.23557
-0.123868 2.75019 2.50149
-1.39924 0.961389 3.20559
3.26289 1.22234 3.37082
-0.694811 -0.145756 3.0147
-0.687262 3.90509 2.18493
0.742724 -0.600234 3.40646
-1.21211 -0.037957 4.12774
0.708301 2.72529 2.63267
-0.315148 0.982499 3.50449
1.80346 3.07341 2.83445
2.79275 -0.531285 4.23958
0.977336 4.18556 2.44759
2.81332 1.50408 3.26927
5.40284 -1.40585 2.98329
-0.13228 2.87084 2.52499
4.31606 1.52576 3.33787
2.99897 3.62129 2.9915
0.769196 -0.854063 4.7187
3.50769 1.41417 3.46086
3.98785 2.27174 2.9902
1.6438 -0.767596 4.50048
2.67022 4.46359 2.53727
2.07078 0.168901 3.7416
2.39743 -0.774064 3.48085
2.82567 -0.686432 4.40888
1.24278 3.14788 2.75727
1.23061 1.85477 3.3122
-0.827932 2.08146 2.99791
1.83783 4.5033 2.53497
0.675494 3.23983 2.64447
3.31975 -1.23355 4.74638
-1.53412 0.409505 3.01437
2.86429 1.63301 3.20237
4.63072 0.661628 3.76546
1.17327 -0.997957 4.84551
-0.564519 3.14076 2.51197
2.91812 -1.94933 3.74362
2.72032 0.0528363 3.81292
-0.168291 2.03212 2.8243
-1.32926 1.30843 3.39037
2.7705 4.23378 2.73001
0.831711 3.35122 2.64408
-0.653775 1.25315 3.13812
1.04227 -1.66998 4.65776
0.62724 1.99489 3.00769
2.13105 4.63763 2.62027
2.83169 0.740405 3.72316
-0.288636 1.53099 3.28261
-0.0234038 3.21514 2.51381
-1.00911 1.86183 3.04371
4.12147 -0.446678 4.0012
2.52206 0.591108 3.80128
-0.700607 2.15455 2.71967
3.94182 -1.04991 3.69234
1.65153 -1.89697 1.62081
-0.382019 3.33161 2.47502
3.54311 0.529558 3.84122
-1.29225 3.55943 2.25166
4.74105 0.88532 3.33967
2.03564 2.01213 3.11099
-0.480876 3.42482 2.48403
-1.25769 2.87281 2.45271
1.71805 0.31926 4.14287
2.1217 2.16593 2.9748
-1.71318 2.93153 2.70527
-0.526326 3.43596 2.42564
-1.19014 -1.28276 2.83187
-0.398355 0.458907 4.13447
0.382137 4.38117 2.25718
-0.870585 1.3432 3.07548
1.04251 3.65608 2.64537
1.1417 2.1696 2.91551
-0.556133 -1.94144 2.84765
0.338793 0.0448816 4.43541
-0.577819 2.35186 2.68766
-0.656509 0.420977 3.07839
0.892561 3.69646 2.61613
-0.238114 -0.218625 3.04197
-1.30984 3.04898 2.53487
3.54976 0.0295216 3.97582
-0.828965 4.05957 2.20425
-0.54866 1.92831 3.18648
1.99847 0.124279 4.16218
0.942475 -0.000194327 3.4605
-1.68002 1.43871 2.97752
1.47957 3.0664 2.79735
-0.384749 -0.825883 4.49106
1.17403 0.391331 4.33815
-0.9227 1.87375 3.26499
0.524617 2.86132 2.60168
-1.54469 2.05938 2.81959
1.92765 0.0543839 3.69358
3.99157 -0.352978 4.09799
4.62715 0.929902 3.34781
3.80464 1.58306 3.24214
2.50151 4.83861 2.73706
-0.687263 3.03836 2.42128
3.96473 2.16108 3.02587
0.22447 0.0326108 4.42799
-0.490589 1.93092 3.08138
1.08698 4.36911 2.4761
1.09181 -0.787726 3.34053
-0.0627667 3.00754 2.51301
-1.49483 0.233474 3.00285
0.950583 3.3344 2.69703
4.37279 0.571686 3.41124
-0.065679 2.01241 2.92431
1.88067 4.28448 2.5293
2.27063 -0.53171 4.38371
1.16393 3.22634 2.68301
2.3346 0.263734 3.77659
-0.310897 2.0593 3.04352
4.0044 -0.801486 3.92701
-1.03468 1.72586 2.95155
-1.03331 -0.275145 4.19247
0.528346 3.4225 2.60876
-1.10334 -0.493494 2.87153
2.37881 1.98072 3.11873
-1.21128 -0.6801 4.24701
3.89907 -1.17457 4.06276
0.97184 4.74115 2.37957
-0.0990807 -2.16975 1.75327
2.29305 3.40852 2.80777
3.09217 -0.737866 3.77183
2.10449 -0.719095 4.86617
3.30325 1.83949 3.20659
0.0639964 1.12056 3.35543
2.73125 1.98198 3.05118
-0.5514 -2.05945 2.84478
0.533232 1.15454 3.58784
1.22517 3.54121 2.7064
-0.514528 0.999506 2.62605
-1.29769 4.03734 2.15696
1.50537 3.67139 2.7633
0.344004 0.856029 4.18557
-0.101255 1.21453 3.39248
3.93004 -0.0261565 3.85648
0.72699 2.25302 2.84324
3.29758 3.48726 2.89911
3.98427 2.09143 3.17486
1.12369 3.69097 2.68716
-0.672491 0.0595399 3.03236
0.126981 4.26282 2.2311
1.86205 5.08958 2.61212
-1.48477 1.8056 3.22432
-0.818325 2.41884 2.64128
3.5959 0.410511 3.88645
-1.48069 0.0059041 2.69816
1.33188 3.72853 2.67213
2.91111 0.774857 3.63659
-0.196418 2.40368 2.80059
-1.36219 0.209353 3.25915
-0.0946269 -0.158072 0.793638
1.22593 0.69093 4.03403
-0.249287 3.66413 2.45769
1.40443 2.56901 2.91882
3.69048 2.16724 3.20887
1.92618 1.14065 3.60218
0.2142 3.77581 2.51852
0.0377465 -0.0405139 3.37898
-0.889169 2.59128 2.75218
-0.673042 0.62392 3.36818
-1.15491 1.03322 2.70987
4.4572 0.835596 3.60155
1.30533 0.480501 4.15914
0.0353253 3.87483 2.51376
-0.218381 -0.688338 2.95303
4.95349 -0.740398 4.066
-0.898482 2.17033 2.81258
-0.092441 -2.90012 2.60352
-0.836136 -1.60957 2.8587
1.40266 3.49119 2.73581
0.483969 2.01016 2.92001
-0.280441 0.578299 3.33869
-0.18393 3.24805 2.47451
4.24163 -0.635575 4.0133
3.02836 3.73145 2.86921
1.62546 0.756932 4.08947
0.685724 3.49535 2.6297
-0.403107 0.666991 3.17613
1.95059 5.30435 2.65209
-0.207779 2.19001 2.744
4.20411 2.19972 3.2832
0.954589 2.17005 2.99069
-0.0413325 0.855617 4.02666
-1.13211 2.71812 2.65153
-0.87093 -1.13863 2.24357
-1.07075 3.44936 2.41361
1.53021 0.138711 3.51536
0.156906 2.28717 2.70271
0.660593 -1.02392 4.19431
4.23043 0.167627 3.83319
-0.531168 3.5364 2.45269
2.18231 0.605683 3.84846
3.64251 2.5413 3.01268
0.557051 2.22875 2.78637
0.281536 3.6306 2.5273
0.43262 0.582905 3.4615
-1.4609 0.857214 3.26617
-1.84118 1.4527 2.85053
0.301923 0.197685 4.38216
1.39691 3.80097 2.66535
0.669538 -0.0330382 3.49918
2.10502 2.32451 2.94344
-0.489963 -1.60097 2.91659
0.711173 0.957382 3.83188
-0.984878 -0.199764 2.89728
-1.81035 0.218531 4.89709
1.72704 -0.926913 4.66112
2.98518 0.974875 3.61136
1.73009 3.83371 2.65185
1.48462 5.03436 2.56976
2.09141 2.50168 2.94107
-0.807088 -0.210709 3.27493
2.86178 0.876577 3.59487
0.333385 3.87135 2.52768
4.52282 1.11126 3.33182
0.193037 2.40956 2.68978
-0.677086 1.09045 3.35504
1.02325 1.39976 3.38474
0.248577 3.89445 2.49271
2.89226 -1.59021 4.33348
-1.39607 3.3699 2.38919
3.46475 2.53774 2.94478
-0.204596 0.432395 3.43767
2.37425 1.20696 3.63509
-1.262 2.00721 2.937
1.94465 -1.19587 4.43359
-0.0840923 -0.133545 0.847336
2.34377 2.55949 2.91533
-0.51175 3.85726 2.36089
-0.146689 2.75206 2.5759
0.293157 -0.167406 3.2964
-0.478251 1.66963 3.28521
0.21189 4.00757 2.47086
0.622095 2.63697 2.61324
0.0616674 -2.30535 3.23858
0.592379 4.15272 2.5349
-0.119338 1.6237 3.34318
3.90174 -2.54522 3.36906
2.0431 -1.48156 3.64923
3.12034 3.52885 2.9902
1.84322 4.16638 2.54286
2.88383 2.87621 2.94503
3.54004 1.29013 3.41035
3.8606 2.20874 3.03762
4.35133 0.0663808 3.73466
1.15822 0.798501 3.58933
0.0559313 3.50418 2.52807
-1.44365 0.985581 2.83874
-0.443678 -2.56444 2.78426
1.45955 2.22796 3.05476
-0.0529582 -1.81712 2.83772
-0.28228 3.51368 2.46218
4.11158 0.371941 3.5648
2.73144 2.21881 3.01892
-0.223929 1.07527 3.30448
0.622899 3.62446 2.54875
0.423585 1.26226 3.58357
1.82615 2.21769 2.99053
3.26711 -1.4793 4.10682
0.768369 3.76338 2.59721
0.492282 1.21974 3.77906
-1.23386 0.571246 3.27951
0.66718 0.785702 4.1244
0.330822 2.40815 2.70623
-1.52689 3.72054 2.42225
-0.542884 0.872353 3.76271
-0.845242 1.09046 3.28935
4.73626 0.667092 4.235
0.454125 2.36135 2.76051
-1.80431 3.64366 2.44998
-0.671937 3.59227 2.33227
1.70528 2.64091 2.93471
0.525936 0.554246 4.10739
-1.02203 1.51456 3.2634
2.08519 1.24623 3.62883
-0.57895 3.67454 2.35417
1.32451 -1.40928 0.00948721
0.905544 0.470506 3.491
-0.265844 -0.020998 3.29782
-0.784839 2.58304 2.65538
-0.94643 3.73697 2.31644
4.06067 0.795411 3.60546
2.54496 3.80954 2.70751
3.50076 -0.794701 4.69842
-0.47018 3.84438 2.36726
-0.482668 -0.904874 3.23171
2.68227 2.59521 2.92268
-1.86635 1.3068 2.77608
-0.539715 -0.52291 4.54116
4.43753 1.07167 3.71383
0.928072 1.56385 3.34997
-0.657934 3.82459 2.29757
0.120674 0.224254 3.48017
2.42386 -0.944405 4.7142
0.363072 2.6872 2.5805
0.715388 4.11573 2.51357
-0.0264495 1.61699 3.38423
0.909852 -0.890878 4.99369
-0.0363058 -2.44362 3.25123
0.505796 2.62002 2.59889
1.0464 1.72484 3.3725
-1.13789 -1.60554 2.8023
0.411745 4.14749 2.45988
3.26057 -0.551685 3.78901
-1.11122 -0.442696 3.17478
1.01164 2.91552 2.70027
2.09571 1.46853 3.35628
0.4333 4.22446 2.4666
3.8059 -0.776367 3.74474
-0.211298 -1.29231 4.64026
-0.488988 2.78397 2.50478
4.46514 -1.94662 3.71057
-0.869442 3.09068 2.53007
-0.819151 1.61197 3.16724
0.944154 -0.730111 3.34933
0.226574 -0.790083 4.54418
1.66195 1.71678 3.2092
0.249402 2.89833 2.53111
-1.09212 0.958756 3.19499
0.425457 -2.21923 1.91013
-0.378778 1.87292 3.1375
0.630966 -0.406509 4.70214
-0.654077 -0.646658 4.00338
2.54117 1.08117 3.48736
2.49035 2.94937 2.8698
0.00992355 2.46517 2.54023
-1.24115 -0.748132 4.88449
0.917529 -2.75463 2.83173
0.470073 4.11562 2.63224
-0.393198 -0.312297 3.23941
-0.404654 4.15095 2.35709
1.31225 1.46622 3.45202
0.0557096 4.01333 2.51209
4.09457 -1.2346 4.42825
2.17751 2.70733 2.8732
0.703965 -1.82651 3.33731
-0.517211 3.93711 2.37688
0.628347 1.55683 3.60055
-0.783132 -0.835352 4.00047
1.84214 2.63914 2.86804
0.192413 0.0986716 3.35665
0.764537 2.80221 2.65007
1.2183 4.0746 2.51245
1.71244 0.668917 3.69511
5.05683 1.58052 4.15861
-0.760183 1.64279 3.3172
-0.902431 -2.1286 3.1271
-1.34091 2.91661 2.46053
0.556017 2.68834 2.59426
0.754864 4.19191 2.51078
0.210392 -0.908207 3.10074
-0.35638 -0.436199 3.26533
-0.225725 2.81401 2.3974
0.670542 -2.02485 1.94639
2.54604 1.50729 3.2518
1.2102 4.24296 2.51017
-0.489982 2.9703 2.59967
-0.797419 1.18401 3.19618
2.23723 4.53357 2.6191
2.39853 1.46962 3.31361
0.439052 -1.08204 4.66655
3.88739 0.0333889 3.85268
-0.652906 1.98445 3.11745
-0.274209 3.00072 2.49324
4.53991 0.716375 3.4016
3.55327 0.0624537 3.84571
1.24767 -1.56265 4.77499
2.01224 0.488568 3.96297
-0.975772 1.53521 3.14442
1.77823 4.58311 2.53315
3.01539 -0.240875 3.82976
2.28739 1.78159 3.17569
0.615521 -2.36265 3.05972
1.86371 0.0184249 4.3014
-0.782606 0.179 4.06141
2.7214 1.6331 3.19623
0.432586 3.10476 2.51592
0.838 4.5559 2.48625
2.01005 3.24385 2.84042
4.63636 1.18156 3.37646
-0.490261 3.19129 2.42085
-1.51685 -0.42121 4.28467
-1.91528 3.2564 2.3969
3.17291 -2.50278 3.57966
2.57577 -0.380436 4.5354
2.01105 1.93966 3.1151
2.98971 1.72357 3.0809
1.64301 5.03775 2.58861
4.6418 0.27998 3.76603
4.6514 -0.379605 4.50544
-0.430594 3.14693 2.43835
-0.314851 0.482827 3.31624
2.40591 0.0210271 3.77814
0.127114 -0.638806 5.05008
1.83387 3.55834 2.76526
1.3238 4.72937 2.38173
-1.60013 2.86832 2.70272
1.24425 2.1439 3.0216
0.976453 3.42014 2.64773
-1.33216 0.0800003 3.31243
0.235841 -1.9086 1.72135
1.7843 2.13009 3.21803
3.95749 -0.125167 3.66611
-0.776502 2.7768 2.56336
-0.221928 -1.49663 2.96745
0.109535 0.259531 3.38034
-1.1225 -0.448984 4.38619
-0.245335 1.73249 3.35847
0.723222 4.06567 2.54514
-0.759825 -0.297382 4.64653
-0.392111 2.6746 2.56313
-0.453405 -2.21087 3.18357
0.442588 1.62657 3.51515
-0.0271556 4.09132 2.46154
3.67267 1.25915 3.41554
1.8348 2.91393 2.88212
-0.538581 -0.718274 4.31094
2.66409 3.69048 2.87901
-0.0332506 4.05703 2.38453
-0.463712 0.182729 3.36478
3.17406 -0.7446 4.41889
-2.00534 1.68465 2.81809
3.34041 -0.98542 4.33001
0.130196 4.09413 2.36374
1.74076 1.64486 3.26164
-0.586834 -0.0944967 3.27618
0.858612 2.96196 2.66613
1.01554 -0.00745159 3.45468
4.20801 1.41826 3.61092
0.360265 -0.54536 4.59395
4.30545 1.03012 3.42805
1.5893 2.97824 2.82051
3.84727 2.27866 2.9945
0.65134 3.1172 2.61296
0.631017 -1.49251 4.72158
1.2897 -0.729112 3.34367
2.17756 1.74423 3.23827
-0.623878 1.15353 3.24156
1.06477 -0.756967 3.34511
2.84212 -1.15642 4.12503
-1.20718 -1.10882 3.00057
0.91968 1.88331 3.28797
4.19248 -1.31813 4.37646
1.73086 3.14185 2.81149
3.82604 2.03304 3.09877
1.72657 3.36004 2.80029
3.98409 1.69434 3.32309
1.26796 2.04108 3.22845
1.85233 0.593681 3.90349
-0.992407 3.17193 2.47176
3.75908 -0.501759 3.7674
3.49252 1.78896 3.42144
3.81484 0.357317 3.73723
-1.61027 -0.31248 4.29843
-1.11092 0.602352 2.71297
3.97624 -0.722286 3.71764
0.29183 -1.99978 1.79708
-1.0839 0.205697 4.07711
-0.940402 4.33225 2.17037
0.347546 3.22442 2.51578
2.0033 0.312418 3.75658
4.34869 0.152797 3.92783
1.93142 2.02133 3.21133
1.71825 2.13254 3.09729
1.40165 0.156467 4.25042
1.43033 3.54147 2.72092
-1.61792 0.737453 2.73186
4.15501 -0.238258 3.93394
-0.974235 -0.877137 2.92042
0.178457 2.09973 2.90533
-0.930809 -0.577121 2.96545
-0.835464 0.893111 2.8799
1.54448 3.51021 2.77134
-1.22221 3.59452 2.37582
1.89433 3.61652 2.75134
0.709076 -0.122286 4.67927
-0.603055 0.103612 3.02147
1.28915 2.25468 2.96385
-1.47323 1.20396 3.28987
-1.26739 2.94889 2.44245
2.70147 -0.0243271 3.98289
2.29917 2.07234 3.00722
-1.38958 3.86923 2.30816
-0.143906 1.18619 3.34313
-0.314445 3.52191 2.46705
2.66841 -1.4876 3.44241
-0.281762 0.438752 4.2782
0.859694 3.23839 2.67306
1.11904 -2.23357 3.15397
0.239993 -2.18902 1.79683
0.0939927 1.96663 3.01218
3.4898 0.276714 3.72503
4.31953 2.03868 3.3186
0.738152 3.1524 2.6413
1.36729 0.239777 3.50039
-0.313958 1.94033 3.00294
1.58496 4.40142 2.50453
2.67488 1.78773 3.16083
-0.787763 -1.10249 2.86052
2.48098 0.142027 4.13958
1.28385 3.29337 2.70136
4.79884 0.387643 3.37086
-1.56177 -0.585422 4.18002
1.87974 0.260333 4.06125
1.04673 -1.75543 3.04617
2.47238 2.00738 3.18062
3.20239 -1.61945 4.30666
-0.4257 -2.26501 2.8475
-0.199596 3.30731 2.47766
0.609372 1.12245 3.57427
0.181608 2.08854 2.97778
-1.24113 -0.110855 4.28722
3.48408 -1.49609 4.14246
-0.0676231 0.757127 3.33323
1.0809 3.38137 2.69678
0.558891 0.791418 3.52122
-0.105031 0.686891 3.44654
1.95804 -0.33892 4.60559
0.506897 -2.09675 4.43745
1.35453 2.22634 3.03709
1.98248 4.59381 2.56463
-1.16935 1.50698 2.84731
0.343226 3.43913 2.56534
1.77547 -0.195595 4.29567
0.850897 -1.39054 4.46237
-1.07318 2.46442 3.05681
3.85373 -0.03818 3.75399
0.750564 3.57656 2.64223
3.99469 0.266209 3.67384
1.88253 2.30304 3.01069
-1.03505 0.261474 2.8693
1.48061 3.75793 2.76852
1.97558 2.17824 2.97403
-0.635367 4.27534 2.20142
-0.816567 3.58281 2.42512
-1.65989 1.16968 2.85452
1.04405 0.942563 3.96805
0.256823 0.0402737 3.49418
-0.196678 2.46155 2.79143
-0.771959 -2.58627 2.89061
0.224866 3.70999 2.52649
-0.720605 -0.747749 2.94511
3.30588 2.18674 3.13682
2.31649 1.13289 3.73333
1.13561 3.82268 2.61753
2.59235 2.50476 3.00698
-1.05408 -1.84044 2.77095
-0.622922 0.754015 3.44894
1.78007 3.94537 2.6866
4.17356 0.707132 3.67121
-1.78196 3.1429 2.47645
-0.827436 0.64275 3.2617
0.128166 2.43918 2.71349
0.955219 3.92247 2.55834
-1.62221 1.8232 2.82157
3.9137 0.382961 3.8345
-0.477327 2.64107 2.60347
-0.0601208 0.925503 3.60328
3.55251 0.995075 3.45078
0.961204 1.45736 3.66801
3.11779 0.671349 3.77632
0.614811 -1.57252 3.33401
2.83014 2.58959 3.02081
-0.46661 0.0870647 1.17409
2.53065 4.1805 2.77278
0.128408 2.51908 2.53993
-0.294373 -0.00550948 3.29404
1.97882 -0.827157 4.78959
0.811458 1.5219 3.58694
-0.0616302 3.87857 2.46568
-1.37276 2.35664 2.66222
1.15973 4.80434 2.52207
0.088314 2.44416 2.53549
-1.47924 -0.617307 4.63184
4.20384 0.888283 3.49215
-0.113261 3.8831 2.41985
0.93317 2.72966 2.68825
-1.5442 2.94312 2.62141
0.264319 0.0374432 3.3864
2.66761 1.35311 3.48019
1.08867 4.06456 2.56359
-1.09405 -1.68568 2.79594
-0.109228 2.61299 2.53079
-1.4463 4.12269 2.3209
-1.45713 -0.140346 2.69477
2.4208 1.24733 3.44449
3.31031 -0.987642 4.05139
1.16497 4.05413 2.50607
0.187927 1.76863 3.3773
0.347648 2.74382 2.55424
0.216517 -0.759001 3.16549
3.82622 -1.32897 4.56997
1.0863 4.13624 2.48964
0.427695 -0.585979 3.34681
-1.42414 1.06702 3.22575
0.951568 4.16769 2.45544
2.49568 1.63351 3.43166
-0.223444 -1.69191 2.94256
4.32128 -1.97486 3.73081
-0.50324 2.98883 2.55647
3.79604 1.3958 3.54693
1.55017 4.18304 2.44274
1.9512 2.95582 2.8493
-1.27125 1.49694 2.97446
-0.466636 3.01504 2.42753
2.88323 -0.46598 3.80161
2.72952 4.9432 2.58858
-0.445507 0.207174 4.13529
1.99225 1.82961 3.34254
-1.66951 1.41673 2.89266
-1.42928 0.419003 3.03986
-1.31406 -0.619541 2.98072
1.90882 0.433334 3.7474
2.7971 1.58742 3.29108
0.723058 4.38654 2.50618
4.17355 0.160004 3.94606
1.02632 3.03247 2.64766
0.846452 3.263 2.64211
3.91258 2.01061 3.08015
1.39995 0.724908 3.60736
-0.334506 2.05345 2.95526
1.78961 4.35687 2.51676
-0.759342 3.04804 2.38918
-1.8694 0.026027 5.43603
-0.909777 2.10719 3.04645
0.41209 -1.85113 4.6688
3.46563 -0.481932 3.80597
-0.454037 0.204297 3.03201
0.932188 -0.149086 4.6198
3.16335 1.78824 3.13901
-1.4291 2.91143 2.4249
1.71529 3.4029 2.78225
1.16626 -1.73265 4.73478
2.84323 -0.0600504 3.95623
-0.582256 0.46528 2.9157
5.22196 -0.117114 3.25846
-1.35832 1.48467 2.94015
0.0064953 2.12694 2.81085
3.24282 -0.560023 3.97153
2.3299 0.349151 3.78638
2.14439 3.56753 2.80352
-0.944764 -0.35079 4.43798
3.36426 1.89107 3.20374
-1.23686 4.13993 2.13732
-0.118655 3.37168 2.54111
4.04712 -0.262352 3.90121
-1.53179 2.25479 2.82119
0.0838822 2.9341 2.48205
-0.26264 -0.68954 4.4528
0.22461 0.148948 4.39909
0.546453 1.82628 3.11435
0.101743 2.85266 2.4904
-0.600725 1.50056 3.15692
2.9367 1.45104 3.23191
1.77858 0.270566 4.11531
0.961391 -1.51806 4.78893
0.408094 -0.18752 3.40159
4.32271 0.6292 3.45525
0.563411 -0.170192 4.75328
1.33316 4.47384 2.50139
2.15398 0.497619 3.76407
0.102982 3.01206 2.46663
1.18379 -0.585941 3.36399
1.40779 0.0155483 4.32401
1.00461 1.96172 3.2723
0.955197 1.99318 3.09571
2.23873 4.18892 2.74422
3.56339 -0.462991 4.03954
1.6833 3.35027 2.78459
4.25201 1.06811 3.43468
-1.29455 1.40169 2.88191
1.9819 5.19375 2.64302
2.45284 1.81325 3.2819
3.6092 3.04208 2.92212
