ply
format ascii 1.0
element vertex 1919
property float x
property float y
property float z
end_header
-0.210975 -0.551268 4.69725
1.53405 3.06988 2.75802
0.378806 -0.702302 4.60973
2.22474 1.55366 3.42496
-0.821388 2.86613 2.47706
3.50587 -2.25015 3.9243
2.32238 -0.363915 4.39416
1.08257 3.19394 2.66176
0.0173116 1.86129 3.05454
1.63187 -1.54817 4.67327
-0.572548 1.17917 3.27075
-1.10518 -0.697864 4.29822
-1.3716 -0.47967 2.99788
3.39157 1.5428 3.31083
-1.30956 0.797455 3.74778
3.79507 -0.715912 4.30107
1.81083 3.16734 2.78659
-1.57233 -0.950426 4.54831
4.63756 0.833536 3.39907
3.37753 3.37439 2.83622
1.76587 4.33937 2.43527
2.84363 1.80788 3.1821
-0.608556 3.16402 2.4374
1.89686 1.9378 3.33927
5.12597 -0.762016 4.2326
3.54958 0.541989 3.68952
4.71416 0.130597 3.93418
1.20369 3.37275 2.64817
0.661819 2.06315 3.06082
-0.549282 2.21507 2.88012
0.610264 3.37745 2.48082
2.8146 5.29068 2.56735
-0.802155 0.480205 3.91875
0.948974 2.18664 3.16081
0.0966392 3.32534 2.46679
-0.538459 0.662611 3.92075
-1.37258 2.79774 2.6663
1.16271 3.58724 2.62384
4.25481 -0.367155 3.82855
3.09002 0.229022 3.94082
-0.417653 2.25845 2.75164
1.55204 3.61549 2.6052
1.39344 2.24375 3.0618
0.973472 0.529312 4.26983
-1.29556 3.84112 2.34013
-0.993195 3.01584 2.4764
-1.08304 0.053524 4.07743
0.33952 2.38977 2.78388
-0.19626 3.60591 2.43244
3.76772 0.645901 3.72527
-1.02969 2.41766 2.7776
-1.42677 0.595682 3.28227
0.477723 3.77158 2.53635
1.04151 0.716405 4.06396
-0.15595 1.99418 2.96419
0.113441 3.19244 2.47019
4.29976 -0.271679 3.9524
0.0459937 0.842649 4.06679
-1.23564 0.932727 3.47936
1.3912 2.0723 3.07397
0.284021 0.461288 4.21601
-0.461592 3.35448 2.45661
2.57823 1.95254 3.21055
2.09917 0.59788 4.01286
1.01982 3.35611 2.61394
4.24579 -0.356574 3.92346
-0.615607 0.189531 4.23826
2.14241 2.08817 2.9872
4.09152 -0.719316 3.91953
1.46814 2.16288 3.08038
4.46735 -1.15544 3.83718
0.48283 3.50872 2.57584
-1.65909 0.205988 4.5989
0.308369 2.31361 2.78174
0.30806 3.52232 2.51494
4.75438 0.680798 3.52206
1.44947 3.70551 2.66377
3.70485 -0.184577 3.98356
-0.199864 2.3492 2.86072
4.17097 -0.210059 4.05086
1.17667 3.72857 2.60044
2.42937 2.35409 2.98788
-0.27615 -1.20025 4.54172
1.52423 3.78786 2.60409
1.5042 1.03141 3.85136
-1.32459 -0.119928 3.2616
1.15764 1.25874 3.71437
-0.465068 3.68176 2.36727
0.91794 2.48863 2.74557
4.65417 1.16048 3.57479
-0.023516 3.84201 2.44109
3.92519 0.69171 3.5517
3.97021 2.09162 3.26996
1.2798 2.46609 2.88004
-0.841273 3.71564 2.26413
-0.878264 2.66108 2.58472
-0.257813 -0.154475 3.32273
-0.370546 1.47771 3.48993
0.573933 -1.832 3.33051
3.12316 1.09425 3.79382
-0.53927 2.61987 2.64392
-0.24479 3.84567 2.32645
-0.00801514 2.67213 2.50928
0.279581 0.708505 3.64433
2.0601 1.38871 3.42799
-0.480127 3.82328 2.26294
2.09176 2.74492 2.85122
-0.384218 -2.34935 3.17016
1.14321 1.415 3.43528
0.925011 4.13913 2.47664
1.01799 4.71007 2.37399
-0.290381 3.37028 2.42601
2.33421 2.03052 3.04561
-0.835793 3.37964 2.46156
-1.35875 0.0409227 3.30674
1.0274 2.15453 3.14018
0.55846 2.1555 2.84285
3.69076 0.403487 3.69627
-0.338244 3.44228 2.42866
4.31416 0.10207 3.73764
1.63085 0.936564 4.02727
0.819623 3.59293 2.54274
0.463282 2.30808 2.81978
-1.40276 3.95384 2.31583
2.12046 3.74331 2.67068
-0.540105 4.3908 2.19651
3.04323 0.451337 3.92198
2.30884 2.17664 2.99356
0.35857 0.343293 4.36138
-0.953387 3.78076 2.47006
-0.674544 2.48293 2.68505
-1.34589 0.294623 3.26386
4.0706 0.688288 3.60095
-0.0452732 1.07924 3.93173
-0.380149 0.349812 4.19671
-0.837103 -0.426293 3.25043
-0.608194 2.36594 2.66389
2.05174 3.8479 2.62638
2.29509 2.58911 2.8975
-0.901156 0.756628 3.20721
0.477526 1.45615 3.75094
1.5982 -0.978354 4.61012
1.24037 3.85245 2.51783
-0.502099 -0.295208 3.28679
1.26603 2.56153 2.86752
3.29248 -0.887124 4.58769
0.708648 3.9773 2.5294
1.27359 1.19799 3.67501
-0.800345 -1.24328 3.19031
0.580117 4.33332 2.56423
1.55571 2.72195 2.88694
1.41764 1.34327 3.56561
3.25198 -1.25404 4.21607
3.95837 1.12767 3.38736
-0.270669 3.87475 2.30798
0.552447 0.913004 3.68882
1.68968 2.85579 2.86035
-0.167911 3.99742 2.34182
-0.017133 1.57496 3.47155
-0.386337 -2.22196 3.18241
0.459191 2.64241 2.61384
3.93475 1.47821 3.66883
1.40599 2.97937 2.76326
-0.118359 3.95404 2.25945
-0.552213 0.143303 3.28392
4.02841 -0.905173 3.82263
1.50269 1.58505 3.4805
-0.321848 4.19386 2.26081
1.16126 2.8786 2.72441
-0.870367 2.62275 2.72334
-0.738018 0.421693 3.28253
-1.29402 -1.06169 4.20621
0.241283 1.29549 3.89628
-0.719574 3.63379 2.32207
0.259682 2.42665 2.71948
3.96176 -1.0952 4.7978
-0.196113 1.16987 3.60753
2.10298 3.95919 2.63936
1.77881 1.21837 3.5947
0.167966 2.52012 2.61196
-0.612224 1.18389 3.44366
1.06123 4.00049 2.55155
-0.154679 0.736559 3.56752
-0.740804 1.49372 3.30375
-1.01238 3.78976 2.25608
-0.315001 2.75379 2.64765
0.622356 -1.91275 3.33943
2.49272 4.18149 2.63556
4.18891 1.04709 3.70005
1.37922 2.67038 2.81188
0.242731 1.03621 3.67848
-0.576866 -2.21123 3.18384
3.03096 2.89246 2.89926
0.278198 4.11449 2.439
1.7906 1.54892 3.478
-1.28467 0.423917 3.18901
-0.334882 2.81775 2.63066
-0.416935 4.07101 2.3205
0.774825 1.50781 3.34373
-0.702425 0.748154 3.31459
0.469731 2.94442 2.56305
0.464573 4.24354 2.41612
4.1454 -0.22073 3.92811
1.71021 0.175856 4.33602
1.77671 1.6523 3.31433
2.32845 2.94886 2.80209
-1.65524 2.59833 2.80607
-0.270055 1.80796 3.33194
0.293345 -1.01719 4.59607
0.951447 1.8577 3.30621
2.01647 3.15756 2.7958
-0.661113 -0.305352 4.40139
2.4165 4.82031 2.66112
-0.781018 1.52938 3.19496
1.45369 -0.137775 4.26969
0.711571 4.46167 2.41829
-0.147916 1.91001 2.97794
-1.3314 -0.00861263 3.0533
0.832807 3.26538 2.65633
2.6242 1.68223 3.24945
4.13995 -1.24079 4.42548
-0.258935 3.08264 2.47367
-0.957393 -0.469247 4.36566
4.32617 1.51644 3.32979
-0.488197 -0.736838 4.37116
0.613316 3.35348 2.58734
-0.671557 0.32291 3.94506
-0.643421 2.11174 2.93493
-0.491702 -0.718514 4.59238
1.58053 1.87779 3.08716
1.69299 -1.57774 4.69719
0.433376 3.23739 2.54528
2.41045 3.4211 2.77945
3.2833 0.558038 3.99318
2.20335 1.97428 3.20008
-1.20479 1.41589 3.37378
1.07955 3.37762 2.70322
0.230941 2.05943 3.12497
4.66 0.157035 3.94199
0.476721 0.892993 4.02333
2.37768 5.04991 2.65168
0.895378 3.50866 2.60997
1.12702 2.11981 2.99789
-1.23192 3.66129 2.3457
1.28852 3.46578 2.66821
-0.0568806 0.533087 4.15332
0.0942008 2.13477 2.98913
-0.836237 2.16932 2.71614
0.0313902 0.288483 4.29754
0.633008 0.433957 4.25357
-0.431218 3.49199 2.457
3.65625 3.19943 2.87663
3.87163 -0.224334 3.87714
1.29328 3.67659 2.63959
-0.0912483 2.287 2.74042
4.23112 0.0831684 3.70087
1.55093 3.70783 2.6184
-0.538583 0.176547 4.21441
-0.589213 4.3724 2.25053
1.73376 2.23698 3.00964
2.01955 3.80779 2.65077
1.48764 2.49096 2.93606
-1.26093 0.724952 3.29217
2.54571 0.865372 3.58555
2.4702 0.801974 3.6948
4.44425 1.65915 3.2595
3.02404 -1.21603 4.11385
1.98642 2.38752 2.9771
-0.138712 3.74065 2.43539
-0.890169 2.58483 2.60486
4.38471 1.14348 3.57561
2.80668 1.04508 3.5654
0.211219 3.94854 2.53983
1.48315 -0.918837 3.91639
0.12331 2.46783 2.66227
1.75723 3.91061 2.53011
-0.357569 1.30191 3.66369
0.338068 1.52173 3.67022
-0.687643 2.59645 2.5526
-0.106653 3.93546 2.40829
3.48546 3.31603 2.78572
1.64399 1.54831 3.62444
0.561917 4.05489 2.47152
-0.294082 2.83078 2.65851
0.26836 0.372428 3.54699
1.4967 1.42404 3.57332
0.575466 4.12146 2.45326
1.25548 2.71564 2.75171
0.51645 -0.00401289 3.42279
2.54879 2.3108 2.96274
-0.607923 4.24619 2.20233
3.33809 0.681683 3.67055
0.294262 3.60006 2.46055
-1.23496 0.0557211 3.26801
0.361455 2.29661 2.78726
0.0753514 3.68987 2.45963
3.07937 2.23624 2.99362
0.423863 3.84905 2.5395
3.08639 2.34407 2.95321
-0.153126 1.15614 3.6387
-1.02469 1.11235 3.37903
-0.484169 3.73194 2.35728
0.756021 2.5564 2.71923
2.80639 2.57593 2.86827
1.23545 1.24816 3.77313
0.378721 4.04415 2.5533
0.730838 2.47974 2.72817
-0.607101 -0.592388 3.25471
4.22082 1.1213 3.68533
-0.484036 0.757432 3.82127
1.51302 3.9591 2.49806
0.14411 2.61714 2.55394
-0.724054 -1.27483 3.20582
1.48853 4.03357 2.49725
1.29607 1.31357 3.47033
0.413464 2.55094 2.60769
0.0222173 -0.504985 3.23569
-1.39678 4.04676 2.31261
0.439225 2.79745 2.59247
1.69599 4.07384 2.4709
3.03815 -0.428968 4.39495
1.18681 1.61991 3.47412
-1.11928 1.03097 3.26548
-0.721399 2.82879 2.61836
0.356471 4.13051 2.39374
2.11616 -0.228583 4.76168
3.71606 1.15688 3.36752
-0.140448 2.95842 2.54174
0.30928 4.35486 2.34962
0.308783 4.13914 2.34269
3.44047 1.47616 3.38271
0.0284529 2.84919 2.53308
1.63024 1.60662 3.41435
3.7476 -0.632173 4.23763
3.68407 1.5265 3.3394
2.93977 -0.860065 4.40974
-0.147272 -1.23236 4.64971
-0.619404 2.99984 2.46084
-1.04188 0.432093 3.16967
-0.804943 -0.553865 4.00237
1.38637 -1.46168 4.70636
-1.12286 1.57311 3.13055
-0.754196 -1.27467 4.48755
1.18634 1.94917 3.24446
2.08071 4.29929 2.5089
-0.230783 3.25352 2.5718
-1.20638 2.45122 2.5738
-0.60566 -1.10536 5.02982
2.36062 1.71599 3.26238
1.30323 4.39811 2.41104
-0.0154464 3.11697 2.52257
4.37705 1.42023 3.41152
1.57103 1.14234 3.68437
1.11291 3.8181 2.55657
-0.243506 2.49365 2.65324
-1.17039 4.1441 2.1936
3.69141 0.711921 3.61271
1.12539 3.85588 2.52495
-0.443381 2.42682 2.66374
3.31703 2.3152 2.92476
3.72433 -1.02584 4.29636
1.20903 2.65573 2.78642
-0.776767 -0.847844 3.22471
-1.2066 1.28638 3.57022
2.89943 -1.30798 4.45075
0.955254 3.9173 2.50002
-1.3524 1.89639 3.05632
0.987954 2.5608 2.74728
0.35165 1.39817 3.68459
1.0691 3.94716 2.4731
1.96809 2.80048 2.83815
0.257563 -0.0439289 3.36841
-1.66346 1.70861 4.45343
-0.858468 3.80763 2.23726
1.50535 2.77784 2.84619
2.51613 1.20587 3.44109
1.53801 4.04069 2.45053
3.21924 1.25667 3.30788
-1.35262 4.0543 2.29086
2.17167 2.94273 2.89107
1.08098 4.12648 2.42507
-0.408937 0.226721 3.38004
1.82924 4.10545 2.39049
-0.249098 1.83539 3.24584
-0.676756 0.884232 3.34632
1.05022 2.99928 2.66755
1.71511 1.59855 3.4366
-0.746514 4.03843 2.13569
0.802481 0.161916 4.41998
1.24343 2.95013 2.72776
-1.55553 2.34462 2.7841
0.854469 3.13389 2.60927
-0.415262 -0.248709 4.43597
4.32825 -1.94212 3.7656
2.83833 5.10936 2.55443
0.29222 1.858 3.11695
1.21298 3.10261 2.69414
-1.3538 -0.394096 3.00601
-0.971005 -0.0344092 4.06438
0.283822 1.76498 3.09642
0.973741 4.41523 2.41445
0.457981 3.18634 2.50774
3.08726 -0.613393 4.51891
4.69266 0.970664 3.38335
0.66095 1.96521 3.06355
1.63225 4.47385 2.43013
2.65506 -0.413897 4.54984
1.56904 3.30001 2.74456
0.883877 1.86781 3.08352
-1.46542 -0.969235 4.17919
0.547698 1.99952 2.97938
1.9813 3.45983 2.78657
2.84893 -0.837311 4.23794
5.01234 -0.807626 4.05729
3.75381 -0.715652 4.04974
-0.70167 2.92864 2.56178
-0.609106 4.05067 2.30538
0.223244 -0.15674 4.58265
2.26278 1.40072 3.22805
-0.244371 1.71957 3.32836
-0.465931 -0.01072 3.34991
-0.770501 0.945873 3.32321
0.265589 4.08656 2.31614
1.96812 -0.069315 4.1646
-0.0692741 2.75862 2.51921
-1.01914 0.539295 3.19891
0.948909 3.09271 2.66219
3.69148 -0.412764 3.84058
0.0519191 4.23902 2.33723
-0.969439 1.94706 3.17132
-0.526031 2.96782 2.52394
-0.437717 1.37147 3.30981
-0.936102 1.86284 3.18319
2.86076 4.7564 2.55207
4.33952 -0.762446 4.38093
-1.30699 -0.767116 2.96938
3.73273 1.65911 3.32421
2.84886 -0.572186 4.08354
0.502979 3.02508 2.48671
1.44828 1.87242 3.32645
3.10042 1.7331 3.12878
1.30303 4.5404 2.42178
1.99935 -1.03469 4.76691
0.53142 3.21955 2.53503
4.12379 1.81397 3.26638
1.22669 1.93032 3.23089
-1.04234 -1.16737 4.14783
0.682538 -0.850816 4.50236
2.1783 3.30392 2.79763
-0.776879 3.35351 2.45172
4.93982 -0.708459 4.04911
1.18465 0.788707 3.94301
2.80924 1.92564 3.11204
2.47737 5.03733 2.61132
2.65766 1.91317 3.19578
1.6943 3.4307 2.73816
2.07935 0.697598 3.89162
-1.42722 0.6106 3.32998
0.154272 2.3002 2.97884
1.96891 3.55125 2.71236
-1.16484 3.02726 2.45635
-0.135066 2.17018 2.89779
1.88371 3.64739 2.71684
2.97878 0.362724 3.98865
-1.39393 3.63803 2.34683
0.51032 3.41139 2.3947
0.754254 2.23925 2.88385
3.6098 0.333202 3.86121
-0.345775 3.63599 2.46206
3.58925 0.617112 3.62929
3.95141 -0.0825659 4.21137
2.35111 2.39806 3.05545
1.7908 5.00166 2.42721
0.377997 3.7663 2.53053
2.86023 0.233137 3.90365
-0.880549 2.33853 2.71476
-1.14145 -0.399818 3.21869
0.224178 4.2359 2.3444
3.84187 1.42374 3.14969
-0.405945 0.203463 4.30015
1.9565 5.02307 2.51828
-0.957607 2.90928 2.38358
3.55907 1.4054 3.2774
1.52577 -1.55135 4.71527
0.148626 2.88852 2.50489
-1.35303 0.875504 2.83724
4.03099 -0.236323 4.18856
-0.274422 3.1366 2.4793
3.62599 1.72927 3.23004
-0.782068 2.02883 3.06654
2.03308 -2.28356 3.55238
4.06233 1.86245 3.22269
2.23859 0.0631772 4.07059
1.51212 1.8398 3.30893
0.908046 4.48907 2.41635
1.51113 3.23456 2.75436
2.09201 3.35052 2.71023
3.91183 -1.15886 4.26669
0.589723 -0.456423 4.77492
1.69473 1.98907 3.1537
-0.861368 3.21347 2.45272
-1.03033 2.16448 3.10097
2.723 -0.247655 4.48515
-0.899517 4.35643 2.12965
2.36257 5.21936 2.48313
4.56587 -0.825062 4.81013
1.50501 3.45821 2.67322
-0.700179 -0.582112 4.45167
1.2183 2.11271 3.14509
2.25702 2.08939 3.0253
-1.18006 3.78823 2.29744
0.536266 2.13477 2.93812
0.230895 3.53173 2.5347
2.36347 3.57587 2.77034
4.48667 -0.421365 3.89025
-0.973171 3.55873 2.43066
-1.3615 4.31358 2.21064
1.75035 2.35825 3.05199
2.05321 3.78057 2.70455
-0.57161 2.31595 2.82837
-0.993304 2.89343 2.53954
0.557413 2.39682 2.73657
-1.49075 1.28096 3.24676
-0.260528 3.65994 2.42633
4.12383 0.356159 3.73453
0.210876 1.15051 3.83054
-0.924469 2.43373 2.7266
-1.20426 4.24069 2.19676
-1.16935 0.791805 3.92949
0.477061 0.981677 3.95755
1.95561 2.56985 2.88249
2.82512 3.9549 2.73588
-0.733729 1.17494 3.33569
3.44247 0.191809 4.0148
4.39766 0.947061 3.65158
1.44644 3.87263 2.55842
0.0494782 2.50253 2.6919
2.27047 0.539755 3.88365
4.01681 0.754629 3.58718
-1.58459 2.94899 4.22882
0.683019 3.48345 2.58342
0.266773 2.0979 2.96802
4.06402 0.0674783 3.78301
2.27274 3.50643 2.76053
-1.21721 3.57745 2.43111
-0.36021 0.739386 3.89859
1.32673 3.6167 2.66684
-0.992669 2.34924 2.83193
4.23754 -0.660836 3.88376
-1.01354 2.35535 2.92124
3.94462 0.320014 3.65113
-0.389457 3.56932 2.46813
2.59041 5.39234 2.63457
0.776133 2.32366 2.78184
-0.268076 3.62065 2.45322
3.19623 0.708245 3.74407
-0.645196 0.516935 3.92703
2.71746 2.39889 2.96417
0.138938 0.687756 4.09996
-0.940578 2.31189 2.69405
2.22405 3.77987 2.64133
1.27421 1.12763 3.76205
1.39795 0.329824 4.27868
2.27446 2.43627 2.97034
-0.277668 3.74019 2.42894
-0.02555 0.411383 4.29002
-1.01612 -0.792929 3.2396
2.06409 -0.869049 4.71166
1.6292 1.20088 3.5709
0.141783 3.90854 2.51375
0.62156 2.5366 2.69785
-0.795484 0.204526 3.31337
0.0537968 3.89829 2.44243
-0.820344 1.03443 3.578
-0.274124 0.237182 3.3827
1.47592 2.57663 2.91801
-0.176193 3.90265 2.38414
1.98352 -1.13153 3.9434
1.4454 2.74686 2.8214
1.63358 1.40768 3.60416
-0.179128 -0.462917 3.23204
1.25141 -1.082 4.84066
-0.407065 1.43642 3.44847
0.206394 1.02056 3.63205
-0.364903 2.65219 2.63858
1.30403 4.05814 2.50361
0.957156 2.81551 2.6593
0.650505 -0.0153995 3.4643
1.62054 1.58852 3.5203
-0.751675 3.82271 2.20506
1.39534 2.84347 2.82991
-1.16634 -0.746567 3.15921
4.0479 1.14606 3.46295
1.473 4.09089 2.4266
3.73869 2.29858 3.11788
-0.419035 4.19477 2.29855
0.635319 2.86766 2.59771
1.08336 1.65291 3.3761
1.36582 2.29153 3.0345
1.71509 3.65662 2.659
-1.38426 0.407295 3.31623
0.563224 0.950529 3.91755
0.0571733 3.61178 2.46868
1.29669 2.37501 2.90621
2.5743 5.28878 2.66158
2.36794 3.83558 2.6926
4.36654 0.7339 3.62109
1.32089 2.30947 2.94614
0.885018 3.82969 2.55718
1.61932 2.60661 2.97144
3.46535 0.541272 3.73628
-1.27982 0.74404 3.28877
3.53359 0.848833 3.69984
3.6613 0.637775 3.47881
-0.744008 -0.139154 3.31553
-0.259758 2.54781 2.81535
0.681566 3.90034 2.5347
-0.397218 2.64699 2.64016
-0.557875 0.387036 3.32802
1.76183 1.28597 3.602
-0.640152 3.79215 2.33689
-0.854955 2.62953 2.66915
-0.738568 -1.41526 3.18694
3.71294 0.517232 4.09016
0.785578 4.07684 2.55392
3.70561 0.843487 3.46987
2.66593 -0.610446 4.66747
0.207912 1.18905 3.625
0.033539 4.0566 2.45836
0.0862346 2.64888 2.58927
-0.888676 -0.314263 3.95632
1.68619 1.34926 3.51286
1.38698 4.02804 2.4475
0.630641 1.64485 3.42043
0.922509 -0.948309 4.92296
-0.437719 2.8381 2.57366
0.334545 -0.802053 3.23698
-0.267006 3.9879 2.28615
2.48038 1.30519 3.46084
3.14257 -0.740352 4.18865
-1.34021 0.44369 3.19603
0.769802 2.7146 2.63852
1.15485 2.99274 2.68081
0.856212 4.2333 2.441
-0.0164247 1.76898 3.20765
4.36187 -1.37387 4.6157
-1.01713 -1.37916 3.15845
4.23631 1.50964 3.79784
-1.0887 1.22484 3.19572
-0.719054 4.09142 2.19034
2.90322 -1.03933 4.18531
2.0687 2.97013 2.82902
-0.391113 1.43019 3.33525
-0.982388 3.04522 2.42865
1.38402 -1.68502 4.6893
2.29688 1.65185 3.21963
2.28405 3.08787 2.76798
-1.13288 0.525238 3.08547
3.4898 1.48569 3.2767
0.833691 4.42268 2.42505
-0.650402 -0.619829 4.25298
-1.84966 1.55797 4.94554
-0.442716 3.72829 2.30262
2.207 2.62293 2.87019
-1.14327 2.93103 2.54713
3.4765 -0.649424 4.6434
-0.644179 3.69929 2.2258
0.712707 -1.70492 3.35758
2.1841 1.37578 3.46807
-0.805066 3.75734 2.21209
3.47709 -1.0749 4.4306
0.521837 2.71542 2.61459
0.305553 0.0600999 3.38839
1.87759 1.37364 3.60703
1.11204 -0.947959 4.95123
-0.427018 3.89652 2.28278
-0.462525 2.67995 2.57759
0.021705 -0.690399 3.22073
-1.4321 3.13016 2.43294
3.09932 2.90057 2.8405
-0.320917 3.96989 2.27527
0.0269968 1.70425 3.26881
-1.13384 3.27035 2.46514
2.0698 2.89279 2.83813
-1.11768 -1.21993 4.22988
0.648464 4.21457 2.41477
-0.65854 1.69375 3.24962
1.97131 3.12632 2.78025
-1.1115 1.15732 2.9519
-0.221682 4.12097 2.26621
0.815212 1.82256 3.29943
-0.865215 2.91083 2.45849
-0.706424 1.20387 3.24128
1.21276 1.78659 3.46412
2.54683 5.06161 2.47345
3.76976 0.195928 3.9112
-0.172562 1.88168 3.09487
-0.888335 3.05337 2.438
2.02974 4.0976 2.5651
3.14737 0.387407 3.84724
4.26848 0.876361 3.47784
1.70607 4.38452 2.43114
2.74313 1.79123 3.17652
4.81671 0.646495 3.375
3.65245 -0.0854942 4.23922
0.0720279 3.17794 2.48145
3.85288 0.052844 4.09241
1.64085 1.88663 3.2545
3.84878 2.65078 3.09083
-1.01935 3.21007 2.4979
1.90188 3.46051 2.71421
3.39698 -0.363937 4.43108
-0.744969 2.16478 2.92885
-1.19797 0.21001 3.50228
0.103957 2.11969 3.09025
4.28316 -0.0515519 3.83089
3.51542 -0.139148 4.28347
0.0336956 3.29209 2.52005
-1.13071 3.8546 2.23358
0.961801 2.21065 2.98324
3.91384 0.214755 3.82731
0.269301 3.42462 2.51725
3.04279 -0.456331 4.26086
0.499468 3.55365 2.57445
-0.504896 2.20357 2.89709
0.288455 2.75955 2.57588
0.538837 0.273478 3.51854
-0.884349 1.70056 3.29126
-0.731341 3.83298 2.2275
3.76846 -0.517961 4.09516
0.329868 -0.214696 4.6914
-0.23466 2.75547 2.601
2.38952 -1.92825 3.82023
0.208655 1.69319 3.61915
-0.841991 3.80937 2.14066
0.847019 1.69436 3.40135
-0.212732 2.89722 2.56633
-0.805747 -0.640713 4.10965
1.08197 4.14717 2.3976
-1.14014 -1.63053 3.13448
3.89671 -0.62617 4.21482
0.664024 4.26397 2.3937
1.38638 1.74655 3.32318
-1.52125 1.65751 2.91986
-0.128511 3.02623 2.5385
4.23542 1.50479 3.60154
2.85846 4.78366 2.72741
1.42658 3.04418 2.75983
-0.273666 1.42242 3.31818
3.5416 -0.918726 4.66577
1.27306 3.24247 2.68853
1.77295 -1.24864 4.37352
-1.25465 0.939344 3.0705
2.92853 1.69879 3.22075
3.98731 -0.92516 4.36451
0.220907 -1.15519 4.88955
4.68798 1.43755 3.36379
1.1657 1.87805 3.33354
4.16945 -0.95115 4.26156
1.05156 3.15385 2.6531
-0.613338 3.25055 2.45173
1.9783 0.731349 4.02601
3.36494 1.83249 3.22025
1.92024 4.61081 2.47186
0.278387 0.786885 4.1491
0.252744 3.15428 2.47451
0.787414 1.92477 3.05659
4.48905 0.0513342 3.85069
0.564157 2.01552 2.92918
-0.883014 0.281672 3.88181
2.17708 3.48191 2.75571
1.39719 4.71676 2.44145
3.76268 0.220502 3.80542
3.45972 2.00731 3.08548
2.16012 5.04591 2.60832
0.0339079 2.15905 2.91458
1.63292 3.53356 2.6404
-0.234914 0.181127 4.32763
1.55215 3.55287 2.70291
4.10184 -0.732255 3.90976
-0.257621 -0.0127598 4.29839
0.972064 2.27314 2.86265
0.87925 3.59433 2.56933
-0.880661 4.09631 2.17078
-0.725772 2.26648 2.76778
0.51837 0.146655 4.43167
-0.425624 4.25668 2.28569
0.103818 3.62093 2.48502
0.687021 0.51619 4.20109
4.10781 1.88542 3.18153
1.59817 4.51907 2.42797
1.80567 0.715038 3.85194
1.93519 3.25463 2.74612
-0.739233 2.01777 3.07015
1.03168 2.04994 3.14823
-1.22772 -0.21018 4.15363
-0.0839461 3.31237 2.53409
1.88814 0.265769 4.23674
0.709677 1.94851 3.06622
-0.927866 4.03889 2.18616
0.627441 3.23107 2.56582
2.76062 0.38919 4.0618
1.3054 2.1475 3.07352
3.0048 -0.0924366 3.91011
4.15227 -0.456878 4.05475
-0.434474 3.43195 2.49038
1.67102 2.05632 3.14371
2.61924 0.10514 3.97055
-1.26749 4.12712 2.15746
0.651335 3.37035 2.55716
1.10802 -1.56204 4.49768
2.09301 -0.205104 4.33418
1.50457 2.26512 3.03643
0.572158 3.44401 2.4945
-0.0396459 -1.28371 4.07659
0.0202189 2.26733 2.94011
-0.0728115 3.49978 2.43458
-0.967115 3.11287 2.06431
2.23067 3.75215 2.69832
0.357579 1.03605 4.1651
1.93433 2.27239 3.0008
-0.81281 3.69972 2.44269
0.432258 1.07834 3.89146
4.01346 2.53541 3.25473
2.50943 4.37566 2.64534
1.50801 3.81249 2.58082
0.0768294 2.36827 2.75843
-1.09759 0.744537 3.25241
3.84149 0.835628 3.50045
0.833827 3.94996 2.58072
2.09118 2.58396 2.91698
-0.767338 0.898906 3.29701
0.28744 1.23781 3.86742
1.60507 3.99638 2.58351
0.216202 2.48708 2.69912
-0.9906 -0.239201 3.25907
1.57798 2.7429 2.83834
0.967448 0.79946 4.04406
-0.56262 -0.971166 3.2332
3.45039 1.04765 3.42345
-0.45229 3.78497 2.30085
0.0312385 -0.151828 3.28365
1.05973 2.64901 2.78688
4.33366 0.948392 3.59182
2.5411 4.1944 2.6679
-0.888147 3.35285 2.4648
3.08833 1.91561 3.17843
-1.62162 -1.19739 4.22466
2.6904 0.605252 3.6591
1.57741 4.72147 2.4457
0.581485 3.3238 2.58477
2.34681 1.98616 3.27886
-0.136277 4.36831 2.19912
-0.679795 3.37162 2.42544
1.54719 0.645528 4.1926
0.778438 2.11475 2.96306
1.58162 2.25204 3.03326
1.04913 3.5479 2.61031
0.114436 0.370047 4.23356
0.544618 -2.0794 4.42371
1.51359 2.19775 3.07115
-0.861206 0.433317 3.90192
0.732396 3.56926 2.55113
4.12089 0.0897874 3.76126
1.81074 0.12003 4.3232
1.11009 0.872251 3.93734
1.96172 3.71674 2.66223
3.84806 -1.55661 4.06401
1.53963 2.39765 2.99129
2.39569 0.239723 4.16688
0.752316 3.68052 2.50994
-0.563143 2.37922 2.82909
3.03902 -0.679567 3.86539
0.832025 2.4911 2.793
3.85913 2.76332 2.9504
1.68881 -1.29417 4.4376
1.71469 1.05413 3.59595
-0.649289 3.66989 2.36948
-0.101291 2.44457 2.73633
-0.929211 0.271227 3.22454
1.96913 -1.03802 4.43791
3.41398 0.707801 3.58407
0.782469 3.96059 2.59173
2.03628 2.68483 2.92996
-0.599676 0.47828 3.32808
3.32747 1.04806 3.60903
1.42884 3.9169 2.52929
0.0109769 0.969773 3.66657
0.413131 2.44915 2.62146
0.302105 1.26866 3.81886
1.04719 4.0357 2.54039
4.81 1.21352 3.86526
1.839 2.72852 2.85929
0.744167 4.12873 2.54809
0.283097 0.282825 3.52691
2.30521 1.46255 3.50925
2.5519 4.07896 2.52554
1.11897 2.8332 2.72312
0.781892 1.18419 3.63173
-0.643912 1.54116 3.19302
-0.667292 3.89503 2.20738
-0.86595 2.7816 2.57848
-1.32186 0.653989 3.23863
2.1836 2.3935 2.92783
4.46819 0.914778 3.50296
0.0713715 1.24491 3.81275
-0.846215 3.64273 2.40355
-1.08493 2.34679 2.6808
3.20017 -1.23076 4.02039
0.699408 2.32661 2.7825
0.531197 3.78872 2.52288
3.69824 0.565174 3.60882
-0.864298 0.537405 3.21084
-1.00582 3.71326 2.3204
0.00671135 2.47352 2.67611
-0.400125 1.24636 3.60895
1.817 1.26329 3.59742
0.279543 3.91601 2.47901
-0.196196 2.56532 2.57977
-0.27622 0.902362 3.55086
1.40782 3.97501 2.51651
3.33148 0.941878 3.58901
-0.554615 -0.618547 3.26261
1.50547 2.64624 2.93007
1.77955 3.99663 2.50162
0.888013 2.7442 2.68524
3.99038 1.09243 3.36986
0.257765 -0.34923 3.28071
0.659376 1.51098 3.56179
0.129799 -0.64496 3.2296
-0.416636 2.69468 2.6013
0.0954977 4.03513 2.39541
0.166978 -2.39824 3.22871
1.89794 2.9627 2.81821
0.453758 1.69709 3.349
3.42276 -0.386398 4.33231
1.5732 4.06494 2.41234
-0.293108 2.85635 2.61894
-1.05482 -1.94747 3.10916
1.35753 1.60559 3.51372
-0.809228 -0.0521876 4.12175
-0.279065 4.05526 2.29075
4.69966 1.44103 3.39077
1.83273 -0.566282 4.73412
1.70547 4.17385 2.38315
-0.839545 2.92419 2.48073
2.09594 -0.421164 4.50887
0.720295 1.73043 3.28437
1.9832 -0.78913 4.97869
2.42972 1.67582 3.27576
0.423943 -1.37302 4.64556
-0.793856 3.01612 2.4202
-1.65588 3.02632 2.50099
2.1492 1.64011 3.3273
-0.55262 -0.577702 4.24187
-0.7958 3.07149 2.5338
-1.01243 0.31023 3.07365
0.39591 -1.14422 4.79838
-0.207989 1.95881 2.965
1.14501 4.45287 2.41042
0.185511 3.20645 2.52214
4.81524 -0.676147 3.40727
2.37043 -0.907417 4.61372
1.55856 1.87938 3.24331
3.97517 -0.626735 4.12203
0.387888 3.12145 2.52108
-0.0816803 3.78471 2.42658
-0.153586 2.58766 2.70521
3.42911 2.29751 3.14472
4.16833 0.870195 3.61455
-0.822285 -0.910058 3.99847
3.74524 0.753958 3.58506
-0.894504 -0.7268 3.22889
1.9655 2.53677 2.97637
3.107 -0.908704 4.41145
1.15457 3.91219 2.52348
3.9242 -1.38511 4.37746
3.40052 2.64342 2.92197
-0.526049 -0.187255 3.23749
-0.645098 1.47191 3.31752
1.45758 4.00815 2.54672
3.44588 2.53047 2.90643
-1.32765 4.02053 2.30445
-0.777028 3.76484 2.22591
-0.466831 1.41762 3.50368
0.442846 -0.570076 3.2767
-0.397905 3.98907 2.34567
2.53142 2.74364 2.84827
1.08311 1.48129 3.44405
0.84001 4.21489 2.48587
-0.329847 1.75199 3.30166
0.314031 -2.39704 3.22936
-0.0422278 2.81538 2.51164
-0.612267 4.12226 2.32105
3.43684 1.23497 3.37305
-0.378905 -1.54234 3.15191
-0.468744 2.80087 2.5558
-0.0451554 4.13678 2.29506
1.63245 1.68557 3.29529
-0.174283 2.93164 2.46464
-0.796102 1.24385 3.287
3.60636 1.49993 3.50389
2.86364 4.71436 2.71932
-0.828616 0.281069 4.15001
0.808213 2.94663 2.63104
4.21755 1.4648 3.40761
-0.796737 3.08639 2.42241
-0.865124 -0.318322 3.34727
1.26883 -0.00197178 4.56947
3.23562 1.65906 3.22253
1.12279 4.52801 2.41302
0.730451 3.11292 2.60385
2.34115 0.0223223 4.12917
3.26454 1.60664 3.34423
4.00174 2.16131 3.04045
1.95238 4.42145 2.45899
2.01278 -0.429421 4.57676
3.49571 -0.792019 4.1975
-1.25007 -0.283811 4.11158
1.23395 3.34477 2.71857
-0.604116 2.02948 3.02346
0.393961 2.06054 2.97377
2.15803 4.16928 2.57468
-0.447526 3.32037 2.46804
-0.274332 -0.8558 4.99935
1.34559 2.00915 3.15858
0.421439 -0.674714 4.7872
-0.750319 3.27758 2.46798
4.21751 -0.385024 3.93614
-0.498585 -1.53673 3.15096
0.960075 2.97922 2.66791
0.807363 1.70609 3.27696
3.63276 -0.187048 3.87932
1.33578 4.14526 2.41128
4.08546 1.33335 3.49804
-0.55252 1.09021 3.40712
0.931432 4.23339 2.39604
3.82731 -0.066898 4.00549
0.275484 2.8375 2.55662
-0.655338 3.07434 2.47578
-0.71951 1.49128 3.20877
-0.222417 4.52902 2.19145
2.94264 1.58077 3.23118
1.69337 3.20441 2.85391
3.97579 1.88896 3.29397
2.70386 -0.292573 4.3019
1.87947 1.69924 3.35358
1.38934 4.53388 2.42663
0.658001 1.90918 3.14096
-0.397812 -0.628777 4.57342
2.14367 3.33817 2.83102
1.99633 4.23746 2.47415
-0.535532 -0.385799 4.68657
4.50094 0.816875 3.42006
3.69036 -0.847089 4.23572
3.31959 1.78512 3.10729
2.88038 -0.998979 5.09979
-0.960836 3.31175 2.48966
0.46436 1.99768 3.12708
3.55788 -0.787133 4.39101
2.27261 3.32312 2.76412
4.03671 -0.804258 4.07795
1.30165 3.50825 2.659
1.62941 2.12219 3.11454
0.722398 4.72451 2.38081
1.85098 2.11012 3.25142
-1.02324 4.3586 2.15714
1.7157 3.49451 2.74249
1.76159 0.811805 3.85141
4.02987 0.272475 3.73336
0.359544 2.30682 2.93763
-0.0516326 3.43932 2.4614
0.409032 4.40206 2.36542
0.267365 2.23983 2.96687
-0.816213 3.51545 2.42283
-1.26077 0.421049 3.83797
-0.378675 4.33206 2.27182
1.7626 3.72706 2.66181
2.41358 2.26484 3.04706
3.50958 0.450838 3.91496
-0.634014 0.903012 3.63934
-0.499411 2.408 2.66412
0.429346 3.71521 2.51298
-1.11111 3.62444 2.41055
0.214556 0.251436 4.38448
-0.680921 3.6599 2.3652
4.03764 0.12901 3.96014
-0.136931 0.873787 3.85665
-1.12396 2.05067 2.66759
-0.0489822 2.38368 2.78469
1.77485 -1.59227 4.66164
1.71554 0.391239 4.31625
2.20373 1.79234 3.43643
-0.35268 1.44756 3.33504
-0.576844 3.14145 2.54354
1.2191 1.81139 3.40719
0.892901 4.64954 2.37528
0.906024 3.05637 2.66204
-0.876097 -0.19602 3.33476
3.44022 -0.0539105 4.19847
0.563252 3.25811 2.58826
1.51098 4.35408 2.41895
3.51669 1.7898 3.33599
4.57767 0.802961 3.39709
3.62142 0.0434265 3.7743
2.81177 1.73053 3.26499
4.26979 -0.595775 4.14116
3.02224 3.47402 3.02049
-1.04 3.40703 2.51462
1.63644 4.6264 2.44129
3.43355 -0.393152 3.97964
1.11167 -0.0463317 4.51885
-0.699133 2.13964 2.93375
2.18217 3.39855 2.76598
0.996881 2.05788 3.17884
4.06525 -0.255898 4.00628
2.43414 -0.617122 4.38154
0.964533 3.43746 2.59583
1.19271 -0.372361 4.66435
3.92763 1.94044 3.11271
4.1007 0.40914 3.7629
-0.301523 2.25079 2.81085
-0.594555 3.53021 2.50627
3.90166 0.0247927 3.84957
-1.03393 3.56137 2.45802
-0.0895898 2.2386 2.92121
0.398664 4.6632 2.35638
-0.530028 3.59347 2.43833
-0.789576 2.3849 2.72003
2.59251 5.23331 2.68954
3.75675 0.575853 3.73054
-1.3755 2.384 2.8476
0.580566 2.27695 2.83723
0.17742 3.66598 2.4682
-0.130052 2.51629 2.72955
4.49609 0.541853 3.51664
2.58219 0.908247 3.55675
-0.129557 0.759066 3.92869
-0.00824814 3.68962 2.42651
3.46964 2.30793 3.14621
1.31902 2.43252 2.88033
1.82546 3.89217 2.60676
2.62207 0.80718 3.57321
-0.714549 -0.427302 3.26077
-0.392791 3.7897 2.35983
1.64957 0.460745 4.08158
1.79112 2.58774 2.90857
-0.264641 0.618877 4.14987
3.53861 0.931861 3.66686
1.3077 2.22622 3.09791
-1.05333 4.19909 2.20545
-0.850899 3.41237 2.39742
-0.377497 2.13463 2.84771
3.93114 -0.277644 3.91859
2.09422 3.51737 2.72488
0.33938 4.61496 2.33961
0.811679 2.28317 2.87346
2.00169 3.67457 2.71067
-0.140854 4.18729 2.16472
-0.628007 2.26971 2.78074
1.32075 3.70629 2.62207
2.72129 0.561834 4.08294
1.69003 2.41978 2.91205
-1.42036 2.74119 2.72917
1.82459 3.77864 2.63508
4.41016 0.699697 3.73689
0.571699 0.860302 4.15296
0.917883 2.31157 2.8051
-1.0303 4.31921 2.17855
0.996183 0.881403 3.96012
1.85385 3.8672 2.64476
3.25358 0.896418 3.76276
2.18937 2.47991 2.94066
1.25103 0.419499 4.19743
0.122666 3.80132 2.44366
4.1357 0.231987 3.98208
-0.938322 0.57112 3.24053
3.04088 0.995835 3.45153
0.312095 4.12814 2.47919
2.43807 2.62017 2.89662
-0.41491 0.910697 3.4807
0.600093 4.01576 2.51073
2.01012 1.18993 3.7087
-0.681655 -0.740132 3.2423
-0.655753 2.6356 2.71387
2.37981 -0.758439 4.48183
0.328533 0.553367 3.6314
4.09674 -1.16048 4.44936
1.11583 2.7618 2.73667
0.548028 1.62831 3.58457
2.20018 4.21939 2.68341
2.82404 -0.976437 4.82813
0.192381 1.56561 3.61469
0.367913 1.16409 3.69759
-0.519744 2.71168 2.6254
0.98599 4.18152 2.53119
-0.716166 -2.24369 3.13916
-0.555835 2.88858 2.54707
3.80382 1.29215 3.38229
-0.421337 4.00263 2.30085
-0.826643 2.66682 2.44693
-0.962536 -1.31885 4.42154
-0.328707 -2.11827 3.10887
2.71481 1.30224 3.33496
-0.172231 3.99692 2.2671
3.69821 1.50745 3.55441
0.319716 2.90093 2.55371
-0.326257 4.0439 2.22812
-0.908917 0.33699 3.19677
-1.17578 0.0462107 3.83854
2.63167 1.4758 3.30629
-0.451466 3.03504 2.62539
-0.584818 4.05054 2.20416
4.90899 0.00192615 4.55624
-0.44538 1.05438 3.42067
2.67807 4.70742 2.71887
-0.0994797 1.85774 3.11271
-0.600881 3.08374 2.5001
3.82494 -0.424351 4.08409
0.211381 -0.0481847 4.32509
-0.197403 1.83634 3.18636
0.749921 4.54546 2.42648
-0.432238 1.24654 3.29687
1.85652 3.12455 2.79732
-1.01619 0.705868 3.26151
-0.482963 3.15134 2.43375
3.53647 2.0463 3.15577
2.1184 1.92614 3.31754
0.658998 -0.726135 4.9756
2.80389 2.09915 3.08276
0.44833 3.05778 2.48049
-1.54894 0.468347 3.0521
0.114315 1.93045 3.09621
3.22634 -1.02149 4.20957
0.951145 -0.448172 4.94623
0.0440915 3.29612 2.48095
1.27179 2.04017 3.10342
-1.52544 -0.162239 4.08863
0.166702 3.26854 2.52519
3.25626 -1.63224 4.29848
0.446914 -0.783656 4.64511
1.87283 1.98768 3.23757
-0.57081 2.12638 2.83864
-0.701206 3.32797 2.40554
2.85802 3.24062 2.87523
2.90334 2.10163 3.04579
-0.202047 3.36262 2.39998
-0.0431058 0.742416 3.95157
3.8767 -0.287511 3.89033
-0.793068 2.19396 2.80615
0.340143 3.49562 2.48613
3.913 0.200164 3.7428
1.68349 3.73594 2.67784
0.857422 2.33733 2.84613
-1.19352 0.324739 3.8947
-1.46747 4.01478 2.29015
2.26766 0.849715 3.86969
3.28198 -0.298637 4.07348
-0.638133 2.38235 2.84162
1.1041 3.71614 2.55913
2.81 0.5776 3.95885
1.56567 2.49316 2.90685
-1.34267 -0.10904 3.25562
2.49513 0.938871 3.63237
2.90254 3.84454 2.67337
-0.570089 1.1037 3.50301
0.429458 2.43438 2.77927
-1.15539 0.253087 3.94247
-0.586462 3.66435 2.32379
-0.494784 0.92709 3.77135
-1.8042 3.13168 4.81892
2.15088 4.82454 2.55171
1.37626 3.40946 2.6628
4.13235 0.117013 3.81776
0.82809 2.01491 3.08066
2.05635 3.46017 2.80739
-0.999772 0.582788 3.65984
2.61141 2.07047 3.08015
-1.01668 4.22896 2.20372
-0.242634 0.712579 3.98057
1.42064 3.55963 2.65143
2.27337 2.07602 3.16097
-1.4102 0.45563 3.32439
-0.250894 3.28841 2.40517
0.150405 2.26615 2.78296
-1.51192 2.01955 3.10971
2.04375 3.64806 2.69881
-0.155009 0.282007 4.25785
-0.503154 4.35647 2.25867
-0.583634 3.61277 2.45194
0.696816 2.21767 2.8851
-0.514648 0.403324 4.2445
-1.30341 3.10071 2.52542
1.08538 0.121891 4.43235
0.144259 3.66169 2.46478
2.21324 2.31611 2.98488
3.35609 0.57792 3.64245
3.13908 0.0946446 3.75068
2.54611 -1.08363 4.29938
-1.00472 3.66494 2.35874
1.4534 1.17114 3.7595
1.21934 2.56452 2.93078
3.73666 -0.873805 4.00673
-1.0733 2.20513 2.55785
2.50638 0.879513 3.70697
1.53233 3.85287 2.56571
1.00263 2.44444 2.86438
-0.884876 0.925058 3.2234
0.86132 1.41633 3.66093
-0.521294 3.75586 2.34402
1.39175 2.61266 2.79784
-0.935381 0.0323258 3.27044
1.07144 1.29574 3.66956
1.6749 3.95207 2.52173
3.62138 -1.4323 4.25789
-0.158444 0.860071 3.58492
0.175016 2.46948 2.6233
0.370333 0.933032 3.70477
2.4566 2.75887 2.86578
1.9207 1.34759 3.46762
1.38092 4.00384 2.49326
0.183945 0.766053 3.61701
0.702641 2.65834 2.68512
1.13254 4.0792 2.47735
3.82973 1.01685 3.51483
-1.34477 0.682691 3.26153
0.430052 2.85332 2.60305
2.04298 1.52543 3.45459
7.22008e-06 3.9753 2.31219
1.23585 2.81916 2.72438
-0.456904 -1.33641 3.17072
1.01951 1.56127 3.39292
0.411643 4.15533 2.38745
-1.4321 0.650953 3.33097
-0.961722 3.42885 2.42455
0.388189 2.23713 2.99256
1.47776 3.69873 2.70683
-0.74135 4.18397 2.10399
0.664483 2.26806 2.84429
2.43764 2.17589 3.0713
-0.0223296 3.56807 2.45273
-1.16016 3.79332 2.33962
1.69019 3.76911 2.62966
1.87383 0.935506 3.65156
3.39448 0.483347 4.0032
1.76965 2.41341 2.94099
-0.269866 -1.41557 3.86212
-0.906964 0.796434 3.74347
-0.413585 3.67688 2.40294
-0.833821 0.716477 3.84346
-0.464576 2.40449 2.78002
-1.09002 2.2512 2.54495
2.32252 2.51336 2.89892
3.43323 0.333704 3.9311
-1.06942 2.71129 2.67622
3.98844 0.778459 3.26722
1.63485 3.87689 2.59635
1.14246 2.52716 2.90315
3.50213 3.30635 2.7913
-0.692139 1.00822 3.65589
1.53083 3.89986 2.53774
-0.787507 2.67576 2.56905
-0.725058 -0.872159 3.22721
-0.701154 1.43003 3.32178
1.88543 -0.823755 4.88732
1.84912 3.9751 2.5468
1.81884 2.66704 2.91085
1.52224 -0.566451 4.42068
0.248496 0.290052 3.45557
3.79583 0.939315 3.55152
1.72629 3.98638 2.50782
4.41292 1.14471 3.66277
-0.984381 -0.992697 4.18879
0.244951 2.65965 2.58016
-0.94036 3.76184 2.1947
-1.31083 3.92702 2.31185
-1.14492 -0.892706 4.27282
-0.710254 1.70587 3.1924
1.37288 4.09381 2.44161
1.64188 2.96576 2.82367
-0.7134 -1.8573 3.14239
-0.0577752 1.72926 3.47102
-0.657982 3.56565 1.87756
4.13689 -1.4834 4.54219
0.829982 2.77365 2.66255
-1.0074 -1.84573 3.11622
1.23923 3.05722 2.70078
-0.225899 1.04395 3.53183
1.08944 4.19956 2.38451
2.07069 1.64688 3.33616
2.25107 2.97323 2.79209
-0.778765 1.26567 3.23384
2.18898 -1.28267 4.48059
3.12624 1.37539 3.28231
0.981001 -0.980467 4.77202
-0.780934 2.67436 2.75003
3.82027 -0.839149 4.22432
1.2471 3.90342 2.52251
1.42545 1.24199 3.677
-0.994934 -0.0888202 3.25433
1.35037 1.37319 3.53316
-0.712129 3.78516 2.29123
-0.645975 -1.38417 4.33367
0.440863 2.57973 2.5909
-0.256603 0.643989 3.47151
0.486604 4.03543 2.47883
-0.839824 1.3956 3.44099
3.12757 -1.07475 4.028
0.829828 2.59905 2.73297
-1.26082 4.08731 2.27552
-0.547625 2.77954 2.53701
-0.876639 3.85692 2.24773
2.84851 1.33602 3.44626
-0.79847 1.51481 3.28184
-0.594595 -0.0176774 3.30618
-1.16731 -1.67561 3.16053
0.332189 2.65909 2.57567
1.89838 4.14761 2.49796
-1.02769 -1.51943 3.14663
1.98185 2.9852 2.77746
1.8555 1.5749 3.33136
-0.765583 3.9213 2.16118
1.45206 2.93871 2.77386
2.56984 -1.28834 3.81657
0.539546 1.63711 3.31611
-0.780653 4.001 2.16119
3.26953 0.116223 3.90291
-0.590218 1.53966 3.24352
0.191186 -1.25037 4.58012
3.22447 0.265716 4.0128
-0.699404 3.03947 2.53956
2.29547 1.60638 3.30663
3.1668 1.64176 3.203
1.13368 4.36632 2.40488
-0.501357 3.15615 2.50128
3.87711 -0.279654 4.18187
-1.2149 0.946447 3.06417
-0.844175 1.979 3.18823
1.9999 4.17186 2.48214
1.62559 3.2106 2.78587
4.50553 1.44573 3.33225
0.625966 0.0942493 4.55056
1.40114 1.98106 3.15232
1.44118 4.42542 2.42613
-1.17038 -0.378236 4.43223
-0.506875 3.20848 2.42885
4.94998 -0.101603 3.45655
3.44411 1.76937 3.30874
4.79218 0.302222 3.935
2.26315 -0.259667 4.29989
2.11349 3.37115 2.80087
0.145132 -0.767028 5.21452
0.439238 3.39338 2.53383
2.56729 2.02105 3.14197
1.39876 4.66474 2.43646
4.03187 0.062166 3.74885
-0.521764 3.28162 2.44199
3.79762 1.90224 3.29108
-0.424678 2.73362 2.59525
3.79589 -1.79636 3.83813
-0.621649 -0.669278 4.5519
2.05139 1.29079 3.42612
-0.771355 3.81076 2.25807
-0.562836 2.66819 2.60025
0.608318 0.843553 3.68944
0.254832 1.5699 3.67524
-0.37195 -0.417868 4.42144
0.183596 4.01986 2.415
-0.949409 -2.03942 3.136
0.826232 -1.03756 4.93135
-0.0455767 2.67946 2.50082
0.246399 4.11931 2.42623
3.49462 1.19165 3.33086
4.44439 -0.862917 4.50883
-0.944484 -1.01536 4.10844
0.547728 4.19566 2.42091
0.065308 1.75348 3.2781
-0.907047 -1.96861 3.10591
0.416442 2.93921 2.61449
0.374898 4.19847 2.36591
2.58025 1.44042 3.42373
1.38575 2.94882 2.79882
4.1724 1.78015 3.38048
0.129102 -1.22974 4.55979
2.99746 1.51093 3.16805
-0.192829 3.06337 2.51723
-1.30611 -1.38844 4.23023
-0.892182 1.52314 3.1658
0.455196 1.7592 3.19757
1.81601 4.5314 2.45185
-1.01337 0.0641841 3.04637
-0.0619482 2.97983 2.53418
5.0958 0.444474 3.35295
-0.082249 3.19058 2.50835
0.92752 4.39923 2.40751
1.37495 1.95709 3.24913
-1.1868 0.39621 3.86214
-0.65638 3.12452 2.4727
4.9218 0.442614 3.37623
3.07763 1.65855 3.24893
1.00272 0.641584 4.14153
1.28596 4.48516 2.41479
2.77048 0.122688 3.79327
3.45759 3.22724 2.85585
1.65942 3.37778 2.7252
0.540364 0.351472 4.35451
2.23234 1.91874 3.20472
-0.428476 2.13586 2.8748
3.26078 -1.64541 4.34986
0.152267 0.0653562 4.3374
0.919688 3.4933 2.64224
1.09983 2.10867 3.16363
-0.025337 3.29883 2.48716
2.17959 5.07631 2.40738
1.37215 -0.249667 4.49763
2.1172 3.608 2.74198
-0.428843 2.16374 2.70411
-1.33837 0.139386 3.31024
4.67108 -0.263031 4.37463
0.630064 3.54936 2.55253
-0.961228 2.31596 2.92439
0.836872 -1.31294 4.31238
0.0268801 3.12418 2.50629
-1.08359 1.25533 3.19103
2.57977 0.311584 3.91399
2.21197 1.74828 3.2052
2.10267 4.08629 2.61621
2.8597 0.404806 3.91064
1.10908 3.12784 2.66368
4.19352 1.95257 3.10557
0.717555 1.84883 3.23937
1.9601 4.34678 2.47753
3.63806 1.68274 3.18942
-0.715148 0.100243 4.2985
-0.167901 3.15981 2.4677
1.86784 4.36788 2.44149
4.72611 1.39311 3.36098
0.908876 0.216505 4.51127
-1.18639 2.18446 2.99271
1.76877 2.08633 3.23751
0.75036 3.3951 2.61284
2.87227 1.807 3.13671
0.684329 4.62324 2.37506
3.32636 -0.254722 4.27087
1.43594 3.37341 2.69787
1.05648 -0.413383 4.81192
0.703732 2.19216 2.98701
4.03079 0.185383 3.79118
-0.010958 2.10142 2.88634
1.15045 -0.232308 4.6054
4.23746 -0.369411 3.82454
-0.0100416 3.38028 2.49136
0.928774 3.53336 2.60675
-0.741798 2.36229 2.81396
0.654349 -1.0927 4.30459
-0.874012 3.51528 2.43601
2.7966 -1.56247 4.276
0.619501 2.18564 2.84522
-0.988548 3.60975 2.43643
2.08131 2.342 3.01073
0.585373 3.68352 2.50794
1.67076 0.893275 3.8224
-1.36446 2.76874 2.66321
1.90015 1.0289 3.63682
1.56681 3.79712 2.59565
0.60655 2.4087 2.70894
-1.16123 -1.81091 3.40911
-0.20021 3.75501 2.41854
3.62314 0.615015 3.61149
-0.800568 1.22559 3.29953
1.49463 2.44459 2.94138
3.90147 0.307474 3.81803
0.207085 3.98233 2.53592
1.54098 2.66194 2.87531
-1.06394 0.449652 3.22127
0.777138 1.36876 3.5791
3.79359 0.768429 3.42161
1.70649 0.794127 4.11962
2.62739 2.52638 2.94279
0.0125937 0.85872 3.64519
-0.757268 3.76061 2.28157
2.46766 3.389 2.78864
3.31607 2.09204 3.1769
1.39992 0.577434 4.04742
-0.742617 2.06573 2.96091
4.24147 1.45995 3.417
1.41525 1.89393 3.18525
3.99322 -0.42144 3.94408
1.77801 3.3305 2.75665
4.69052 0.464877 4.06472
2.73251 0.396079 3.86503
0.18134 3.42051 2.54052
4.29155 -0.633768 4.10969
0.631309 2.08794 2.94981
0.11181 3.28709 2.49071
3.98064 -0.0569232 3.87961
2.4967 1.97967 3.21604
-1.13646 0.234061 4.31727
0.82666 3.5259 2.6008
-0.745171 0.233532 4.09918
2.10231 2.06664 3.02936
4.85414 -1.05535 3.86659
-0.110855 3.43626 2.41901
2.6245 2.20112 3.03239
2.5067 -0.158408 4.40197
-0.324834 0.0758395 4.31437
0.080277 2.23366 2.8632
-0.657549 3.58928 2.44136
-0.0180244 4.55077 2.25847
1.87024 -1.63808 4.26647
0.0718236 3.6753 2.49074
1.43427 2.41468 2.91471
-1.36003 3.23805 2.38982
1.13523 1.058 3.74215
4.59489 0.516327 3.52066
2.57277 2.28394 3.00734
1.20142 3.76279 2.56189
-1.12616 -1.36204 4.22576
1.72839 2.55261 2.90542
-0.863972 0.888381 3.24627
3.78979 0.784347 3.422
0.834252 3.87796 2.5627
-0.511502 0.469771 3.36969
1.76171 2.48848 2.9539
-0.699616 3.68508 2.28676
3.92892 0.717103 3.55377
-0.832198 -0.960147 3.24573
0.645545 4.00205 2.5204
1.28904 2.60129 2.78895
3.95796 0.89877 3.51911
3.32201 1.13087 3.44893
1.10892 3.98574 2.47758
-0.0832536 -0.378932 3.24005
-0.701847 0.783536 3.76886
1.05086 2.7358 2.73379
1.72247 4.04258 2.50408
4.23886 1.00469 3.44625
0.320969 0.0305353 3.3991
-0.147799 2.62292 2.59752
3.68927 -1.51975 4.06707
0.510038 2.35373 2.82902
0.562525 3.62461 2.53605
-0.508478 2.35765 2.83604
-1.29839 2.34282 2.85475
1.2215 3.69719 2.56685
-0.302328 2.4634 2.68847
-1.18699 0.202086 3.27628
-0.311387 3.68326 2.41916
0.810207 1.12432 3.96069
1.04374 2.41147 2.85342
-0.897214 1.2777 3.29654
1.67523 1.0448 3.86384
0.73892 3.83362 2.5286
1.78412 1.13718 3.62522
0.562218 2.48728 2.6824
1.55844 3.88232 2.53436
-0.560311 0.185024 3.32366
3.07913 0.639855 3.98142
-0.553768 1.44983 3.3568
0.881834 4.07821 2.58244
2.13783 2.69736 2.88091
-0.133992 0.642349 3.45228
1.49257 0.913779 4.0833
0.347471 4.08845 2.51061
-0.0110971 1.39599 3.45035
-0.747614 2.58791 2.59061
0.372792 -0.00965768 3.43187
0.38266 0.189944 3.52461
-0.760483 2.84532 2.60311
4.69866 -0.511088 4.09004
1.12927 1.52745 3.40091
-0.309217 3.84843 2.27168
-0.290384 -2.3437 3.17097
2.30253 2.78482 2.89788
1.813 4.07725 2.45827
1.77021 -0.302309 4.50502
-1.07242 1.45093 3.44258
-0.367447 -1.23549 3.1476
0.352286 2.90915 2.59173
-0.52274 1.7904 3.22511
1.8073 4.10327 2.41992
0.544017 2.82451 2.60233
2.21858 -2.44856 3.61552
0.685832 1.6028 3.28784
2.72111 -0.674156 4.46547
-0.342671 1.85186 3.19783
-1.14156 -0.760677 4.00704
1.65796 4.18029 2.40897
0.735779 3.02877 2.6367
3.9743 -0.890242 4.72013
0.628498 -0.820539 4.744
-0.877714 1.44324 3.1736
1.54669 4.58096 2.43321
0.326073 1.90825 3.13637
-1.68476 1.45134 2.88571
-1.10598 -1.43365 4.33299
-0.0613069 3.13343 2.51308
2.82491 1.60381 3.27467
3.38341 -1.12072 4.19458
1.18191 4.53848 2.41446
1.82668 3.17211 2.76472
4.37304 -2.09126 3.72676
-0.35186 1.21171 3.62588
0.928509 3.81757 2.58515
1.0745 2.47362 2.84909
-1.30818 0.874714 3.27542
2.20344 3.8916 2.64327
1.30146 1.06763 3.8848
-0.478929 -0.0331897 3.37243
-0.761718 -1.05798 4.31561
1.54466 2.44453 2.96485
-0.328431 2.60183 2.63439
-0.792747 0.756344 3.25187
2.66923 1.05048 3.50811
0.733361 3.94911 2.55045
3.95726 -1.53654 4.34665
1.13374 2.59373 2.88241
-0.134731 -0.0591415 3.291
-0.254481 1.31027 3.56721
0.556222 4.00287 2.5227
-0.79959 2.77526 2.61145
0.217853 -0.63115 3.29132
0.763689 1.50095 3.49017
0.166072 4.0767 2.50352
0.206567 2.57995 2.59461
0.178334 -0.184889 3.31599
0.487745 4.0586 2.45606
3.35821 0.976083 3.35993
0.731252 1.54694 3.36658
2.09147 2.83346 2.84666
0.734786 4.08615 2.43655
-1.01553 -2.17462 3.12265
0.120227 1.79684 3.34359
1.21091 4.15428 2.4332
-0.596059 0.0569576 4.17395
-1.07197 3.15186 2.45654
1.33725 2.99242 2.76041
-2.38571 2.69493 6.39351
0.2395 4.143 2.32701
0.502754 2.79929 2.58924
-0.270181 0.933436 3.49935
1.89715 3.18231 2.79493
1.55706 -0.287938 4.6601
0.892674 -0.849414 4.75542
0.000843613 1.88898 3.20552
2.45068 5.40517 2.68741
4.15594 1.628 3.29782
3.98097 -0.320072 4.17163
0.984798 1.78023 3.32656
2.06145 4.70565 2.55174
-0.366252 3.00416 2.54809
2.39133 3.31172 2.78274
2.04767 -0.708467 4.99775
2.01002 4.14925 2.51601
2.47932 1.83234 3.28103
2.91455 -1.96469 3.75098
-1.03883 -0.417775 4.21638
-0.586104 3.16471 2.51944
4.45701 1.68104 3.31768
-0.494158 1.92774 3.05472
0.782952 4.53072 2.42504
1.25572 3.34517 2.68197
4.57084 -1.05874 4.80964
3.9925 -0.734662 3.90177
0.0395444 -0.818103 4.72031
0.326712 2.0557 3.09805
3.1744 1.32909 3.36656
1.12483 4.07069 2.42914
-1.28354 -0.303557 4.08882
-0.0941825 -2.37623 3.23557
-0.118479 2.81239 2.54724
-1.42606 0.963835 3.21278
3.2308 1.2365 3.38447
-0.687262 3.90509 2.18493
-1.21211 -0.037957 4.12774
0.725043 2.75984 2.63976
-0.315148 0.982499 3.50449
1.82164 3.08721 2.79013
2.79275 -0.531285 4.23958
1.04318 4.17962 2.38074
2.79779 1.52746 3.29438
-0.114751 2.93294 2.56793
4.31606 1.52576 3.33787
0.769196 -0.854063 4.7187
3.47535 1.43347 3.46766
3.96531 2.30301 2.9833
1.6438 -0.767596 4.50048
2.67022 4.46359 2.53727
2.82567 -0.686432 4.40888
1.27163 3.16352 2.72243
1.2162 1.83638 3.33906
-0.88641 2.0544 3.05565
1.88491 4.49866 2.45384
0.709867 3.25858 2.6192
3.31975 -1.23355 4.74638
-1.54269 0.38794 3.02748
2.84152 1.65193 3.20481
4.63072 0.661628 3.76546
1.17327 -0.997957 4.84551
-0.551853 3.19813 2.54043
2.91651 -1.96107 3.74979
-0.206475 2.05255 2.9068
-1.32926 1.30843 3.39037
0.86899 3.3652 2.60879
1.04227 -1.66998 4.65776
0.611147 2.00054 3.05955
2.78865 0.69901 3.73878
0.0100493 3.2536 2.5157
4.12147 -0.446678 4.0012
2.4687 0.535517 3.82522
-0.75428 2.18053 2.80889
-0.345983 3.37717 2.48128
3.49935 0.50127 3.85905
-1.26928 3.64878 2.27615
2.03283 2.03409 3.12332
-0.439933 3.4748 2.4901
-1.28001 2.93261 2.51029
1.71805 0.31926 4.14287
2.12574 2.20057 2.98487
-0.494496 3.48337 2.43381
-0.398355 0.458907 4.13447
0.382137 4.38117 2.25718
1.09059 3.65853 2.59148
1.14494 2.20487 2.95856
0.338793 0.0448816 4.43541
-0.615573 2.38288 2.75789
0.942876 3.69983 2.56198
-1.30984 3.04898 2.53487
3.54976 0.0295216 3.97582
-0.828965 4.05957 2.20425
-0.611738 1.87649 3.22728
1.99847 0.124279 4.16218
-1.68002 1.43871 2.97752
1.50381 3.08342 2.76393
-0.384749 -0.825883 4.49106
1.17403 0.391331 4.33815
-0.946194 1.83798 3.27319
0.544112 2.89784 2.60664
-1.61771 2.0152 2.87439
3.99157 -0.352978 4.09799
3.80464 1.58306 3.24214
2.51266 4.88719 2.6749
-0.679015 3.09892 2.45911
3.96473 2.16108 3.02587
0.22447 0.0326108 4.42799
-0.549063 1.89348 3.13211
1.15741 4.36119 2.40484
-0.0330438 3.05602 2.53738
-1.50501 0.211556 3.01514
0.98671 3.3492 2.66296
4.3363 0.614704 3.44021
-0.101327 2.01291 2.99339
1.92245 4.27935 2.45246
2.27063 -0.53171 4.38371
1.19486 3.23563 2.64216
-0.357371 2.03804 3.10055
4.0044 -0.801486 3.92701
-1.03331 -0.275145 4.19247
0.570704 3.43996 2.57664
2.37059 1.99741 3.11986
-1.21128 -0.6801 4.24701
3.89907 -1.17457 4.06276
0.97184 4.74115 2.37957
2.31017 3.42132 2.74919
2.10449 -0.719095 4.86617
3.2809 1.87263 3.20312
2.71849 2.01247 3.04906
1.26627 3.54505 2.65287
-1.29769 4.03734 2.15696
1.54247 3.67325 2.70148
0.344004 0.856029 4.18557
3.84979 -0.0276518 3.87478
0.725124 2.28394 2.89276
3.98427 2.09143 3.17486
1.17276 3.69436 2.63181
0.126981 4.26282 2.2311
-1.48477 1.8056 3.22432
-0.857884 2.4458 2.70792
3.54463 0.376594 3.89806
1.37558 3.72968 2.61325
2.86679 0.745881 3.64784
-0.218457 2.43933 2.86222
-1.36219 0.209353 3.25915
1.22593 0.69093 4.03403
-0.191044 3.69699 2.44403
1.42034 2.60415 2.93108
3.65603 2.22509 3.19837
1.89458 1.10942 3.64966
0.277434 3.79023 2.48033
-0.927629 2.61231 2.80637
-0.673042 0.62392 3.36818
4.4572 0.835596 3.60155
1.30533 0.480501 4.15914
0.102923 3.89284 2.48251
4.94423 -0.733913 4.06423
-0.959231 2.16077 2.87301
1.43907 3.49598 2.68251
0.466115 2.02647 2.98075
-0.147783 3.29357 2.48271
4.24163 -0.635575 4.0133
1.62546 0.756932 4.08947
0.731876 3.50714 2.58824
-0.240679 2.22772 2.82548
4.20411 2.19972 3.2832
0.951196 2.18683 3.02947
-0.0413325 0.855617 4.02666
-1.16671 2.74201 2.69868
-1.0488 3.50586 2.42869
0.145105 2.33146 2.76956
0.660593 -1.02392 4.19431
4.23043 0.167627 3.83319
-0.488012 3.58118 2.45372
2.17765 0.587223 3.85651
3.64251 2.5413 3.01268
0.551644 2.2633 2.83955
0.334101 3.64559 2.49008
-1.4609 0.857214 3.26617
0.301923 0.197685 4.38216
1.43933 3.80103 2.60221
