ply
format ascii 1.0
element vertex 1927
property float x
property float y
property float z
end_header
0.662256 0.202007 4.27031
0.265678 1.14254 3.83674
1.6574 1.85921 3.18678
1.14459 4.1046 2.41143
0.691729 1.38734 3.58519
-0.369358 3.92176 2.2114
1.30187 2.14336 3.12013
4.17298 -0.701432 4.11833
2.83458 -0.178946 4.05782
0.223778 2.742 2.58993
-0.29903 3.51166 2.46149
3.44809 1.14954 3.58387
1.64736 2.05956 3.17758
1.24952 4.1099 2.31405
2.46171 -0.0243685 4.10312
-0.808515 2.74279 2.6458
0.733746 3.42457 2.48574
0.14013 2.86475 2.51911
1.99687 -0.291112 4.37313
1.49264 2.28705 3.05339
-0.4444 4.01495 2.1534
2.4109 1.45917 3.44342
0.668477 3.50001 2.41788
1.4257 2.9769 2.78124
0.0405256 2.20405 2.9928
0.722916 4.25702 2.27182
0.174952 1.47031 3.44727
0.0592152 3.56873 2.37828
0.663322 0.460185 4.20785
2.12105 -1.01041 4.23363
-0.22097 3.82468 2.30699
1.67213 4.60716 2.27723
1.70837 0.515858 3.95494
0.198711 2.49372 2.71735
-0.411105 -0.84977 4.64935
1.91914 3.34568 2.65621
1.59178 0.961324 3.80511
-0.74034 1.85993 3.14684
1.02711 1.99905 3.18817
-1.22772 -0.21018 4.15363
3.64505 1.03271 3.58404
0.0296242 3.37991 2.50184
2.53186 4.19138 2.54778
1.89498 2.72229 2.83596
1.81563 0.170254 4.28425
0.706684 1.8895 3.1409
-0.854462 4.06548 2.14103
2.92818 1.02676 3.79714
0.222105 4.04545 2.34862
3.80535 -1.26378 4.18683
0.702301 3.28088 2.50431
2.62825 0.242525 4.19656
2.43379 2.6839 2.92396
3.63648 0.933326 3.61346
0.955209 4.01776 2.46568
1.74493 1.92948 3.29091
2.04614 2.66533 2.88959
4.4098 1.30137 3.5882
0.386197 3.27549 2.49079
0.249472 1.04306 3.89018
1.65227 4.07722 2.45301
3.31707 1.77186 3.28097
4.00466 -0.779356 4.12489
3.61704 -0.497325 4.08644
0.251178 2.50223 2.73294
1.43396 3.35618 2.64515
0.119526 3.38448 2.43984
2.71488 -0.79995 4.74223
1.57783 2.80236 2.80168
0.918372 0.682809 4.06838
0.770625 2.02069 3.06864
4.85735 -0.76662 3.96293
3.26611 1.12994 3.50581
-0.283457 3.86743 2.22876
1.73323 -0.593761 4.79298
-0.0995237 3.31258 2.44655
1.08234 2.69279 2.77628
-0.235174 1.95288 3.03016
4.13267 1.04585 3.68205
2.52915 4.33183 2.53459
0.864817 0.0727641 4.44479
2.21239 3.86412 2.58228
0.315969 0.877311 4.19084
-0.883756 1.67942 3.20746
1.04756 0.220515 4.37536
1.89218 2.33307 3.00608
0.600373 3.00052 2.56825
1.31012 4.26005 2.23329
-0.890652 1.61098 3.25222
1.01058 -1.37163 4.78846
1.56139 1.72843 3.30142
-0.641665 3.79537 2.40287
0.391733 0.946326 3.91301
1.48055 3.27409 2.65831
2.96682 -0.346143 4.32044
3.89747 2.66806 3.22918
4.0696 -1.15706 4.3817
1.55234 3.89039 2.46136
2.30688 3.22261 2.73057
0.10817 2.35682 2.80584
1.27527 -0.0896478 4.57694
0.137603 0.816166 3.90877
0.811408 4.34154 2.26859
1.3668 1.68345 3.40069
1.3129 3.78965 2.51056
1.08299 2.39705 2.9085
-0.0400722 3.0833 2.53864
0.459299 3.78315 2.41723
4.09484 1.61209 3.66207
2.86363 4.92464 2.5674
-0.740978 0.627742 4.00901
1.44304 3.1082 2.69658
3.5416 -0.918726 4.66577
1.09745 2.32737 2.95655
1.70385 -1.27761 4.38651
0.592143 2.47237 2.72119
1.70273 0.278518 4.09985
2.8007 1.77277 3.25794
1.306 3.30008 2.60052
0.0313215 1.0504 3.87657
1.32106 3.87776 2.44651
0.220907 -1.15519 4.88955
0.322052 0.95506 3.9455
-1.94764 0.47251 5.26552
1.15213 1.78697 3.38453
3.98731 -0.92516 4.36451
2.29275 2.49501 2.95572
0.187753 3.83994 2.33102
1.09704 3.19944 2.58414
0.341668 2.80258 2.57264
4.07357 -0.946626 4.24116
-0.918996 1.47787 3.36468
3.54668 2.22277 3.21829
3.76846 -0.517961 4.09516
0.31863 -0.237311 4.69246
-0.167756 2.78207 2.61829
-0.542507 3.93006 2.16538
2.19178 3.65863 2.63609
0.188776 1.4392 3.6893
0.554382 3.57266 2.47269
1.09207 2.13668 3.102
-0.65726 3.90886 2.08988
1.04754 2.23329 2.95817
0.836691 1.55447 3.50258
0.589022 0.739805 4.2746
-0.135414 2.94533 2.58279
-0.805747 -0.640713 4.10965
1.17865 4.21715 2.26476
-0.5838 3.68919 2.44792
3.87722 -0.622171 4.22661
2.8053 1.36933 3.47461
0.837291 4.19031 2.355
3.30048 2.14609 3.09251
0.280631 2.80027 2.56667
0.045035 2.09975 2.98271
1.64744 3.60979 2.52738
4.01109 1.19792 3.46314
-0.694508 3.9423 2.10994
-0.234914 0.181127 4.32763
1.58644 3.62598 2.59634
-0.313218 2.86092 2.69231
-0.538898 3.01047 2.54673
-0.266579 -0.0342422 4.299
0.978511 2.29855 2.91592
0.960673 3.65349 2.4674
3.21602 1.54547 3.45349
0.331813 4.21183 2.24157
0.744218 1.52839 3.4403
-0.70766 2.21034 2.83824
0.486521 0.0846157 4.4362
-0.0761501 4.22157 2.18213
0.242182 3.68902 2.4121
2.13523 3.04056 2.75518
0.927967 2.64906 2.72141
-0.489744 3.33132 2.44847
3.37158 -0.922804 4.5631
4.08413 1.05706 3.72413
1.88457 0.531291 4.14428
3.22299 1.95287 3.26001
0.890255 4.03982 2.41582
0.259795 0.729794 4.15586
2.1309 2.66813 2.90099
2.8231 -0.734832 4.22331
3.3232 0.92875 3.55777
0.338855 3.20721 2.43612
0.779223 1.86456 3.11708
1.53565 4.05316 2.38939
1.97784 4.70612 2.31661
0.559088 1.97863 2.99018
4.30198 0.0747424 3.7186
3.05743 1.17838 3.60841
-0.883014 0.281672 3.88181
2.14821 3.58591 2.65028
-1.16784 -1.38389 4.7925
0.402398 2.67713 2.62538
0.244398 4.13397 2.35866
2.19183 -1.10158 4.67486
3.70685 0.251579 3.83382
2.63082 0.479959 4.1686
1.66494 2.46779 2.90282
2.80644 -0.906166 4.38949
0.329824 3.18815 2.56871
4.41016 0.699697 3.73689
1.84321 3.86924 2.51895
2.90585 1.61881 3.23586
0.524585 0.714152 4.17272
0.926355 2.33494 2.84704
-0.351314 -0.791539 4.60727
1.58297 3.19759 2.70026
0.948351 0.763782 3.99604
1.87307 3.9599 2.52259
1.54743 1.67375 3.42308
0.74143 -1.10887 4.76058
3.06205 1.81826 3.37328
1.31165 4.45619 2.26224
3.10495 0.892328 3.85855
-0.319735 -1.35611 4.38201
2.13349 2.55886 2.92227
1.18873 0.296475 4.22282
-0.715092 3.16503 2.43413
1.45966 4.5333 2.27462
0.269623 3.87122 2.35362
3.71308 -1.07629 4.17537
4.1248 0.235377 3.98367
2.76291 1.37172 3.51391
1.30531 2.22474 3.12697
1.85736 4.11685 2.33961
-0.6041 2.90868 2.64799
1.82562 1.31016 3.58015
-0.71158 3.50051 2.38154
-0.362556 2.07461 2.94097
3.95032 -0.371678 3.99045
1.86297 2.85666 2.78207
-0.600121 3.92356 2.1041
2.07689 3.61727 2.61739
4.02259 -0.6439 4.13518
0.670807 2.99589 2.58441
0.823231 2.28679 2.91146
1.05008 4.23501 2.27981
2.01434 1.57703 3.4608
2.00161 3.77393 2.59492
-0.322409 2.94443 2.58585
1.32076 -0.43931 4.69046
-0.607147 2.21794 2.85809
0.0544806 4.11537 2.12957
-0.802564 1.50582 3.27553
1.37672 3.77312 2.50703
-0.474878 2.92589 2.56644
3.61396 1.40355 3.44909
0.151711 3.51468 2.42417
2.4751 2.22453 3.03707
3.79669 0.021383 4.00214
-0.2322 4.08423 2.21202
4.05848 0.113217 3.876
-0.826643 2.66682 2.44693
-0.962536 -1.31885 4.42154
2.57756 1.32323 3.38777
1.87752 3.74057 2.56608
0.349886 2.17115 2.99665
3.54897 1.58925 3.61766
0.0070929 4.0677 2.16469
0.382628 2.9408 2.52842
-0.0618583 -0.0477152 4.28186
0.921362 2.27519 2.90734
-0.13784 4.11684 2.1336
0.567505 3.70709 2.44474
3.3342 -0.0979786 4.23594
2.8897 1.02776 3.54483
4.48479 -0.28312 4.1276
0.337829 4.1333 2.47266
1.08255 1.97293 3.18639
2.36462 2.71657 2.86256
2.22862 3.48141 2.65487
-0.830927 1.94431 3.17218
0.740168 4.09117 2.39695
1.9503 1.06622 3.827
0.982352 3.33055 2.56151
3.47453 0.511621 3.861
-0.604665 2.63841 2.77795
2.31693 -0.783043 4.51417
1.80525 3.59989 2.59535
4.09674 -1.16048 4.44936
1.1348 2.8118 2.7106
3.61372 0.233054 3.79543
-0.610429 2.0409 2.8833
4.5376 -1.11563 4.11837
0.534403 1.4098 3.68533
2.2159 4.33272 2.53765
2.82404 -0.976437 4.82813
0.164759 1.3077 3.7087
0.000578181 0.582354 4.06846
-0.463805 1.99499 2.97769
-0.457448 2.73047 2.66593
0.346949 3.38989 2.47076
1.10316 4.25301 2.40248
1.63171 2.80211 2.82964
-0.899544 3.4964 2.51156
1.7182 4.71673 2.28701
-0.531081 1.25439 3.45201
0.43134 3.9957 2.33219
3.40567 -0.383106 3.99508
1.07197 -0.10213 4.53062
-0.692173 2.0274 3.01136
1.00025 2.66569 2.75676
2.15693 3.50055 2.66887
0.998198 2.00257 3.22829
1.65514 4.04892 2.34936
1.48883 1.13921 3.69956
2.38116 -0.639617 4.41345
0.994772 4.1759 2.35576
0.0185871 2.65465 2.52185
1.03142 3.49237 2.50216
1.29892 1.32669 3.58117
1.14604 -0.429698 4.67818
3.79928 2.04662 3.14035
-1.29798 -1.19616 4.22994
2.57921 0.765746 3.72845
1.65087 0.277859 4.36385
2.15234 1.7792 3.48116
1.62207 2.47921 2.91745
1.79627 3.85293 2.50818
-0.472479 3.20653 2.55276
1.77485 -1.59227 4.66164
0.846099 3.82653 2.40703
1.20253 1.70692 3.46229
0.924177 0.78569 4.09168
1.00288 4.71021 2.28261
0.95155 3.10275 2.60423
0.596508 2.34242 2.84107
1.11141 3.96099 2.44148
3.31662 -0.0914153 4.30185
0.647007 3.30868 2.53236
2.02371 2.67075 2.923
3.37106 1.89788 3.37869
1.58064 4.4389 2.27206
-0.607676 1.11849 3.66753
2.55842 0.87776 3.71911
3.41195 0.0376866 3.92171
2.70528 1.79699 3.30927
1.42114 2.586 2.92604
2.9529 3.62407 2.9272
-0.0104535 3.94696 2.34547
-0.0873616 2.50723 2.76952
4.26979 -0.595775 4.14116
1.66039 3.32276 2.63878
3.2336 -0.807915 4.17295
2.44195 0.861712 3.63612
-0.151803 0.688588 3.93291
1.65359 1.77401 3.20598
0.140424 3.7567 2.34516
2.09091 3.28714 2.70487
1.31283 4.5181 2.26366
2.13013 -0.618586 4.32615
1.31835 2.45868 2.87966
1.76064 1.72534 3.35247
1.84668 3.98227 2.48046
2.47958 0.756468 3.67026
2.77688 -1.34133 4.54447
-0.212997 3.8716 2.29161
1.59351 0.373894 4.12754
-0.681882 -0.0196384 4.18428
3.85996 -1.11832 4.30589
1.76768 2.643 2.88168
-0.165608 3.22678 2.44515
-0.271988 0.599619 4.15074
3.37184 0.971409 3.76295
1.85476 -0.935313 4.77462
2.41772 1.84984 3.23691
-0.506645 3.9605 2.13089
-0.0892342 1.55673 3.46908
0.750687 -0.0943723 4.53244
-0.280857 2.21399 2.88561
-0.456166 3.61626 2.48042
2.21496 2.98653 2.72127
-0.872572 3.65776 2.43936
-0.0721685 2.18049 2.9873
-0.425549 4.09952 2.17178
2.39044 1.37948 3.50132
2.44716 2.91021 2.76329
-0.196426 3.07214 2.53629
1.55126 -0.453373 4.64849
-0.758785 2.34227 2.78043
-0.372774 3.68124 2.39671
0.563466 1.65214 3.29479
-0.530401 4.11562 2.1224
3.56437 0.612102 3.85621
2.68404 1.52346 3.41512
0.0334389 -0.232758 4.31096
5.01801 -0.617982 4.27139
0.592975 2.26065 2.87034
0.311348 3.73384 2.38707
-0.729084 2.99351 2.54137
0.652472 1.81282 3.18306
-0.397812 -0.628777 4.57342
-0.0234916 1.07302 3.97793
2.1235 3.43909 2.74241
-0.347114 2.4877 2.71652
2.0149 4.33028 2.33623
-0.535532 -0.385799 4.68657
0.619008 3.97913 2.43607
0.612317 1.18517 3.7012
3.69036 -0.847089 4.23572
2.19876 4.14592 2.52228
3.19949 1.87102 3.13171
2.86842 -1.00499 5.10627
-0.530641 2.64533 2.6735
4.77777 0.382097 4.09112
-0.828423 3.40016 2.49617
2.48187 0.55007 3.79
0.463121 1.89222 3.16604
3.55788 -0.787133 4.39101
0.0519288 1.12257 3.74369
2.22956 3.42841 2.67083
-0.0105037 2.55847 2.70374
-0.615666 3.87423 2.22699
4.00777 -0.789066 4.09796
1.00014 3.02438 2.61718
0.294572 2.2826 2.87535
0.790719 1.59965 3.38127
3.40392 -0.215643 4.0283
0.0865772 3.57731 2.39781
1.40691 4.21703 2.27569
3.92445 1.44463 3.56106
0.813093 2.20744 2.92192
1.04904 4.30775 2.26057
3.61434 -0.103459 4.15431
0.334596 2.87845 2.54326
1.87723 3.79026 2.52806
-0.0931357 2.43009 2.77884
-0.55171 3.14093 2.49152
0.642466 3.80561 2.44363
2.22442 0.832221 3.84811
-0.222417 4.52902 2.19145
2.81082 1.65582 3.28203
1.00986 2.39102 2.91815
1.70713 3.28661 2.7807
2.59944 -0.342266 4.34798
0.739268 0.77882 3.91902
1.83413 1.6691 3.41993
0.335861 3.82769 2.3913
-1.26077 0.421049 3.83797
1.49012 4.61928 2.27632
-0.621301 -1.09413 4.77999
1.78062 3.81561 2.54417
0.311408 4.30423 2.23937
4.03782 -1.00684 4.88073
2.34134 2.33712 3.04497
3.32349 0.42382 4.02964
0.728256 3.01781 2.60318
-0.704452 1.61234 3.28665
0.124945 1.73123 3.21639
0.541668 -1.39672 4.67053
-0.638248 0.886158 3.64073
-0.462737 2.40326 2.73293
0.552742 3.78154 2.42408
1.16658 3.16068 2.56749
0.206314 0.231853 4.38576
3.58963 1.59662 3.41375
4.02596 0.131627 3.96302
-0.15557 0.804482 3.86131
-0.642069 -1.22285 4.27316
0.757501 3.08987 2.57865
-0.51504 3.75053 2.32172
-0.0169219 2.36845 2.84037
1.79305 4.53866 2.28478
-0.410237 3.90847 2.21036
1.35013 3.5705 2.55453
-0.548775 2.75598 2.58811
1.60329 2.12931 3.13624
4.01186 -0.627378 4.0455
0.860636 1.23127 3.5285
2.94333 1.27725 3.59118
1.82296 2.10894 3.27523
0.689359 2.69608 2.6645
3.13569 -0.502969 4.23236
1.73251 3.57671 2.64089
0.492259 4.09997 2.29422
2.22978 -0.820356 4.91822
1.67487 0.618394 3.95153
0.203721 2.84593 2.51261
3.01224 1.5135 3.63383
-0.629378 3.91164 2.09431
0.380124 2.26957 2.98242
0.0722877 3.51183 2.41425
0.62186 2.79635 2.58273
0.283936 2.17773 2.99702
-0.664416 3.60287 2.39616
3.61018 1.35829 3.56417
-0.148017 4.11934 2.18721
2.94361 -0.0714754 4.19071
-0.207509 4.06981 2.25819
2.45003 2.85526 2.80327
-0.669724 0.237373 4.04705
-0.432716 3.54606 2.49373
1.04682 1.33766 3.53635
0.501753 2.04634 2.95653
-0.127493 2.30155 2.99664
0.96767 4.2904 2.3542
-0.343187 1.52578 3.35873
0.0295524 3.44538 2.36437
0.0318237 2.86393 2.51853
0.815419 -0.264432 4.62806
2.40837 -0.169694 4.2142
-0.247711 2.20398 3.00215
-0.404725 4.22218 2.23886
3.26522 1.32472 3.44871
0.554213 3.65937 2.46703
-0.395768 2.82653 2.57667
0.0789005 3.85788 2.34353
2.00567 3.47363 2.70211
1.35132 4.61055 2.26899
-0.102655 2.59147 2.73641
-0.0042492 1.89023 3.1261
6.02171 0.30211 4.83063
4.01601 0.939202 3.69382
-0.822285 -0.910058 3.99847
3.53963 0.830493 3.69394
-0.0494758 1.78487 3.08213
3.31744 0.437371 4.10734
1.93105 2.60081 2.95473
3.10457 -0.913088 4.41522
1.37938 3.30402 2.60965
3.9242 -1.38511 4.37746
3.24354 2.82205 2.88938
3.79436 0.130799 3.92201
-0.088158 3.38972 2.44939
1.23223 3.97655 2.39393
-0.685877 1.2456 3.38628
1.51772 4.09086 2.41585
1.49676 2.0447 3.15585
0.42873 3.28081 2.45017
3.637 -0.916866 4.22946
3.27784 2.70325 2.8819
4.09647 -0.705081 4.12017
2.40598 1.95987 3.22957
-0.592835 3.8618 2.17745
-0.515122 1.18763 3.58164
1.96547 -0.468261 4.60013
0.278199 4.09874 2.44277
3.49571 -0.792019 4.1975
-0.489149 2.56704 2.70261
-1.25007 -0.283811 4.11158
1.28036 3.40808 2.63182
3.06209 0.966834 3.67322
-0.607158 1.89518 3.10081
0.4007 2.01049 3.04181
2.16553 4.27327 2.43506
0.472243 1.28688 3.65306
1.0717 4.04011 2.37313
-0.322747 3.39751 2.44961
-0.274332 -0.8558 4.99935
1.23415 2.72772 2.7253
1.49567 0.664379 4.15219
1.32785 1.983 3.2018
3.38215 1.02113 3.58658
-0.698749 3.86151 2.17823
0.421439 -0.674714 4.7872
-0.629645 3.35411 2.46701
2.54992 2.73038 2.88113
0.634732 3.78063 2.49577
-1.09308 0.768024 3.77132
0.135441 4.21117 2.18578
1.59215 1.6407 3.35968
1.77382 2.40534 2.97324
-0.0919323 2.99184 2.46833
1.97577 3.87072 2.52108
3.45564 1.57711 3.56683
2.8597 4.8549 2.56531
0.886916 2.28397 2.91085
-0.847266 0.238692 4.14864
0.853808 2.98658 2.5857
-0.686955 3.16716 2.43855
1.21 -0.0970356 4.58813
1.68049 2.61373 2.96108
3.08409 1.7579 3.26337
2.20924 3.9921 2.54978
3.17525 0.838108 3.66068
0.791932 3.15909 2.55169
1.24824 4.61023 2.26733
-0.516188 2.41642 2.74323
2.25582 -0.0414089 4.18564
3.11629 1.69028 3.38634
-0.783103 0.891976 3.61554
-0.589372 3.75766 2.26272
3.75633 0.563563 3.93882
1.98765 4.5145 2.30893
4.33952 -0.762446 4.38093
-0.77766 3.7475 2.29649
3.57094 1.78471 3.37273
2.8277 -0.574413 4.09359
1.05854 2.48629 2.86271
0.570153 3.07215 2.44175
1.34493 0.909299 3.86191
1.42927 1.81674 3.3836
2.95893 1.83735 3.16937
1.41156 4.62503 2.27245
2.0685 1.0899 3.78942
1.96465 -1.05216 4.77876
0.609419 3.27083 2.47839
3.45663 0.296207 3.83023
1.19281 2.61368 2.7711
1.21814 1.87898 3.29903
2.93211 0.503206 4.14731
4.52359 1.02627 4.0681
0.682538 -0.850816 4.50236
-0.0534907 3.92923 2.37164
2.14418 3.40368 2.70108
-0.156475 2.57158 2.77677
1.37169 4.02339 2.4103
-0.616632 2.97242 2.58767
-0.582385 3.57913 2.42298
0.878623 2.22447 2.9145
-0.407666 4.14898 2.22616
0.211129 -0.178326 4.58264
-1.04234 -1.16737 4.14783
2.15342 1.41027 3.27626
-0.26274 1.488 3.40035
1.70838 2.19362 3.04798
0.425753 4.15253 2.19964
1.90862 -0.114912 4.19469
1.00465 3.663 2.46211
-0.00142223 2.80727 2.53183
-0.713066 2.39114 2.78522
0.995966 3.138 2.59711
3.69148 -0.412764 3.84058
4.95041 0.741526 4.36491
0.237316 4.31337 2.22366
-0.982978 1.74371 3.25117
0.322559 3.68135 2.39486
-0.436624 3.01426 2.53691
-0.631535 2.34407 2.86086
0.769987 3.75666 2.39836
-0.958845 1.64698 3.26819
2.86076 4.7564 2.55207
2.82116 0.248897 4.1161
4.63903 -1.39831 4.72443
0.60612 3.47108 2.31783
0.923621 4.26601 2.27697
-0.539118 -1.09236 4.80127
0.767705 2.23295 2.91675
3.4006 0.317595 3.9749
1.8819 1.49988 3.44741
1.96568 3.01598 2.71188
-0.230643 4.13048 2.10404
3.69349 1.59216 3.31107
-0.19161 3.72005 2.40669
3.39683 0.657364 3.74964
0.227184 3.02374 2.47579
3.9316 -0.0719524 4.22411
2.29301 2.47934 3.04642
3.03984 1.51875 3.33454
1.13094 -1.56715 4.79268
0.507243 3.83676 2.44272
1.90416 3.07011 2.66344
2.6926 0.12087 4.03825
-0.859941 2.29853 2.78667
-0.482108 1.33528 3.56739
-0.641593 3.43664 2.43941
1.36021 4.05834 2.37833
-0.511005 2.70197 2.59829
1.13972 0.687693 3.98228
2.70208 2.00933 3.13749
4.27328 -0.768036 4.56615
-0.326611 1.23343 3.57378
2.56422 1.98099 3.22549
2.29527 2.77183 2.88332
3.16782 -0.602117 4.05008
1.70724 3.5131 2.64184
3.21445 -0.797857 3.98684
-0.12552 2.85192 2.5682
1.98734 0.521065 4.01636
0.0238556 4.01887 2.26987
3.6164 1.36059 3.48598
-0.806626 3.93066 2.14911
0.176221 2.23737 3.02563
1.96042 3.64659 2.60373
2.22446 2.93769 2.85125
-0.118078 2.11167 2.96652
1.89514 3.73429 2.60439
-0.889218 1.37419 3.32631
1.56582 4.17708 2.29054
-0.902155 -0.0826187 4.17757
1.93642 2.88333 2.78626
1.15371 3.56241 2.52135
-1.66346 1.70861 4.45343
-0.673311 3.90894 2.18805
-0.652611 2.05885 2.86144
2.37978 0.0023742 4.18484
1.50935 2.83909 2.81536
2.3126 3.62159 2.66461
2.39966 1.18745 3.51656
1.30287 2.06507 3.1442
-0.158597 2.16648 2.91533
1.58229 4.11642 2.31602
3.05405 1.33399 3.37828
3.30348 -0.443777 4.07141
2.13685 3.03479 2.83191
1.1766 4.19714 2.29222
1.78437 3.67527 2.55957
-0.181968 -0.179007 4.46231
1.52913 0.990699 3.83596
1.18999 3.88097 2.43567
1.01047 1.86997 3.27063
4.63097 0.0850077 4.05307
-0.200547 2.49803 2.69681
1.74871 3.38838 2.67618
3.49901 0.769988 3.72858
1.20128 3.9191 2.40062
-0.66957 1.80472 3.20837
4.28498 1.9666 3.44002
-0.408172 2.42897 2.73464
0.437795 0.478026 4.16872
1.32295 3.23916 2.60467
3.72433 -1.02584 4.29636
-0.523106 3.34187 2.44488
1.22318 2.70625 2.77483
1.49747 0.190745 4.23671
1.43364 1.98272 3.16033
0.819465 -1.78456 4.72027
-1.21396 1.25858 3.57199
2.89943 -1.30798 4.45075
-0.426316 3.23782 2.42015
2.01901 0.269754 4.01075
1.00747 2.60116 2.74885
1.13878 1.9424 3.23432
1.05123 3.98235 2.37706
0.315302 1.14527 3.74875
1.15297 4.01427 2.34746
-0.221201 2.59503 2.70038
0.537004 3.23636 2.45425
3.03121 -0.625513 4.54308
4.28192 1.00275 3.83407
0.429766 3.94282 2.3937
0.661375 1.90929 3.1457
-0.657502 2.61766 2.80991
2.60561 -0.435143 4.5784
1.70199 4.56064 2.28
1.5884 3.37466 2.65933
-0.0963059 1.06831 3.84854
0.922032 3.99832 2.38637
0.874475 1.80876 3.14977
-1.47092 -0.983021 4.18277
0.547182 1.9428 3.0405
2.56287 1.14884 3.72456
1.9764 3.55402 2.68763
2.84893 -0.837311 4.23794
0.402676 0.633674 4.24482
0.699959 2.63919 2.6827
0.022738 4.01237 2.317
3.75381 -0.715652 4.04974
1.74522 0.635326 3.89784
-0.0393803 3.61396 2.40003
1.84527 4.18458 2.25255
-0.257215 1.64127 3.3124
2.404 2.40673 3.08768
1.08801 3.04485 2.61618
1.67216 1.53013 3.50425
-0.343223 3.69475 2.38322
-0.613577 4.1037 2.09471
0.764957 0.097767 4.42785
0.468543 2.21052 2.87445
1.26621 3.00061 2.67496
0.906902 3.17627 2.5415
-0.415262 -0.248709 4.43597
2.37854 2.47488 2.91275
2.83959 5.12464 2.53006
0.283303 1.75411 3.20087
-0.811624 3.81514 2.39852
2.75239 0.790695 3.67364
1.24443 3.15612 2.62597
1.68285 2.41777 2.94443
-0.971005 -0.0344092 4.06438
0.271641 1.66445 3.19629
1.10372 4.494 2.27583
3.39626 0.687467 3.89509
0.703183 3.8768 2.4216
0.936004 1.94209 3.20093
2.27781 4.30672 2.52724
3.53342 -0.451223 4.05671
-1.03001 1.09488 3.37971
1.71929 3.44193 2.64355
0.785056 2.59339 2.725
-0.308209 3.8193 2.29117
2.3705 1.86544 3.33676
3.48059 3.1892 2.8652
1.1959 1.02959 3.87563
0.538185 4.11669 2.4438
2.01831 3.42234 2.70586
0.760131 2.52103 2.75686
4.02741 1.22186 3.75907
-0.49024 0.739487 3.82275
2.0298 2.03908 3.13739
2.87489 -0.740808 4.51218
0.194796 2.66047 2.57332
1.55903 4.03543 2.36587
1.41586 3.53288 2.56684
1.54322 4.11455 2.36475
4.36322 -0.678939 4.55511
1.24902 1.17534 3.57375
-1.91011 3.46029 5.44392
0.449448 2.59884 2.62411
0.610597 3.34979 2.47755
2.45285 2.40481 2.94761
0.185085 3.02363 2.47064
3.16465 0.68384 3.78961
-0.26264 -0.68954 4.4528
0.214724 0.128898 4.39933
0.515965 1.70668 3.2605
0.416041 3.66348 2.37872
0.189461 2.9424 2.49394
0.382205 2.29106 2.83521
0.22096 3.75787 2.3797
2.78375 1.52938 3.30172
1.71133 0.184492 4.15417
0.961391 -1.51806 4.78893
0.55155 -0.188188 4.75557
0.563232 3.92226 2.44347
1.4941 4.55478 2.27779
2.95362 2.48551 2.94319
0.210797 3.09775 2.44545
1.35263 -0.0650826 4.35262
-0.199952 0.940786 3.69387
0.974728 1.82385 3.33817
3.52473 1.65094 3.39967
2.90989 -0.864956 4.42342
2.74334 0.670556 3.65628
3.56979 0.472639 4.12419
-0.147272 -1.23236 4.64971
-0.521767 3.06301 2.47909
2.38392 2.40693 2.94597
-0.804943 -0.553865 4.00237
1.38637 -1.46168 4.70636
2.94754 0.586238 3.84455
0.188386 3.74009 2.36824
0.736729 0.367417 4.21963
0.43031 1.03658 3.79107
-0.754196 -1.27467 4.48755
1.18038 1.89835 3.31606
0.699654 2.51957 2.75208
-0.118238 3.31138 2.5545
0.0587106 3.82053 2.36273
1.6688 0.431525 4.14573
0.458992 3.87637 2.35111
-0.60566 -1.10536 5.02982
-0.979391 0.946776 3.64231
2.27659 1.74263 3.30591
2.91367 2.48657 2.94297
0.0811215 3.17009 2.50345
2.09645 4.39826 2.36661
1.40201 4.47893 2.26758
0.491165 2.83822 2.57756
0.759763 2.17645 2.95751
2.98576 -0.435876 4.42443
1.15957 1.48547 3.53726
1.73045 4.1608 2.33903
1.04804 3.54666 2.50188
-0.646239 2.85368 2.65231
1.41002 2.16065 3.10862
0.511955 4.20376 2.27553
2.07868 -0.270026 4.78796
3.5638 1.23734 3.4276
-0.0402351 2.28395 2.80845
0.799133 3.63753 2.50229
-0.0575606 3.01499 2.54921
-0.438927 3.67293 2.42289
0.469494 4.20447 2.22594
3.28821 1.57171 3.4473
-0.743823 2.25253 2.86019
0.104448 2.89601 2.53147
1.58701 1.52894 3.47494
0.113823 3.64021 2.35667
3.74016 -0.629737 4.24289
-0.826864 2.12077 2.80557
0.0225257 0.26985 4.29893
0.124217 1.487 3.44828
0.419513 2.82286 2.56167
3.82622 -1.32897 4.56997
1.24085 4.19922 2.29034
0.605162 0.376581 4.25956
-0.287777 3.57447 2.42496
3.85176 -0.212375 3.88988
1.11728 4.22688 2.25431
2.40329 1.6294 3.49253
1.3514 3.74014 2.52165
-0.0699478 2.27523 2.79918
-0.404773 3.08919 2.60675
1.5847 3.78489 2.49937
-0.553259 0.14746 4.21381
3.61341 1.51111 3.62559
1.64134 4.25542 2.22471
1.93152 3.05022 2.73775
1.70715 2.27921 3.02524
2.36309 3.53567 2.67829
0.179133 2.61675 2.63122
3.12319 0.489855 4.11708
2.1412 2.00481 3.22569
1.92259 -0.871894 4.81524
0.729762 1.22422 3.67338
0.17282 3.96668 2.34203
1.14113 3.42975 2.61829
-1.2115 1.39116 3.37584
0.125321 2.55232 2.65378
0.239327 1.95052 3.17418
-1.47924 -0.617307 4.63184
4.14934 0.933529 3.52132
0.43017 0.741838 4.03803
0.979364 2.80255 2.66513
0.125426 3.97108 2.29084
0.973341 3.56846 2.51842
2.5223 1.32473 3.53956
1.23906 4.12784 2.36398
1.12182 2.11428 3.04042
-0.0501774 2.69342 2.59606
1.33426 3.52835 2.56636
-0.0631263 0.514266 4.15359
2.29417 1.20738 3.54255
3.31031 -0.987642 4.05139
0.108116 2.0649 3.05963
0.886389 -0.214416 4.62931
3.00444 1.92621 3.1644
0.31375 1.26119 3.74502
1.29686 4.11109 2.29997
1.75059 3.49274 2.62888
-0.636547 2.62232 2.61032
2.67415 -0.152738 4.09146
0.0654034 4.01129 2.31583
1.60667 1.42102 3.68545
0.700549 4.12979 2.35307
-0.00777881 2.10089 2.95345
3.24282 -0.560023 3.97153
-0.219706 2.85268 2.67526
2.14687 3.68211 2.63519
-0.944764 -0.35079 4.43798
3.20223 2.0436 3.22215
1.45483 1.28909 3.65655
0.717308 4.19552 2.33362
0.0477427 3.47946 2.49664
1.26759 2.75976 2.71898
-0.351324 3.14947 2.47272
2.01799 3.90374 2.52694
1.48545 2.53239 2.93558
2.76781 4.96629 2.55331
-0.445507 0.207174 4.13529
1.93885 1.81144 3.4097
2.40849 0.809051 3.66593
2.34282 0.715329 3.78581
2.67653 1.66499 3.36495
0.945492 4.46957 2.29901
2.99262 -1.22354 4.13555
1.94552 2.45065 2.97805
4.16193 0.163591 3.94624
-0.842975 2.59102 2.66203
1.08823 3.08957 2.55593
0.944835 3.3249 2.53195
0.0226061 3.81809 2.36112
2.67163 1.01866 3.64195
0.370703 4.02242 2.44675
-0.379114 1.90968 3.06835
1.87743 4.44012 2.29196
0.158831 2.48654 2.6941
-1.8694 0.026027 5.43603
-0.97253 1.8853 3.1624
-0.640935 3.18938 2.43925
-0.410489 1.05421 3.72152
1.77588 3.99648 2.40185
2.98163 3.06387 2.78921
0.41209 -1.85113 4.6688
2.1397 2.23938 3.01071
-0.137495 4.04587 2.18075
0.00547014 1.51428 3.32622
3.70712 0.0421193 3.84488
-0.148196 3.51056 2.39462
2.03688 2.98147 2.78194
-1.11768 -1.21993 4.22988
1.97533 2.17404 3.05025
3.82437 0.147165 3.87768
-0.690485 1.46452 3.33674
3.01913 3.86021 2.65847
-0.932173 2.40539 2.80692
0.79448 4.29494 2.29327
1.95001 3.21612 2.70295
1.08582 3.78447 2.49818
2.91573 0.671936 3.78015
-0.0351316 4.19272 2.16175
0.805601 1.71435 3.37819
1.53134 2.37285 3.01693
-0.780128 2.97112 2.49438
2.08866 0.000207852 4.09741
-0.863584 3.68353 2.31087
1.1926 1.65912 3.50779
2.54683 5.06161 2.47345
1.61109 1.97681 3.17239
-0.650402 -0.619829 4.25298
-1.84966 1.55797 4.94554
3.67753 0.573885 4.05873
0.336473 3.31182 2.4604
-0.270913 3.80899 2.23775
2.1448 2.71028 2.82884
-1.62985 -1.33819 4.16656
3.4765 -0.649424 4.6434
1.66932 -1.58678 4.70308
-0.462655 3.79465 2.17636
-0.785394 3.32711 2.48404
2.11229 1.33351 3.55996
3.80302 0.259562 3.8346
1.96858 2.1171 3.11316
3.47709 -1.0749 4.4306
0.56637 2.7564 2.61059
-0.623151 3.85677 2.16341
1.19779 3.53313 2.50963
3.72904 0.39212 3.77448
1.81891 1.26231 3.67245
1.11204 -0.947959 4.95123
-0.0577355 2.02933 3.02316
-0.243928 3.97966 2.19926
-0.401178 2.70678 2.61871
-0.866337 3.50778 2.49203
1.8971 3.54891 2.60717
-0.660746 3.89905 2.23518
0.972577 2.70211 2.66966
3.34347 -0.356513 4.46114
-0.739972 2.05141 3.01052
1.74658 1.28489 3.71882
-1.20945 0.19029 3.50196
2.60738 1.10145 3.63312
0.115038 2.02354 3.1544
1.1304 2.69055 2.76814
3.37857 -0.189597 4.38591
0.142019 3.35017 2.48257
-0.304185 2.89946 2.62905
0.99402 4.17697 2.40009
3.79425 1.34646 3.47727
0.96476 2.19146 3.01944
-0.725118 3.90084 2.14385
2.27684 2.84586 2.76692
0.376415 3.48406 2.45713
2.98964 -0.458121 4.29074
0.607098 3.61666 2.49853
3.52809 1.2287 3.46337
-0.490252 2.12993 2.98451
3.56424 0.184787 4.0416
-0.184771 1.74619 3.17285
-1.19844 -1.12226 4.02658
-1.18852 0.842664 3.64079
-0.78241 3.11872 2.45266
1.07041 4.1761 2.28196
0.0786783 2.43291 2.76614
2.64403 -0.909573 3.74654
2.97642 0.323912 3.97598
1.72068 3.89224 2.46018
2.04319 4.19757 2.43424
-0.464222 1.1245 3.61805
1.76197 4.4729 2.28481
2.63784 1.86065 3.2171
1.14233 3.91232 2.3985
1.06725 2.60224 2.77324
3.60298 -0.066447 4.26943
0.169939 3.23428 2.44699
3.83663 0.0593084 4.10134
1.61355 1.86233 3.3079
3.65945 0.824297 3.62626
-0.912421 3.29698 2.5261
-0.298095 3.81053 2.23828
3.83556 2.68013 3.0826
-0.886971 2.60832 2.79707
0.986254 3.89051 2.44178
2.30123 3.36473 2.68405
1.62011 2.65834 2.9609
4.04242 -1.17894 4.53147
3.28597 0.54939 3.87485
1.08102 1.87731 3.29999
-1.25824 -0.602748 4.2106
3.36346 0.883093 3.80119
3.45015 0.7262 3.59886
-0.429737 1.74887 3.16519
2.94092 -0.598851 4.12036
-0.214755 2.52509 2.86518
0.561248 3.14015 2.51881
0.803974 3.97258 2.42773
-0.339191 2.66871 2.68824
2.03926 4.14395 2.44218
0.0648385 3.34357 2.47646
1.7049 1.1601 3.6866
3.82906 -1.08392 4.31968
-0.461232 3.88785 2.28232
2.80992 1.94353 3.19773
0.810738 3.26723 2.49454
-0.805179 2.6309 2.73152
3.54861 0.474517 4.20606
0.978335 1.93113 3.22901
-1.16417 -0.923471 4.97042
3.50656 0.937177 3.58406
2.47368 -0.153942 4.17812
0.912162 4.14818 2.42998
-0.134777 1.58478 3.45035
2.07693 3.06694 2.77276
-0.901749 4.04811 2.13988
1.36056 2.29338 3.04578
1.27003 4.15768 2.23216
2.55685 -0.0318384 4.02677
1.7323 3.73902 2.54302
0.518228 0.819205 3.93558
0.110185 4.20756 2.17241
3.46968 1.62714 3.42749
0.193985 3.68478 2.40268
1.30031 2.40643 2.9228
-0.323864 3.10942 2.54081
-0.686655 -0.458358 4.84411
2.41714 -0.312122 4.47986
0.218503 1.62539 3.36679
2.34495 3.95476 2.57513
1.34961 -1.36824 4.68769
1.48867 3.11122 2.69505
1.32123 2.3425 2.97251
1.18324 3.04202 2.62223
0.848887 3.65739 2.46367
0.735337 2.28902 2.88142
0.982708 4.30848 2.31029
-0.035831 1.59555 3.27547
3.83878 0.254553 4.74683
4.36187 -1.37387 4.6157
4.09573 1.59729 3.87291
0.995826 0.430142 4.12108
0.314264 2.23472 2.91624
2.90322 -1.03933 4.18531
2.03114 3.05887 2.76071
1.21448 2.52436 2.93338
-0.73411 3.75039 2.42759
2.60168 0.118515 4.13693
-0.875407 3.1197 2.45542
1.00795 0.948858 4.03012
-0.568542 4.16326 2.14102
2.20866 1.68126 3.26572
2.1126 3.90223 2.53767
1.38402 -1.68502 4.6893
2.23566 3.18569 2.69194
0.187066 2.3765 2.83285
3.32889 1.59334 3.34546
-0.693358 3.75947 2.31745
-0.325915 0.873177 4.06731
0.979148 4.50819 2.28816
2.61611 -0.634534 4.6961
0.21106 4.13461 2.35597
0.138591 2.68566 2.61762
-0.888676 -0.314263 3.95632
0.772537 3.4811 2.53089
1.62639 1.23527 3.58075
2.22753 2.06101 3.21324
0.635963 2.13204 2.91973
1.44611 4.10029 2.31294
0.612315 1.49375 3.53819
0.921892 -0.953567 4.92293
-0.36116 2.86278 2.59042
2.06598 0.503637 3.97028
0.855494 3.64351 2.52667
3.73886 0.506251 3.78232
2.92672 2.13558 3.20071
2.36928 1.28636 3.51686
3.14257 -0.740352 4.18865
0.239275 3.46522 2.43832
-0.0839028 4.06175 2.19068
0.802987 2.75153 2.62121
0.791694 2.35338 2.82622
0.127153 3.12814 2.56688
3.35996 -1.0946 4.6594
3.04106 0.697091 3.86067
-0.654775 0.491704 3.92701
1.71071 1.70887 3.40295
-0.113087 3.70176 2.3995
0.11778 0.623238 4.10386
0.278843 2.97066 2.52737
2.41567 -0.908055 4.84391
-0.921474 2.27228 2.76738
-1.16523 1.69173 3.36623
2.20481 3.88867 2.52428
1.46919 4.27806 2.23409
1.86452 1.78703 3.3876
0.276978 -1.49778 4.63411
1.22496 0.905678 3.86147
1.32908 0.208162 4.3148
1.81944 3.31509 2.69348
2.2158 2.52292 2.96306
1.20178 4.55119 2.26581
-0.113644 3.82052 2.36072
2.7 -1.35011 4.60358
-0.0332896 0.392351 4.29199
0.417663 1.423 3.58093
1.8347 4.06167 2.34263
-1.58459 2.94899 4.22882
1.908 2.89688 2.79642
0.771748 3.54069 2.50383
0.276665 2.04306 3.04649
2.1585 1.22689 3.59947
0.0379477 4.08271 2.25851
0.58492 -0.496385 5.32682
2.24033 3.61456 2.65851
-0.198758 2.73788 2.65199
-0.366592 0.721928 3.89962
0.732044 2.93252 2.59358
3.87201 -0.76496 4.2071
-0.98125 2.28431 2.89929
1.38099 3.68258 2.55547
-0.178344 4.19358 2.26176
1.21125 1.5635 3.53354
1.89498 1.46477 3.58008
1.92975 -0.598463 4.87574
-0.994162 2.2518 2.99412
1.90018 2.94846 2.7406
1.80294 4.22031 2.27363
-0.240859 3.65305 2.42292
0.98543 2.85424 2.62151
1.57702 1.47446 3.56977
-0.568723 3.92367 2.15025
3.14455 -0.0321723 4.40357
2.41774 2.18073 3.08006
0.89314 0.223787 4.23514
1.41361 2.90915 2.79514
0.100238 3.5093 2.45964
2.20349 2.07659 3.05543
0.448167 3.52619 2.41944
3.89453 1.25135 3.52576
1.52821 4.1707 2.28969
-0.616415 -0.239659 4.36538
-0.158622 3.57944 2.37829
-0.282941 4.24898 2.24462
1.92156 2.2718 3.03573
0.683121 2.90674 2.57014
1.05533 1.52576 3.43333
-1.02917 -0.0796649 3.7917
2.0448 -0.878169 4.71968
1.58329 1.07675 3.71106
-0.455316 0.607506 3.91903
-0.457001 1.90869 3.07294
0.300564 3.98539 2.41963
0.65686 2.58013 2.72597
1.32396 4.69456 2.26953
0.307827 3.24872 2.45995
-0.616592 1.82328 3.08243
0.216409 3.97114 2.34876
-0.828441 1.01144 3.57929
0.297784 3.19538 2.4809
-1.34022 -0.8544 4.23598
1.47732 2.61882 2.904
-0.670865 0.31462 4.08652
1.95934 3.56915 2.61948
1.95338 -1.1532 3.9382
1.44885 2.80852 2.79095
-0.00226277 3.97751 2.29469
-0.934112 2.05753 3.01321
1.58949 1.28118 3.6822
1.25141 -1.082 4.84066
-0.0181571 1.99443 3.08419
4.20493 0.266754 3.9014
-0.457203 1.21158 3.52873
-0.306961 2.67597 2.68561
-0.203664 3.29334 2.42499
1.37747 4.12955 2.37139
0.340156 2.58885 2.62191
2.06024 3.4489 2.61161
2.10072 1.19924 3.81692
3.91183 -1.15886 4.26669
0.589723 -0.456423 4.77492
1.6664 1.99097 3.19684
-0.747627 3.29367 2.4602
0.0957293 3.9872 2.35793
0.274475 2.5808 2.70589
-1.02851 1.9881 3.17561
-0.173137 3.92285 2.26321
2.62542 -0.31271 4.53394
0.933691 1.12585 3.76296
-0.899517 4.35643 2.12965
1.48272 4.09086 2.35463
-1.03715 0.712079 3.72284
4.56587 -0.825062 4.81013
0.628983 2.68031 2.6285
1.53328 3.52595 2.57273
3.07059 1.17219 3.57403
-0.700179 -0.582112 4.45167
1.22172 2.09281 3.19385
0.400177 4.30799 2.22446
3.73008 1.51813 3.20618
-0.405945 0.203463 4.30015
1.65115 0.76338 3.88102
-0.757453 3.65144 2.34897
-0.856878 2.98135 2.41335
-0.319645 2.42862 2.87333
3.42975 1.49201 3.32259
1.52577 -1.55135 4.71527
2.15186 3.91956 2.54481
0.219088 2.92845 2.48647
2.04488 2.341 3.00566
-0.368878 3.77353 2.32583
4.00915 -0.224755 4.20241
4.2001 0.788006 3.55636
1.04555 2.54033 2.79836
-0.784104 1.86415 3.13635
-0.171542 3.2 2.46881
3.45718 1.85927 3.2721
1.10232 0.909715 3.85524
2.1584 -0.00111346 4.1258
1.48818 1.78638 3.36252
1.37122 2.49956 2.89962
1.04935 4.57463 2.27834
1.53258 3.30315 2.67411
-0.611396 3.75598 2.251
1.22101 3.23137 2.60696
0.588331 2.44376 2.79818
0.226983 -1.28487 4.57783
1.35217 -0.972972 5.05818
0.842395 1.8135 3.35572
4.09533 0.368209 3.7434
0.160661 0.956116 3.88073
2.38023 3.16151 2.67027
-0.894079 2.39478 2.79657
-0.102583 3.73899 2.36502
2.18119 -0.724433 4.44295
2.00456 1.72951 3.50406
-1.17987 0.755349 3.93005
0.435394 0.843651 3.97711
1.91636 2.64716 2.85684
2.77928 4.11399 2.62721
2.28788 4.09506 2.5405
3.42026 0.202312 4.02686
4.39766 0.947061 3.65158
-0.31943 -1.20147 4.41515
0.0912786 2.5172 2.73209
0.161363 1.93147 3.16356
1.49649 3.94661 2.42908
2.61591 3.40114 2.71456
2.14783 0.371313 4.00794
3.93949 0.814347 3.6218
-1.07385 -0.77768 3.72333
2.58414 1.76744 3.21005
2.18651 2.16324 3.04447
2.31718 4.28547 2.43328
-0.835369 -0.191032 4.08211
1.35908 1.42945 3.44726
2.16345 4.47284 2.41048
0.0566578 2.78784 2.52709
0.53929 2.08594 2.9716
0.118935 4.14069 2.23676
3.27391 -0.190387 4.10492
2.18134 1.34095 3.5903
2.32506 3.69381 2.65983
0.351381 3.60001 2.4708
0.700934 2.75828 2.61772
-0.815243 3.65266 2.40809
0.881748 4.25323 2.27539
-0.737412 -0.484994 3.92886
1.46019 1.61341 3.42375
1.73411 2.39705 3.05723
-0.585927 3.02461 2.5474
0.139939 -0.321943 4.49493
0.328773 1.56464 3.44107
2.05321 3.87978 2.58262
-0.546943 2.26408 2.90263
0.85951 4.28976 2.2322
0.261269 2.87308 2.52602
0.173622 2.3149 2.8192
2.77986 3.2113 2.79107
3.47842 -1.09324 3.80287
1.55231 4.26758 2.27253
4.19651 0.187026 3.84386
-0.407869 1.65553 3.25714
-0.332243 3.66511 2.40732
2.06269 0.416911 3.96563
1.12034 2.99389 2.64224
3.51383 -0.952619 4.28271
0.565227 2.25089 2.88218
0.457091 3.70969 2.40306
-0.19259 1.60389 3.40002
3.15586 -1.54218 4.2195
0.278823 0.145997 4.38217
1.48882 3.87676 2.48333
3.03991 4.85471 2.50592
2.0594 2.43314 2.93983
1.71349 3.24912 2.69324
3.268 -1.60277 4.48316
0.668287 0.839171 3.86221
-1.81035 0.218531 4.89709
-0.475754 1.73153 3.221
0.43362 1.37275 3.69246
0.0946697 4.02676 2.30988
0.225255 -0.605987 4.97677
-0.959268 2.05292 2.95085
1.17421 2.78058 2.71965
1.47779 3.56328 2.57847
0.464672 1.97232 3.04157
-0.473456 3.95215 2.20431
2.78923 1.12861 3.58336
-0.0325752 3.36014 2.4539
0.871877 2.68931 2.71551
1.56134 0.59497 4.1668
-0.673743 2.90786 2.59247
-0.98438 -0.6444 4.03817
0.820815 3.56274 2.49812
0.279789 4.04989 2.22801
-0.22389 2.18431 2.89912
5.13731 1.63149 4.12554
-0.268286 1.41412 3.39795
0.962456 -0.7751 5.04113
0.954044 2.1587 3.06383
-0.0628321 0.785509 4.03065
1.47003 2.92219 2.7798
0.472883 4.16816 2.24521
-0.89498 3.60207 2.41591
-0.0681981 2.83669 2.63457
-0.525219 1.41807 3.37775
1.98678 -0.0898218 4.2183
0.664396 2.11874 2.98822
0.684258 3.37525 2.41956
0.43779 4.09152 2.31423
0.672096 2.71596 2.63471
-0.679088 3.50914 2.41543
3.09097 2.06522 3.20273
0.807912 4.23924 2.35456
2.09864 0.041919 4.2723
-0.217412 1.32159 3.49607
-0.756804 -0.259139 4.07495
1.68562 3.68956 2.54687
1.90172 4.24748 2.32598
2.77355 3.04227 2.84278
3.33961 1.39479 3.48618
3.48406 -0.299072 4.04811
-0.572367 2.16955 2.85871
1.66291 -0.971964 4.69095
0.420381 1.87529 3.19806
0.287439 0.525806 4.23223
2.79723 0.927342 3.70109
1.33814 3.33952 2.60046
1.78578 3.9218 2.46194
1.44551 4.57902 2.27287
2.05095 2.61105 2.90348
2.13553 1.90614 3.54417
1.62639 4.51077 2.27797
2.67529 0.832929 3.70244
0.541732 3.9493 2.38229
0.34366 3.17773 2.50464
0.218918 2.43871 2.75697
0.958831 1.1909 3.52754
2.33085 0.164669 4.06382
2.89226 -1.59021 4.33348
-0.417083 1.97033 2.98365
3.28118 2.76478 2.88751
0.463093 3.97336 2.33698
3.30075 3.60708 2.72896
-1.00478 0.271569 3.8863
3.12745 0.257264 4.03252
2.27147 1.10636 3.76001
1.94465 -1.19587 4.43359
-0.674308 1.90883 3.01933
2.27661 2.67338 2.85739
1.81938 3.4592 2.65097
1.05126 3.40002 2.58477
-0.271481 3.97838 2.26867
1.61429 2.73179 2.89435
-0.0947596 1.91603 3.06842
1.9491 4.37043 2.31019
2.21841 -0.556002 4.41126
-0.650548 1.14784 3.52113
-0.472651 3.7875 2.25784
1.22762 3.29084 2.55811
1.90259 2.63388 2.92456
-0.350833 1.89731 3.17839
3.9873 -0.822888 3.95016
2.6094 0.910447 3.62367
-1.03331 -0.275145 4.19247
-0.124352 2.70782 2.59612
1.97861 4.07767 2.45021
0.666025 3.49492 2.50339
2.7497 1.19588 3.50853
2.17453 0.531965 4.00892
2.28752 2.04949 3.13413
-1.21128 -0.6801 4.24701
0.818438 4.18934 2.43051
2.49444 2.79066 2.88964
2.26925 3.52917 2.65009
-0.423249 0.778468 3.93994
2.36989 1.12405 3.54654
2.0873 -0.728638 4.87362
3.14067 1.98467 3.23198
1.14099 4.1023 2.34283
-0.623918 1.66767 3.27103
1.92494 0.0485577 4.21326
1.83293 3.79181 2.55694
-0.697232 4.13011 2.15307
1.51936 3.15107 2.69735
0.0356777 2.33562 2.84537
-0.384749 -0.825883 4.49106
1.10754 0.254476 4.35504
-0.970996 1.59886 3.34911
0.600687 2.93828 2.57641
-0.384331 3.73461 2.39422
1.14534 2.27146 2.94935
3.95374 -0.333523 4.12205
0.490155 0.979948 3.87592
1.1596 3.83389 2.44727
3.6688 1.69614 3.28295
2.55589 5.00876 2.50905
-0.143578 2.47374 2.78474
-0.57147 3.16859 2.47111
3.44784 0.679774 3.75512
0.207373 0.00273825 4.42986
-0.557132 1.71843 3.19747
1.61045 3.90515 2.44753
-0.639469 2.37924 2.75363
1.26618 4.438 2.26472
0.0587937 3.11211 2.52764
0.675799 3.08488 2.52593
-0.829686 2.40559 2.77158
3.33842 0.34578 4.01152
-0.60125 1.73367 3.2233
0.572898 -1.08094 5.01778
2.71662 0.712262 3.75566
0.682796 3.06499 2.59241
1.42511 3.80381 2.49594
-0.177494 2.39182 2.90438
1.00153 -0.836578 4.76444
3.42923 1.61951 3.50279
2.74242 -0.827386 4.36453
0.456065 -1.55018 4.66491
1.1758 0.589894 4.07603
-0.0325504 3.77551 2.3766
1.42838 2.64546 2.91891
0.585385 3.20663 2.47519
1.83034 0.990344 3.77741
0.421132 3.8593 2.38685
2.79091 1.84539 3.31788
-0.883599 2.56772 2.86048
2.8152 -1.4834 4.56398
-0.617323 3.10251 2.41481
4.4572 0.835596 3.60155
1.24619 0.363323 4.19252
3.25895 1.73666 3.33683
-0.86853 -1.11914 4.30284
0.259515 3.9696 2.39177
2.61379 2.097 3.06987
-1.41423 -0.327367 4.26894
1.84223 1.37966 3.54636
4.2742 0.545733 3.84756
1.76479 2.92631 2.79538
1.80696 4.19966 2.3544
1.32008 3.60926 2.54734
0.414604 -0.171764 4.8089
1.47601 1.54886 3.4585
0.326177 0.797574 4.19258
1.58385 3.74858 2.58681
1.05943 -0.771105 4.93505
1.72457 4.19813 2.29379
0.736814 2.27105 2.92642
0.542036 2.94201 2.57775
3.83761 2.2336 3.18494
0.786289 -0.528028 4.76081
-0.410943 1.53858 3.46756
1.24243 3.75852 2.51836
-0.444192 4.15475 2.16061
1.73346 3.02507 2.78955
2.45909 0.544653 4.05521
1.61481 -0.782825 4.51095
1.09911 3.81145 2.42872
2.67805 4.47311 2.5259
4.91129 0.593582 4.11051
0.0506661 2.38144 2.77399
2.76801 -0.699407 4.43707
1.30269 3.22104 2.64666
-1.07394 0.871964 3.69734
1.2088 1.76546 3.42118
-0.882235 1.88869 3.13173
1.93204 4.59293 2.30279
1.98806 0.997101 3.75716
0.782261 3.30843 2.55529
3.29379 -1.28736 4.77083
0.203205 3.77799 2.32295
-0.11931 0.427598 4.19751
2.72033 1.72526 3.25035
1.66432 2.67706 2.95424
1.49411 0.945376 3.88812
1.26452 3.92099 2.38226
1.17327 -0.997957 4.84551
-0.444087 3.26627 2.54149
0.115888 0.519772 4.01972
2.77118 2.51818 2.94798
3.02928 1.39497 3.44078
-0.0164269 3.38476 2.33739
0.517445 2.15705 2.88399
1.21046 4.13983 2.29874
-1.28354 -0.303557 4.08882
4.63072 0.661628 3.76546
-0.0455879 2.86298 2.56537
3.06503 1.2992 3.45142
-0.260668 3.56154 2.40036
-0.712314 2.11108 2.89479
-0.498098 4.00107 2.1223
-1.23678 -0.0914874 4.12588
0.76367 2.7998 2.62395
-0.521604 2.39889 2.88927
1.81378 3.17189 2.71995
2.73968 -0.540213 4.27131
1.14141 4.2481 2.24644
2.68148 1.58243 3.35689
1.61379 3.71851 2.49475
-0.0350795 2.98253 2.58099
2.15873 2.2623 2.97872
-0.544925 3.69468 2.36309
0.769196 -0.854063 4.7187
3.32448 1.51861 3.53088
1.64495 0.220971 4.18639
-0.846658 -1.4168 4.3704
2.06284 2.27083 2.98814
1.71167 1.50159 3.36303
-0.654065 3.00554 2.58603
-0.356896 3.56662 2.40089
1.76682 4.22243 2.30588
-0.407671 0.434868 4.13479
2.83155 -1.21801 4.53567
1.76524 3.00702 2.76469
-1.06016 1.51941 3.37212
1.16204 3.72026 2.48162
1.14143 2.21084 2.99722
2.64527 1.59552 3.38268
0.834048 4.35951 2.304
0.467077 2.96653 2.49815
0.327913 0.0244146 4.43707
-0.586818 2.34697 2.82222
0.609978 -0.981303 4.75335
1.02638 3.75857 2.45148
3.36081 -0.0129587 4.11611
3.77924 1.11277 3.64998
1.24031 3.98543 2.36084
-0.199626 1.98261 3.00008
-1.32926 1.30843 3.39037
1.51916 2.7919 2.84239
0.937099 3.41453 2.5241
2.7807 1.0533 3.65696
0.524128 4.09799 2.36166
0.611181 1.93527 3.12553
2.64526 0.627488 3.84131
-0.674443 2.66528 2.71911
2.67383 -0.691891 4.38917
0.116074 3.31323 2.4817
-0.704245 -0.878204 4.12185
-0.850263 2.88956 2.6581
2.33336 0.400929 3.93753
-0.747621 2.12293 2.91083
1.79222 1.40832 3.59095
1.57362 4.11827 2.35474
0.577485 -0.877422 4.82556
-0.215208 3.45309 2.45009
3.32673 0.48438 3.98421
-0.675859 2.78961 2.65556
1.9707 2.06222 3.12738
-0.0928371 3.99548 2.18405
2.21329 1.22528 3.51425
4.29499 -0.31723 4.03732
-0.734246 2.79628 2.6604
1.78342 3.60744 2.61817
-0.298523 3.55504 2.45744
0.737516 1.31946 3.58891
0.340042 4.15281 2.39415
-0.4778 2.07383 2.99731
1.35769 -0.0246954 4.61011
0.252688 2.61742 2.61224
0.539671 3.24656 2.38214
0.633316 4.13231 2.33907
3.16527 1.06133 3.44309
0.715054 2.04627 3.1757
2.31044 2.12197 3.08342
0.708081 1.40747 3.47993
0.119238 -0.442012 4.56785
2.05331 2.9221 2.79444
0.86002 4.15844 2.30832
-0.382856 3.53296 2.43754
2.60513 -0.388982 4.211
-0.407309 0.966548 3.67023
1.02601 3.88364 2.47471
0.205818 1.8156 3.23024
4.46199 -0.264641 4.1454
1.08522 2.49791 2.85431
0.382525 3.13417 2.46545
2.19074 4.00398 2.51644
0.229093 1.69443 3.20921
1.97996 4.46299 2.30703
1.2515 0.84205 3.98904
-0.780787 0.376843 3.83857
-0.576923 3.11063 2.49431
-0.761718 -1.05798 4.31561
1.54032 2.48591 2.97086
2.19091 3.47654 2.66976
2.26999 0.0406747 4.23578
-0.278228 2.61763 2.68613
-0.519372 1.93373 3.0509
3.34592 2.11976 3.23903
2.5426 1.03644 3.58818
0.860537 4.01976 2.43534
3.95726 -1.53654 4.34665
-0.304376 0.315098 4.29336
1.15197 2.62594 2.87773
2.81194 1.80189 3.22708
-0.27559 3.26643 2.4906
-0.302807 1.05634 3.6425
0.693885 4.07382 2.40271
-0.456975 2.59631 2.77397
3.92621 -0.63946 3.90838
2.34404 3.42256 2.69432
2.03227 -0.721468 5.00567
0.62158 1.07237 3.86026
2.16278 0.702079 4.09678
2.39524 1.86711 3.31424
-1.03883 -0.417775 4.21638
-0.478693 3.23305 2.51847
1.46079 3.95808 2.47358
0.755327 2.49012 2.82866
-0.160722 3.81661 2.28083
-0.504456 1.7962 3.15519
2.02285 4.24613 2.37801
3.64264 0.798786 3.7178
0.941686 4.62246 2.29241
2.25835 0.417716 4.06088
1.29896 3.40731 2.59247
4.57084 -1.05874 4.80964
3.35168 2.7603 2.9907
3.9778 -0.741026 3.91816
0.885636 4.09176 2.42002
0.0395444 -0.818103 4.72031
0.330561 1.95494 3.15067
2.79029 0.511927 3.99772
2.30038 1.02756 3.53376
0.106659 1.59789 3.41594
1.29553 4.22523 2.29579
-0.603038 0.0351139 4.17395
1.63807 2.38732 3.11259
-0.533794 3.63189 2.44348
1.35813 3.05035 2.70449
-0.928576 2.21943 2.90715
-0.291979 3.66249 2.40165
-2.38571 2.69493 6.39351
0.40456 4.21096 2.21129
0.555316 2.83746 2.56899
1.88422 3.27262 2.7181
1.5227 -0.343229 4.67674
0.924728 2.39306 2.82941
0.942362 3.75471 2.44312
-0.0073528 1.74836 3.29309
0.892674 -0.849414 4.75542
1.15397 0.821713 3.8752
3.95599 -0.308562 4.19061
0.971475 1.67358 3.40117
1.59818 2.39341 2.98677
0.967698 3.86649 2.45993
-0.276704 3.06203 2.55941
-0.780476 1.2834 3.36383
-0.839303 3.88554 2.21163
2.3811 2.07026 3.19148
2.11949 4.80741 2.39094
-0.247924 2.77584 2.67154
-0.0402348 3.41889 2.4386
2.47574 4.31776 2.50633
4.00003 1.13321 3.78672
0.162164 2.02885 3.1211
-1.24113 -0.110855 4.28722
1.38615 2.72776 2.79157
1.17679 3.45245 2.56805
2.92229 3.04887 2.85323
1.91357 -0.378762 4.63145
1.35405 2.24348 3.07401
0.443006 4.19231 2.32372
1.74034 1.47007 3.54074
0.503548 3.51879 2.46627
1.72989 -0.23308 4.31295
-0.264138 2.8413 2.65126
-1.12356 2.31941 3.19027
-0.221779 4.15281 2.22721
0.746581 1.36895 3.44894
0.887418 3.6423 2.50269
-0.288494 0.422993 4.27862
-0.823389 2.60488 2.78158
-1.29402 -1.06169 4.20621
0.952972 3.30723 2.57478
0.203545 1.09549 3.93453
-0.551411 3.72655 2.2786
0.0556601 1.86941 3.17171
3.46553 0.29219 3.73774
0.29206 2.42343 2.74715
3.96176 -1.0952 4.7978
0.833897 3.21746 2.55794
-0.25101 0.941213 3.66606
2.10154 4.06587 2.50839
-0.37431 1.79381 3.17984
4.18952 2.15811 3.34647
2.555 1.87657 3.18928
1.70267 4.47684 2.27886
1.72338 1.09706 3.70762
2.36052 0.0176394 4.24378
1.34443 3.3562 2.55972
0.208194 2.54909 2.64562
-1.56177 -0.585422 4.18002
1.15636 4.06951 2.42683
1.81091 0.183656 4.11165
2.21983 0.985474 3.88452
0.866636 4.55642 2.28879
-0.15681 1.81864 3.07145
1.25666 3.88491 2.42904
2.51671 2.63887 2.96212
0.900007 3.31335 2.58398
2.52836 1.73886 3.30071
1.84034 4.03221 2.48152
4.02234 0.772489 3.75903
4.13995 -1.24079 4.42548
-0.16391 3.14367 2.46799
-0.971635 -0.504021 4.36591
0.157969 2.47252 2.79914
-0.488197 -0.736838 4.37116
0.699619 3.40538 2.51991
3.85902 0.417481 3.85941
-0.432241 2.7083 2.70256
-0.640325 1.98894 3.00719
1.09904 3.98856 2.37545
3.32553 1.07691 3.54387
-0.491702 -0.718514 4.59238
0.877447 1.15721 3.77305
2.92173 0.60977 3.92242
1.54789 1.88254 3.13632
2.7287 2.74214 2.9661
-0.679591 0.301369 3.94491
0.51784 3.29118 2.49094
2.54319 4.32973 2.56569
1.84245 2.39699 3.02689
0.531538 2.98603 2.53623
1.5741 3.8384 2.59149
0.62373 4.32187 2.29179
4.02009 -0.207554 3.98393
1.63419 0.0586313 4.36861
1.94209 2.27847 3.01668
1.73363 1.61704 3.38374
2.27213 3.04933 2.74262
-0.280682 1.57621 3.38384
-0.610888 3.72456 2.3945
0.293345 -1.01719 4.59607
0.942238 1.7416 3.3591
1.00177 0.839628 4.00715
1.99509 3.25027 2.71807
-0.661113 -0.305352 4.40139
-0.174816 2.46236 2.89202
2.46028 4.94255 2.49864
0.419737 3.79335 2.40552
1.39288 -0.212977 4.29138
3.34041 -0.98542 4.33001
0.37072 4.17324 2.20106
1.68432 1.61027 3.367
0.906697 3.64935 2.44271
0.483614 2.29613 2.84882
0.923905 3.03087 2.59655
2.10881 3.84981 2.5522
4.05574 1.49804 3.62026
0.341407 -0.573788 4.59547
2.89496 0.365591 4.0535
1.61656 3.06509 2.73359
2.23659 2.24986 3.00171
0.331315 0.278087 4.36456
0.743651 3.1858 2.53424
-0.632775 2.46477 2.75251
-0.777536 3.87422 2.43274
2.10414 1.75741 3.30525
0.631017 -1.49251 4.72158
3.88605 0.77616 3.71534
2.80019 -1.19749 4.17718
-0.0872459 0.876826 3.97654
-0.380149 0.349812 4.19671
0.888223 1.73655 3.35207
-0.578958 2.34238 2.72677
4.19248 -1.31813 4.37646
1.74943 3.22744 2.68941
-0.716015 2.84491 2.63791
2.04231 3.94661 2.49349
-0.162428 3.44619 2.39238
-1.12732 -0.465491 4.38967
-0.337753 1.41328 3.44589
0.913344 4.13788 2.36038
2.25218 2.09977 3.06683
-0.759825 -0.297382 4.64653
-0.698697 3.46584 2.45181
-0.331246 2.75248 2.64476
1.02918 2.10537 3.17056
0.379993 1.33405 3.63803
0.226659 4.1855 2.31399
0.565573 2.14 2.88957
3.45254 1.37658 3.48929
3.48357 0.432765 3.83279
1.83832 3.01915 2.79516
-0.538581 -0.718274 4.31094
0.216787 4.15259 2.23492
-0.200892 3.52407 2.38913
3.17406 -0.7446 4.41889
1.56742 0.717715 4.14031
1.69376 2.16702 3.13283
3.77171 1.24837 3.47428
1.35088 0.0764445 4.27951
1.50511 3.61371 2.56191
-0.0952817 3.94982 2.2212
1.68431 2.92773 2.81125
0.16543 2.07277 3.06561
0.0140824 4.06866 2.23978
-0.050037 1.32893 3.57856
1.60928 3.58769 2.61291
0.501012 2.68564 2.61314
3.78564 1.56345 3.73298
0.661949 -0.194777 4.68632
1.42584 3.04492 2.713
1.92864 3.70853 2.57773
0.056038 4.02096 2.1605
1.29442 2.29164 3.01191
1.46164 1.47192 3.53492
2.52737 -0.135929 4.09294
2.22795 2.17785 3.03578
-0.213822 4.22296 2.22046
1.18539 2.92455 2.68173
-0.11902 3.64278 2.41083
2.23421 2.67632 2.86958
1.7622 3.4538 2.65546
0.4478 1.18913 3.82216
1.57497 -1.00186 4.64169
1.26339 2.00331 3.32153
1.75244 0.408728 4.01485
-0.872025 3.3191 2.53395
1.30675 3.91713 2.39399
3.85231 1.81072 3.36393
1.27502 2.59184 2.85809
