ply
format ascii 1.0
element vertex 1916
property float x
property float y
property float z
end_header
1.05943 -0.771105 4.93505
-0.513104 -0.000675902 3.32311
0.495023 2.9114 2.59838
0.811311 -0.498581 4.75811
-0.391293 1.73174 3.40572
-0.609906 4.07931 2.21903
1.73192 2.96132 2.83175
0.626616 3.04795 2.55744
1.01891 -0.810317 4.76109
-0.587457 1.87847 3.16643
0.572898 -1.08094 5.01778
0.631894 3.03265 2.61753
3.53004 1.55973 3.45735
2.76159 -0.824036 4.35595
0.456065 -1.55018 4.66491
0.523139 3.16836 2.51229
2.87391 1.78895 3.29046
2.82343 -1.48029 4.55976
-0.701683 3.04417 2.39716
3.37433 1.65204 3.30354
-0.86853 -1.11914 4.30284
4.35435 0.470011 3.80978
0.453218 1.55563 3.61445
-0.0487308 3.96961 2.38465
0.225255 -0.605987 4.97677
1.16015 2.74456 2.74267
-1.37305 2.56169 2.72345
-0.627377 3.87287 2.24522
2.89369 1.11197 3.51042
0.851501 2.66282 2.72565
-0.0285478 0.242639 3.4342
-0.732424 2.86944 2.55245
-0.98438 -0.6444 4.03817
0.148527 4.00173 2.30015
5.13731 1.63149 4.12554
-0.237642 1.60004 3.33417
0.962456 -0.7751 5.04113
-1.09953 -2.01628 3.13896
-0.5872 -0.000906626 3.31093
1.45746 2.87478 2.81861
0.342451 4.11644 2.33613
2.84769 3.10056 2.8524
3.48611 -1.09531 3.79687
1.4975 4.20367 2.38254
-0.392518 1.81103 3.20459
1.09313 2.95823 2.68353
3.51383 -0.952619 4.28271
-0.169563 1.77773 3.348
3.15586 -1.54218 4.2195
3.03991 4.85471 2.50592
1.70706 3.18721 2.75919
3.28888 -1.59551 4.4713
-0.46252 1.87191 3.15723
0.425501 1.97041 3.16738
0.312932 0.589507 4.22767
1.35631 4.51389 2.39515
1.30851 3.2944 2.67688
2.15957 1.92395 3.51145
1.56055 4.44484 2.39509
0.277044 3.13718 2.52917
2.44838 0.278335 3.9474
-0.413127 2.03316 2.90969
-0.990562 0.310494 3.88663
3.30075 3.60708 2.72896
3.26462 0.302489 3.92065
-0.664305 2.00874 2.95752
4.62116 -1.15145 4.11959
1.81132 3.39356 2.72853
2.38057 5.13563 2.63019
2.06739 -0.0195065 4.16548
0.663984 2.14435 2.95222
0.617933 3.3324 2.47504
-1.19437 3.63021 2.36482
-0.797108 3.43894 2.42338
3.19459 1.97817 3.19303
2.17125 0.116264 4.2124
0.819774 -1.34774 4.33443
-0.756804 -0.259139 4.07495
1.66233 3.62788 2.63703
3.54355 -0.322919 4.0133
-0.583793 2.21317 2.79063
2.79313 -0.282291 4.20905
-1.31617 3.10855 2.4312
0.601115 4.16569 2.37909
1.77908 -0.0239361 4.56396
0.0577706 2.75598 2.50684
2.20731 1.46816 3.46769
1.71315 4.16114 2.37629
0.382189 1.75197 3.2363
-0.665666 0.643351 3.35015
-0.210975 -0.551268 4.69725
1.53397 3.08484 2.74773
0.378806 -0.702302 4.60973
2.21295 1.5477 3.43829
-0.804947 2.87832 2.48012
2.32238 -0.363915 4.39416
1.0888 3.20435 2.64849
0.021195 1.84332 3.07308
1.63187 -1.54817 4.67327
-1.10518 -0.697864 4.29822
3.34706 1.57737 3.33003
-1.30956 0.797455 3.74778
3.79507 -0.715912 4.30107
1.80494 3.18592 2.77463
-1.57233 -0.950426 4.54831
3.35403 3.40602 2.82944
1.76606 4.35776 2.40795
2.81778 1.8257 3.19322
-0.608556 3.16402 2.4374
1.89157 1.93214 3.34842
5.12597 -0.762016 4.2326
3.50835 0.546226 3.71507
4.71416 0.130597 3.93418
1.20879 3.38701 2.63103
0.666619 2.05038 3.06984
-0.54116 2.20268 2.89541
0.624334 3.38985 2.46518
2.8146 5.29068 2.56735
-0.802155 0.480205 3.91875
0.954722 2.17551 3.16965
0.114178 3.33788 2.45594
-0.538459 0.662611 3.92075
-1.37258 2.79774 2.6663
1.17034 3.60131 2.60298
4.25481 -0.367155 3.82855
3.05689 0.207699 3.96581
-0.409026 2.25274 2.76422
1.55087 3.63163 2.58269
1.39371 2.24355 3.06778
0.973472 0.529312 4.26983
-1.27593 3.85766 2.32812
-0.973316 3.02984 2.47419
-1.08304 0.053524 4.07743
0.349325 2.38863 2.7892
-0.169407 3.62209 2.41591
3.72524 0.650216 3.74564
-1.021 2.40749 2.78513
-1.42677 0.595682 3.28227
0.499003 3.7856 2.51568
1.04151 0.716405 4.06396
-0.149969 1.97859 2.97821
0.130756 3.2047 2.46171
4.29976 -0.271679 3.9524
0.0459937 0.842649 4.06679
-1.23564 0.932727 3.47936
1.39074 2.07379 3.0853
0.284021 0.461288 4.21601
-0.436429 3.37172 2.44907
2.55803 1.96418 3.21856
2.09178 0.581529 4.02569
1.02761 3.36827 2.59757
4.24579 -0.356574 3.92346
-0.615607 0.189531 4.23826
2.12705 2.10703 2.99669
4.08884 -0.718211 3.92093
1.4678 2.16425 3.09025
4.46735 -1.15544 3.83718
0.499963 3.52351 2.56137
-1.65909 0.205988 4.5989
0.316646 2.31411 2.79046
0.327294 3.53598 2.50087
4.75438 0.680798 3.52206
1.45189 3.72189 2.64167
3.67227 -0.195018 4.00615
-0.189087 2.3424 2.87539
4.17097 -0.210059 4.05086
1.18506 3.7436 2.57842
2.40912 2.37375 2.98899
-0.27615 -1.20025 4.54172
1.5265 3.80517 2.58149
1.50369 0.984005 3.87452
-1.32459 -0.119928 3.2616
1.16031 1.21237 3.73644
-0.435385 3.70092 2.35024
0.923247 2.50019 2.75216
4.65417 1.16048 3.57479
0.00536762 3.85676 2.41971
3.89932 0.702425 3.56607
3.97021 2.09162 3.26996
1.28067 2.47207 2.88059
-0.809346 3.7379 2.24841
-0.867669 2.66517 2.59371
-0.257813 -0.154475 3.32273
-0.368018 1.46649 3.49294
0.568357 -1.85165 3.33492
3.12316 1.09425 3.79382
-0.527813 2.62408 2.65337
-0.214384 3.86231 2.30403
0.00452383 2.68327 2.51008
0.279581 0.708505 3.64433
2.05086 1.37814 3.44778
-0.447394 3.84251 2.24109
2.07936 2.76417 2.84599
-0.384218 -2.34935 3.17016
1.14267 1.38724 3.45929
0.943219 4.15462 2.45019
1.01799 4.71007 2.37399
-0.267398 3.38646 2.41517
2.31548 2.04634 3.05378
-0.810572 3.3969 2.45411
-1.35875 0.0409227 3.30674
1.03232 2.14295 3.14796
0.562901 2.15158 2.8492
3.64791 0.404493 3.72275
-0.311497 3.4599 2.41645
4.31416 0.10207 3.73764
1.6277 0.906384 4.04235
0.833144 3.60576 2.52272
0.47079 2.30505 2.82292
-1.40276 3.95384 2.31583
2.10937 3.76627 2.65022
-0.540105 4.3908 2.19651
3.01754 0.432613 3.95152
2.29193 2.1933 2.99924
0.35857 0.343293 4.36138
-0.919829 3.79936 2.45595
-0.662842 2.4819 2.6943
-1.34589 0.294623 3.26386
4.04316 0.699797 3.61578
-0.0452732 1.07924 3.93173
-0.380149 0.349812 4.19671
-0.837103 -0.426293 3.25043
-0.599849 2.3632 2.67284
2.04085 3.86937 2.60275
2.27862 2.60905 2.8962
-0.908129 0.723777 3.21943
0.479834 1.41262 3.7663
1.5982 -0.978354 4.61012
1.2483 3.86709 2.49409
-0.502099 -0.295208 3.28679
1.26781 2.5681 2.86766
3.29248 -0.887124 4.58769
0.728336 3.9913 2.50444
1.27363 1.15493 3.69398
-0.812372 -1.27529 3.19365
0.580117 4.33332 2.56423
1.55419 2.73596 2.88528
1.41774 1.31726 3.59563
3.25198 -1.25404 4.21607
3.929 1.14624 3.40071
-0.24087 3.89064 2.28533
0.555351 0.851411 3.70384
1.68623 2.87322 2.85464
-0.134984 4.01203 2.31599
-0.011965 1.52681 3.49338
-0.386337 -2.22196 3.18241
0.46797 2.65278 2.61337
3.88848 1.50074 3.68879
1.40756 2.99367 2.75628
-0.0882258 3.96932 2.2345
-0.572488 0.0774385 3.32102
4.01732 -0.911328 3.83619
1.50012 1.55682 3.49016
-0.321848 4.19386 2.26081
1.16454 2.88933 2.71734
-0.858979 2.61801 2.73134
-0.757462 0.341078 3.32684
-1.29402 -1.06169 4.20621
0.241283 1.29549 3.89628
-0.689095 3.65404 2.3073
0.270023 2.42811 2.72287
3.96176 -1.0952 4.7978
-0.196113 1.16987 3.60753
2.09371 3.98277 2.61656
1.77538 1.1922 3.6198
0.177518 2.52929 2.61749
-0.612224 1.18389 3.44366
1.07535 4.01554 2.52651
-0.154679 0.736559 3.56752
-0.738911 1.48099 3.30759
-0.986505 3.80545 2.23836
-0.299888 2.75871 2.64923
0.622356 -1.91275 3.33943
2.4733 4.21129 2.61556
4.1434 1.05414 3.71756
1.37959 2.68516 2.81217
0.244394 0.963061 3.69266
-0.576866 -2.21123 3.18384
2.99784 2.92883 2.89563
0.306708 4.13089 2.41319
1.78536 1.52905 3.49065
-1.29899 0.376949 3.22146
-0.319207 2.82311 2.63157
-0.385278 4.08831 2.29866
0.777788 1.48165 3.3696
-0.704683 0.718833 3.32251
0.482438 2.95399 2.55762
0.490724 4.25973 2.38903
4.1454 -0.22073 3.92811
1.71021 0.175856 4.33602
1.77146 1.64426 3.33034
2.31038 2.97113 2.79372
-0.261641 1.76193 3.33969
0.293345 -1.01719 4.59607
0.956138 1.83202 3.31794
2.0059 3.17857 2.78368
-0.661113 -0.305352 4.40139
2.41058 4.84977 2.63763
1.45369 -0.137775 4.26969
0.735123 4.48409 2.39224
-0.144306 1.89461 2.99476
0.843934 3.27568 2.64222
2.6035 1.69431 3.26269
4.13995 -1.24079 4.42548
-0.24039 3.09504 2.46959
-0.957393 -0.469247 4.36566
-0.488197 -0.736838 4.37116
0.628471 3.36465 2.57317
-0.671557 0.32291 3.94506
-0.636589 2.08934 2.94841
-0.491702 -0.718514 4.59238
1.57582 1.87962 3.09995
1.69299 -1.57774 4.69719
0.447993 3.24919 2.53385
2.3918 3.44608 2.76301
3.24842 0.549962 4.02126
2.19031 1.97976 3.20763
-1.20479 1.41589 3.37378
1.08833 3.39 2.6881
0.239035 2.04088 3.13774
4.66 0.157035 3.94199
0.476721 0.892993 4.02333
2.37706 5.07638 2.62574
0.907023 3.52215 2.59289
1.12917 2.11793 3.0081
-1.20057 3.67659 2.32988
1.29372 3.47989 2.64934
-0.0568806 0.533087 4.15332
0.101901 2.1252 3.00776
-0.829652 2.1613 2.72986
0.0313902 0.288483 4.29754
0.633008 0.433957 4.25357
-0.405459 3.50941 2.44594
3.65625 3.19943 2.87663
3.87163 -0.224334 3.87714
1.29912 3.69109 2.61697
-0.0839132 2.28883 2.75184
4.23112 0.0831684 3.70087
1.55163 3.72421 2.59562
-0.538583 0.176547 4.21441
-0.589213 4.3724 2.25053
1.72883 2.24671 3.01755
2.00802 3.83043 2.62927
1.4872 2.50101 2.93951
-1.26093 0.724952 3.29217
2.52138 0.849693 3.60188
2.45209 0.781135 3.71838
4.44425 1.65915 3.2595
3.00226 -1.21639 4.13319
1.97732 2.40226 2.98242
-0.110978 3.75712 2.4163
-0.8795 2.58505 2.61254
4.36317 1.15599 3.58373
2.78013 1.03829 3.5806
0.23847 3.96449 2.51622
1.45983 -0.996857 3.94329
0.132342 2.47481 2.66593
1.75335 3.92927 2.50572
-0.357569 1.30191 3.66369
0.341231 1.47755 3.68344
-0.676185 2.60254 2.55939
-0.0765813 3.95142 2.38558
3.48546 3.31603 2.78572
1.64278 1.51849 3.63747
0.584866 4.07057 2.4462
-0.277624 2.83551 2.65886
0.26836 0.372428 3.54699
1.49689 1.39732 3.59766
0.598337 4.13732 2.42773
1.25707 2.72767 2.7478
0.500747 -0.0368659 3.45873
2.52425 2.33038 2.96192
-0.607923 4.24619 2.20233
3.30249 0.679978 3.69344
0.314482 3.61378 2.44108
-1.23496 0.0557211 3.26801
0.369182 2.29545 2.7943
0.101995 3.70447 2.44016
3.04363 2.26683 2.9987
0.44606 3.86393 2.51761
3.05229 2.37515 2.95691
-0.153126 1.15614 3.6387
-1.02469 1.11235 3.37903
-0.452324 3.75143 2.33845
0.763401 2.56916 2.72345
2.77724 2.60651 2.86773
1.2386 1.20256 3.79451
0.405129 4.05936 2.52952
0.73879 2.49521 2.73946
-0.607101 -0.592388 3.25471
4.1718 1.1449 3.70072
-0.484036 0.757432 3.82127
1.51602 3.97608 2.4724
0.155092 2.62642 2.55329
-0.724054 -1.27483 3.20582
1.49322 4.05147 2.47171
1.29516 1.28529 3.49524
0.420206 2.56226 2.60861
0.00042381 -0.548806 3.27576
-1.39678 4.04676 2.31261
0.449772 2.80693 2.58739
1.69542 4.09276 2.44557
3.03815 -0.428968 4.39495
1.18872 1.58896 3.4862
-1.11928 1.03097 3.26548
-0.704061 2.8329 2.62054
0.382315 4.14681 2.36759
2.11616 -0.228583 4.76168
3.71606 1.15688 3.36752
-0.124169 2.97072 2.54205
0.340281 4.37118 2.32027
0.336364 4.15444 2.31484
3.40544 1.49595 3.39919
0.0447774 2.86122 2.5315
1.6267 1.58834 3.42786
3.7476 -0.632173 4.23763
3.64311 1.56347 3.35647
2.93977 -0.860065 4.40974
-0.147272 -1.23236 4.64971
-0.600714 3.0122 2.46039
-0.804943 -0.553865 4.00237
1.38637 -1.46168 4.70636
-0.754196 -1.27467 4.48755
1.1903 1.94059 3.26419
2.07427 4.32112 2.48416
-0.209426 3.26425 2.56702
-0.60566 -1.10536 5.02982
2.34442 1.72386 3.27706
1.31508 4.41691 2.38347
0.00227719 3.1282 2.51823
1.57441 1.11298 3.72281
1.12401 3.83256 2.53337
-0.232859 2.49591 2.65956
-1.17039 4.1441 2.1936
3.64929 0.723442 3.63455
1.13582 3.86999 2.50054
-0.435574 2.42953 2.67571
3.27552 2.35639 2.92725
3.72433 -1.02584 4.29636
1.21213 2.671 2.78993
-0.776767 -0.847844 3.22471
-1.2066 1.28638 3.57022
2.89943 -1.30798 4.45075
0.969678 3.93222 2.47509
-1.35104 1.85499 3.07038
0.992203 2.57234 2.75108
0.352363 1.35903 3.69321
1.08013 3.962 2.44822
1.95864 2.81929 2.83213
0.243349 -0.0893483 3.37989
-1.66346 1.70861 4.45343
-0.825088 3.82947 2.21975
1.50413 2.79313 2.84422
2.4933 1.2002 3.45623
1.53988 4.05818 2.42448
3.18317 1.27407 3.32604
-1.35262 4.0543 2.29086
2.15963 2.96265 2.88351
1.09414 4.14235 2.39822
-0.408937 0.226721 3.38004
1.82361 4.12343 2.36429
-0.241668 1.79841 3.25741
-0.678512 0.855507 3.35584
1.05621 3.00971 2.65897
1.71191 1.58293 3.45289
-0.746514 4.03843 2.13569
0.802481 0.161916 4.41998
1.24591 2.96223 2.71973
0.863431 3.14355 2.59521
-0.415262 -0.248709 4.43597
2.83833 5.10936 2.55443
0.297089 1.84193 3.1369
1.21707 3.11457 2.68246
-0.971005 -0.0344092 4.06438
0.287456 1.74912 3.11941
0.992885 4.43288 2.38735
0.471653 3.19758 2.49588
3.08726 -0.613393 4.51891
0.66595 1.95495 3.08097
1.63641 4.49446 2.40287
2.65506 -0.413897 4.54984
1.56843 3.31635 2.73042
0.887186 1.85598 3.10096
-1.46542 -0.969235 4.17919
0.551878 1.98851 2.99091
1.97334 3.48025 2.7697
2.84893 -0.837311 4.23794
5.01234 -0.807626 4.05729
3.75381 -0.715652 4.04974
-0.683689 2.93813 2.56268
-0.572305 4.07258 2.2845
0.223244 -0.15674 4.58265
2.24263 1.40226 3.24071
-0.237357 1.67374 3.34026
-0.465931 -0.01072 3.34991
-0.769825 0.933779 3.32495
0.292777 4.10163 2.28941
1.96812 -0.069315 4.1646
-0.0547628 2.77071 2.51891
0.956793 3.10279 2.64995
3.69148 -0.412764 3.84058
0.0836709 4.2556 2.31134
-0.964608 1.90901 3.18656
-0.508576 2.97726 2.52207
-0.933104 1.82362 3.20021
2.86076 4.7564 2.55207
4.33952 -0.762446 4.38093
3.68932 1.69386 3.33684
2.84886 -0.572186 4.08354
0.515279 3.03543 2.47634
1.4483 1.85921 3.33824
3.0676 1.75669 3.14158
1.31584 4.5602 2.395
1.99935 -1.03469 4.76691
0.545153 3.23097 2.5225
1.23013 1.9214 3.24889
-1.04234 -1.16737 4.14783
0.682538 -0.850816 4.50236
2.16399 3.32611 2.78246
-0.752024 3.37023 2.44341
4.91002 -0.714791 4.06399
1.18465 0.788707 3.94301
2.78293 1.94488 3.12045
2.47737 5.03733 2.61132
2.63559 1.92739 3.20439
1.69188 3.44844 2.72158
2.07016 0.658118 3.91753
-1.42722 0.6106 3.32998
0.164489 2.28905 2.98994
1.95921 3.57196 2.69286
-1.14546 3.03711 2.45315
-0.126986 2.16084 2.91386
1.87882 3.66628 2.69756
2.95143 0.336857 4.01388
-1.37548 3.65367 2.34143
0.524063 3.42672 2.378
0.759412 2.23798 2.88955
3.56627 0.32535 3.88292
-0.318369 3.65396 2.44711
3.54799 0.6233 3.65338
3.95141 -0.0825659 4.21137
2.33575 2.41636 3.05862
1.7908 5.00166 2.42721
0.399671 3.78138 2.51073
2.8337 0.206046 3.93068
-0.872557 2.33128 2.72233
-1.14106 -0.409642 3.21806
0.254797 4.25205 2.3167
3.84187 1.42374 3.14969
-0.405945 0.203463 4.30015
-0.939887 2.92502 2.38187
3.55907 1.4054 3.2774
1.52577 -1.55135 4.71527
0.162916 2.89698 2.49997
4.03099 -0.236323 4.18856
-0.254496 3.1499 2.47525
3.57617 1.76402 3.24187
-0.774018 1.99714 3.08049
2.23859 0.0631772 4.07059
1.51097 1.82595 3.31994
0.931639 4.50854 2.39062
1.51179 3.24979 2.74144
2.07778 3.37275 2.69335
3.91183 -1.15886 4.26669
0.589723 -0.456423 4.77492
1.69068 1.98997 3.16514
-0.840219 3.22973 2.44824
-1.02174 2.12929 3.11368
2.723 -0.247655 4.48515
-0.899517 4.35643 2.12965
2.36257 5.21936 2.48313
4.56587 -0.825062 4.81013
1.50604 3.47388 2.65579
-0.700179 -0.582112 4.45167
1.22274 2.11043 3.15979
2.24079 2.10675 3.03343
-1.18006 3.78823 2.29744
0.54055 2.12253 2.9398
0.250453 3.54523 2.52314
2.34634 3.60142 2.75251
4.48667 -0.421365 3.89025
-0.943067 3.57807 2.41792
-1.3615 4.31358 2.21064
1.74742 2.36806 3.05791
2.04318 3.80315 2.68357
-0.561999 2.30542 2.8389
-0.975886 2.90143 2.54243
0.566678 2.42189 2.76265
-1.49075 1.28096 3.24676
-0.231575 3.67685 2.40892
4.12383 0.356159 3.73453
0.210876 1.15051 3.83054
-0.914007 2.42702 2.73343
-1.20426 4.24069 2.19676
-1.16935 0.791805 3.92949
0.477061 0.981677 3.95755
1.94425 2.58794 2.88094
2.80416 3.98223 2.72164
-0.733729 1.17494 3.33569
3.44247 0.191809 4.0148
4.39766 0.947061 3.65158
1.45059 3.89035 2.53381
0.0599903 2.50973 2.69833
2.25449 0.501409 3.90999
4.01681 0.754629 3.58718
-1.58459 2.94899 4.22882
0.69862 3.49503 2.56785
0.27428 2.0881 2.98443
4.06402 0.0674783 3.78301
2.25726 3.52994 2.74399
-1.1882 3.59611 2.42134
-0.36021 0.739386 3.89859
1.33226 3.63209 2.64706
-0.984514 2.33728 2.84011
4.23754 -0.660836 3.88376
-1.00274 2.33499 2.93034
3.91262 0.327904 3.66796
-0.361034 3.58692 2.45623
2.59041 5.39234 2.63457
0.782047 2.33929 2.80013
-0.240535 3.63841 2.43784
3.16714 0.704637 3.77062
-0.645196 0.516935 3.92703
2.69026 2.41966 2.96288
0.138938 0.687756 4.09996
-0.932386 2.30449 2.70155
2.21009 3.80411 2.62134
1.27549 1.08027 3.7845
1.39795 0.329824 4.27868
2.25889 2.45625 2.9746
-0.24785 3.75751 2.41097
-0.02555 0.411383 4.29002
-1.01612 -0.792929 3.2396
2.06409 -0.869049 4.71166
1.62801 1.17654 3.60415
0.167882 3.92396 2.49325
0.630579 2.55318 2.70971
-0.795484 0.204526 3.31337
0.0827758 3.91333 2.41913
-0.820344 1.03443 3.578
-0.274124 0.237182 3.3827
1.47574 2.58615 2.91856
-0.145838 3.91854 2.36185
1.98352 -1.13153 3.9434
1.44421 2.76216 2.8194
1.63306 1.3805 3.6253
-0.200932 -0.506956 3.27217
1.25141 -1.082 4.84066
-0.405753 1.42524 3.45211
0.202352 0.9796 3.64498
-0.351911 2.65717 2.6424
1.31202 4.07456 2.47801
0.962394 2.82415 2.65142
0.650505 -0.0153995 3.4643
1.61802 1.56153 3.53095
-0.719928 3.84378 2.18575
1.39712 2.85879 2.82685
-1.16634 -0.746567 3.15921
4.0479 1.14606 3.46295
1.47711 4.10889 2.4001
3.69626 2.3389 3.12442
-0.419035 4.19477 2.29855
0.645022 2.87673 2.59083
1.08437 1.62302 3.38521
1.36705 2.29405 3.04307
1.71169 3.67468 2.6372
-1.38426 0.407295 3.31623
0.563224 0.950529 3.91755
0.0817749 3.6277 2.45184
1.2991 2.38545 2.91635
2.5743 5.28878 2.66158
2.35183 3.86263 2.67296
4.28433 0.739127 3.59009
1.32369 2.32471 2.96341
0.900979 3.84264 2.53407
1.61886 2.61835 2.97351
3.43113 0.544555 3.76733
-1.27982 0.74404 3.28877
3.49691 0.855912 3.72359
3.61465 0.654238 3.50195
-0.744008 -0.139154 3.31553
-0.247281 2.54404 2.82268
0.701829 3.91499 2.51178
-0.384422 2.65166 2.64575
-0.572806 0.338541 3.33871
1.75867 1.25962 3.62358
-0.60668 3.81325 2.32044
-0.843264 2.62906 2.6781
-0.738568 -1.41526 3.18694
3.68098 0.510386 4.11129
0.804621 4.09169 2.52903
3.65181 0.869368 3.49872
2.66593 -0.610446 4.66747
0.216354 1.13413 3.63929
0.0645344 4.07258 2.43429
0.0981617 2.65799 2.59143
-0.888676 -0.314263 3.95632
1.68024 1.32342 3.52784
1.39264 4.04442 2.42124
0.636045 1.61621 3.44792
0.922509 -0.948309 4.92296
-0.421762 2.84367 2.57263
0.312887 -0.84546 3.277
-0.236354 4.00308 2.26208
2.45979 1.30023 3.47416
3.14257 -0.740352 4.18865
-1.3529 0.406928 3.22432
0.776265 2.72237 2.63478
1.1583 3.00458 2.67043
0.874361 4.24988 2.41583
-0.0106076 1.73469 3.21958
4.36187 -1.37387 4.6157
-1.02701 -1.39712 3.15728
4.20571 1.52452 3.81096
-0.719054 4.09142 2.19034
2.90322 -1.03933 4.18531
2.05574 2.98987 2.81942
-0.963781 3.06042 2.42697
1.38402 -1.68502 4.6893
2.28066 1.65817 3.23406
2.26601 3.1104 2.75659
3.4413 1.52013 3.29756
0.85809 4.44259 2.397
-0.650402 -0.619829 4.25298
-1.84966 1.55797 4.94554
-0.411795 3.74652 2.28366
2.18939 2.64271 2.86461
-1.12633 2.93944 2.54862
3.4765 -0.649424 4.6434
-0.612327 3.72104 2.20892
0.712707 -1.70492 3.35758
2.17421 1.36796 3.49139
-0.772191 3.77941 2.19506
3.47709 -1.0749 4.4306
0.531121 2.72522 2.61271
0.288031 0.0357996 3.42632
1.87282 1.34939 3.62433
1.11204 -0.947959 4.95123
-0.394676 3.91466 2.26061
-0.449285 2.68629 2.58133
1.375e-05 -0.733991 3.26076
-1.41403 3.14687 2.43142
3.07195 2.93332 2.83475
-0.292308 3.98497 2.25231
0.0306845 1.66612 3.27851
-1.10916 3.28745 2.46141
2.05855 2.91226 2.83112
-1.11768 -1.21993 4.22988
0.671679 4.23106 2.38898
-0.655915 1.65416 3.267
1.96071 3.14656 2.76769
-0.19121 4.13493 2.24157
0.81935 1.79935 3.31547
-0.849135 2.92367 2.46066
1.21573 1.75802 3.47341
2.54683 5.06161 2.47345
3.7376 0.189291 3.93191
-0.168187 1.85803 3.11055
-0.86711 3.06682 2.43379
2.02357 4.12018 2.54279
3.11662 0.373584 3.87328
1.70793 4.4047 2.40394
2.71873 1.80629 3.18782
3.65245 -0.0854942 4.23922
0.0892405 3.18989 2.47259
3.85288 0.052844 4.09241
1.63796 1.88127 3.26735
3.84878 2.65078 3.09083
-1.00084 3.22706 2.49715
1.89476 3.47931 2.69547
3.39698 -0.363937 4.43108
-0.737925 2.14455 2.94355
-1.19797 0.21001 3.50228
0.112235 2.10396 3.10669
4.28316 -0.0515519 3.83089
3.51542 -0.139148 4.28347
0.0526391 3.30486 2.51096
-1.13071 3.8546 2.23358
0.966495 2.20831 2.99365
3.91384 0.214755 3.82731
0.288124 3.43714 2.50519
3.04279 -0.456331 4.26086
0.517082 3.56848 2.55979
-0.49667 2.19134 2.91301
0.299995 2.76976 2.5736
0.525743 0.250208 3.54223
-0.881843 1.67339 3.30092
-0.698391 3.85393 2.20763
3.76846 -0.517961 4.09516
0.329868 -0.214696 4.6914
-0.219739 2.76199 2.60143
2.38095 -1.93556 3.82361
0.216156 1.64547 3.63572
-0.8148 3.83106 2.12266
0.853453 1.66813 3.4257
-0.196757 2.90795 2.56739
-0.805747 -0.640713 4.10965
1.09513 4.16291 2.37058
-1.14014 -1.63053 3.13448
3.89671 -0.62617 4.21482
0.686892 4.28036 2.36763
1.38702 1.73095 3.33875
-0.1104 3.03863 2.53762
4.2155 1.51806 3.60888
2.84002 4.81736 2.70446
1.42698 3.05872 2.74944
3.5416 -0.918726 4.66577
1.27605 3.25536 2.67237
1.77295 -1.24864 4.37352
2.89935 1.71489 3.2311
3.98731 -0.92516 4.36451
0.220907 -1.15519 4.88955
1.16725 1.85229 3.33687
4.16945 -0.95115 4.26156
1.05857 3.16413 2.64038
-0.590964 3.26728 2.44724
1.96622 0.699695 4.04668
3.32908 1.8593 3.23314
1.92124 4.63257 2.44508
0.278387 0.786885 4.1491
0.266924 3.16516 2.46564
0.791096 1.91344 3.07063
4.48905 0.0513342 3.85069
0.566588 2.00724 2.9385
-0.883014 0.281672 3.88181
2.16286 3.50437 2.73779
1.41251 4.73778 2.41381
3.76268 0.220502 3.80542
3.42243 2.04319 3.09063
2.16402 5.06792 2.58069
0.0404744 2.15079 2.93143
1.63007 3.55047 2.61956
-0.234914 0.181127 4.32763
1.55473 3.569 2.68478
4.10184 -0.732255 3.90976
-0.257621 -0.0127598 4.29839
0.975198 2.2831 2.87853
0.891657 3.60751 2.54817
-0.880661 4.09631 2.17078
-0.718333 2.25541 2.77575
0.51837 0.146655 4.43167
-0.425624 4.25668 2.28569
0.128192 3.63571 2.46808
0.687021 0.51619 4.20109
1.60301 4.53992 2.40079
1.79546 0.670133 3.87282
1.92508 3.27508 2.73107
-0.731023 1.98747 3.08465
1.03511 2.03924 3.15856
-1.22772 -0.21018 4.15363
-0.0642612 3.32548 2.52646
1.88814 0.265769 4.23674
0.71376 1.93657 3.08063
-0.927866 4.03889 2.18616
0.640592 3.24171 2.55291
2.74191 0.354712 4.08957
1.30737 2.14702 3.08643
2.99534 -0.107041 3.92582
4.15227 -0.456878 4.05475
-0.407655 3.44924 2.48132
1.66789 2.05738 3.15368
2.60126 0.0866182 3.99388
-1.26749 4.12712 2.15746
0.665729 3.38211 2.54201
1.10802 -1.56204 4.49768
2.09301 -0.205104 4.33418
1.50313 2.26998 3.04367
0.588442 3.45691 2.47893
-0.0396459 -1.28371 4.07659
0.0288307 2.25732 2.95263
-0.0500816 3.51426 2.42019
-0.946572 3.13875 2.05616
2.2172 3.77722 2.67857
0.357579 1.03605 4.1651
1.92587 2.28696 3.00797
-0.780704 3.71904 2.42954
0.432258 1.07834 3.89146
4.01346 2.53541 3.25473
2.49148 4.4058 2.62354
1.51062 3.83001 2.5582
0.0863803 2.3693 2.76627
-1.09759 0.744537 3.25241
3.78512 0.861313 3.52789
0.852656 3.9642 2.55761
2.0787 2.60225 2.91628
-0.767338 0.898906 3.29701
0.28744 1.23781 3.86742
1.60803 4.01429 2.55894
0.224913 2.49377 2.70382
-0.9906 -0.239201 3.25907
1.57584 2.75737 2.83491
0.967448 0.79946 4.04406
-0.56262 -0.971166 3.2332
3.41042 1.06406 3.44196
-0.421806 3.80313 2.2798
0.0128786 -0.183927 3.316
1.06471 2.66122 2.78898
4.30405 0.963786 3.60571
2.52284 4.22492 2.64786
-0.863426 3.3698 2.45817
3.05662 1.93806 3.18706
-1.62162 -1.19739 4.22466
2.66539 0.588895 3.68229
1.58759 4.74219 2.41786
0.596987 3.33453 2.57116
2.33266 1.99198 3.28616
-0.136277 4.36831 2.19912
-0.655098 3.38779 2.41611
1.54719 0.645528 4.1926
0.782918 2.1086 2.97263
1.58003 2.26013 3.04339
1.05906 3.56182 2.59118
0.114436 0.370047 4.23356
0.544618 -2.0794 4.42371
1.51235 2.19836 3.07857
-0.861206 0.433317 3.90192
0.746076 3.58288 2.53244
4.12089 0.0897874 3.76126
1.81074 0.12003 4.3232
1.11009 0.872251 3.93734
1.95226 3.73833 2.64171
3.84806 -1.55661 4.06401
1.53875 2.40843 2.99778
2.39569 0.239723 4.16688
0.767729 3.69306 2.48718
-0.55266 2.37033 2.83934
3.03902 -0.679567 3.86539
0.839623 2.50735 2.80475
3.84368 2.78006 2.9509
1.68881 -1.29417 4.4376
1.71117 1.02885 3.62822
-0.619822 3.68947 2.35517
-0.0895422 2.44419 2.74264
-0.929211 0.271227 3.22454
1.96913 -1.03802 4.43791
3.374 0.717215 3.60813
0.801183 3.97563 2.56897
2.0258 2.70253 2.92713
-0.612251 0.438873 3.3391
3.29459 1.05503 3.6289
1.4335 3.93438 2.50562
0.0109769 0.969773 3.66657
0.41983 2.46342 2.6286
0.302105 1.26866 3.81886
1.06224 4.05067 2.5145
4.81 1.21352 3.86526
1.83092 2.74487 2.85371
0.765685 4.14434 2.52327
0.283097 0.282825 3.52691
2.29419 1.45553 3.52744
2.53677 4.1031 2.50503
1.12206 2.84396 2.71602
0.783002 1.13421 3.64899
-0.64065 1.49117 3.21316
-0.635184 3.91742 2.18759
-0.850477 2.78532 2.58388
-1.32648 0.627537 3.2494
2.16897 2.41181 2.93108
4.46819 0.914778 3.50296
0.0686274 1.2037 3.82448
-0.81546 3.6618 2.38993
-1.0774 2.33793 2.68748
3.20017 -1.23076 4.02039
0.706504 2.34403 2.80487
0.551636 3.80175 2.49951
3.69824 0.565174 3.60882
-0.874716 0.500946 3.23933
-0.973788 3.73253 2.30484
0.0177974 2.47738 2.68032
-0.400125 1.24636 3.60895
1.81179 1.23736 3.61657
0.305798 3.93166 2.45521
-0.184292 2.57363 2.58314
-0.27622 0.902362 3.55086
1.41309 3.99227 2.49165
3.29717 0.950626 3.61212
-0.554615 -0.618547 3.26261
1.50595 2.65622 2.92939
1.77616 4.01551 2.47608
0.894497 2.75315 2.68097
3.99038 1.09243 3.36986
0.228133 -0.408891 3.31641
0.665942 1.46835 3.58535
0.102516 -0.756716 3.27637
-0.403609 2.70032 2.60571
0.124941 4.05124 2.37061
0.166978 -2.39824 3.22871
1.88886 2.98067 2.80864
0.459947 1.66617 3.37061
3.42276 -0.386398 4.33231
1.57373 4.08212 2.3867
-0.276655 2.8611 2.61717
-1.05482 -1.94747 3.10916
1.35688 1.57383 3.52317
-0.809228 -0.0521876 4.12175
-0.247565 4.07044 2.2662
1.83273 -0.566282 4.73412
1.70422 4.19276 2.35729
-0.82186 2.93616 2.48274
2.09594 -0.421164 4.50887
0.725414 1.71208 3.31379
1.9832 -0.78913 4.97869
2.41369 1.68377 3.29146
0.423943 -1.37302 4.64556
-0.774058 3.03035 2.41845
2.13544 1.63722 3.33844
-0.55262 -0.577702 4.24187
-0.774921 3.08174 2.53282
0.39591 -1.14422 4.79838
-0.203323 1.94415 2.98275
1.16013 4.47129 2.3841
0.20134 3.2185 2.51404
2.37043 -0.907417 4.61372
1.55671 1.87268 3.25751
3.97517 -0.626735 4.12203
0.402685 3.1328 2.51165
-0.0535615 3.80016 2.40583
-0.140612 2.59064 2.70789
3.38022 2.3432 3.14972
4.16833 0.870195 3.61455
-0.822285 -0.910058 3.99847
3.70088 0.766329 3.60718
-0.894504 -0.7268 3.22889
1.95555 2.55051 2.97565
3.10457 -0.913088 4.41522
1.16536 3.92675 2.4981
3.9242 -1.38511 4.37746
3.34777 2.69542 2.9207
-0.551667 -0.261238 3.28386
-0.643456 1.44537 3.32898
1.46303 4.02631 2.52137
3.39923 2.57371 2.9088
-1.32765 4.02053 2.30445
-0.743408 3.78621 2.20904
-0.465791 1.40613 3.50635
0.412458 -0.626182 3.32047
-0.366168 4.00677 2.32422
2.50748 2.76891 2.84357
1.08511 1.45456 3.47116
0.857631 4.23114 2.46031
-0.322596 1.70655 3.30974
0.314031 -2.39704 3.22936
-0.0265907 2.82734 2.51107
-0.574377 4.145 2.29931
3.39722 1.25372 3.39057
-0.396979 -1.59147 3.16213
-0.453547 2.80658 2.55493
-0.013477 4.15307 2.26907
1.62833 1.67624 3.31209
-0.157614 2.94557 2.46316
3.55918 1.52936 3.52286
2.84551 4.7469 2.69848
-0.828616 0.281069 4.15001
0.816196 2.95515 2.62182
-0.775384 3.10404 2.41828
1.26883 -0.00197178 4.56947
3.19996 1.67907 3.23388
1.13919 4.54673 2.38632
0.740947 3.12306 2.59263
2.34115 0.0223223 4.12917
3.23009 1.62398 3.35618
1.94852 4.44265 2.43279
2.01278 -0.429421 4.57676
3.49571 -0.792019 4.1975
-1.25007 -0.283811 4.11158
1.23888 3.35843 2.70311
-0.598589 2.00602 3.03864
0.40039 2.0514 2.98618
2.14834 4.1919 2.55343
-0.423516 3.33711 2.46124
-0.274332 -0.8558 4.99935
1.34562 2.00493 3.17061
0.421439 -0.674714 4.7872
-0.727879 3.29261 2.46281
4.21751 -0.385024 3.93614
-0.51688 -1.58575 3.16113
0.966721 2.9892 2.65845
0.810497 1.68373 3.29865
3.59773 -0.201393 3.90253
1.34335 4.16175 2.38495
4.06366 1.34666 3.50474
0.949611 4.25013 2.36842
3.7945 -0.0778055 4.02637
0.288057 2.84713 2.55214
-0.636805 3.08681 2.47466
-0.222417 4.52902 2.19145
2.91249 1.59615 3.24352
1.69145 3.22222 2.84311
2.70386 -0.292573 4.3019
1.8735 1.69201 3.36948
1.40149 4.55356 2.39897
0.662097 1.88382 3.1418
-0.397812 -0.628777 4.57342
2.13225 3.36062 2.81826
1.99077 4.25784 2.45015
-0.535532 -0.385799 4.68657
3.69036 -0.847089 4.23572
3.31959 1.78512 3.10729
2.88038 -0.998979 5.09979
-0.935803 3.32975 2.48515
0.469817 1.97872 3.13614
3.55788 -0.787133 4.39101
2.25489 3.34657 2.74902
4.03671 -0.804258 4.07795
1.30702 3.52248 2.63993
1.62506 2.12383 3.12122
0.722398 4.72451 2.38081
1.84684 2.11023 3.25926
-1.02324 4.3586 2.15714
1.71342 3.51217 2.72508
1.75402 0.768462 3.87237
3.97624 0.269668 3.73921
0.368551 2.29841 2.94524
-0.0301154 3.45433 2.44993
0.437339 4.41841 2.33747
0.275863 2.22643 2.97205
-0.789003 3.53239 2.41104
-1.26077 0.421049 3.83797
-0.378675 4.33206 2.27182
1.75975 3.74577 2.64066
2.39504 2.28217 3.05071
3.4697 0.444136 3.93789
-0.634014 0.903012 3.63934
-0.491591 2.40854 2.67528
0.44932 3.72915 2.4935
-1.08055 3.64295 2.39818
0.214556 0.251436 4.38448
-0.651113 3.67884 2.35071
4.03764 0.12901 3.96014
-0.136931 0.873787 3.85665
-1.12134 2.03538 2.67984
-0.0391024 2.38477 2.79578
1.77485 -1.59227 4.66164
1.71554 0.391239 4.31625
2.1939 1.78694 3.44642
-0.558885 3.15324 2.54283
1.2233 1.78921 3.42052
0.892901 4.64954 2.37528
0.913597 3.06666 2.6514
3.44022 -0.0539105 4.19847
0.578217 3.2687 2.57644
1.51678 4.37375 2.39098
3.48003 1.81447 3.34818
3.58843 0.0380826 3.80123
2.7871 1.74424 3.277
4.26979 -0.595775 4.14116
2.99686 3.50566 3.01084
-1.01259 3.42464 2.50946
1.64337 4.64701 2.41444
3.43355 -0.393152 3.97964
1.11167 -0.0463317 4.51885
-0.691858 2.11927 2.94745
2.16823 3.4212 2.75022
1.00244 2.04743 3.1931
4.06525 -0.255898 4.00628
2.43414 -0.617122 4.38154
0.974928 3.45019 2.57771
1.19271 -0.372361 4.66435
3.92763 1.94044 3.11271
4.1007 0.40914 3.7629
-0.293666 2.24491 2.82554
-0.570777 3.54709 2.49732
3.90166 0.0247927 3.84957
-1.00324 3.58072 2.44651
-0.0813436 2.23002 2.93717
0.398664 4.6632 2.35638
-0.501339 3.61121 2.42428
-0.780287 2.37659 2.72545
2.5898 5.24877 2.67471
3.71463 0.581319 3.75519
-1.36845 2.36181 2.85505
0.586412 2.27237 2.84015
0.200807 3.68051 2.44829
-0.118061 2.51646 2.73444
4.49609 0.541853 3.51664
2.55612 0.89546 3.57164
-0.129557 0.759066 3.92869
0.0182729 3.70416 2.40554
3.43339 2.34593 3.14779
1.31914 2.43799 2.88138
1.82164 3.9119 2.58359
2.59597 0.792923 3.59185
-0.714549 -0.427302 3.26077
-0.361584 3.80825 2.34015
1.64957 0.460745 4.08158
1.78413 2.60102 2.90754
-0.264641 0.618877 4.14987
3.50183 0.940962 3.68872
1.30969 2.22604 3.10813
-1.05333 4.19909 2.20545
-0.826128 3.42924 2.38738
-0.370207 2.12595 2.86452
3.93114 -0.277644 3.91859
2.0833 3.5387 2.7067
0.33938 4.61496 2.33961
0.816636 2.28694 2.88426
1.99338 3.69638 2.69095
-0.140854 4.18729 2.16472
-0.620209 2.26044 2.79102
1.3264 3.7211 2.59975
2.72129 0.561834 4.08294
1.68423 2.43125 2.91366
-1.40609 2.72874 2.72907
1.82134 3.79851 2.61508
4.41016 0.699697 3.73689
0.571699 0.860302 4.15296
0.92155 2.32109 2.8173
-1.0303 4.31921 2.17855
0.996183 0.881403 3.96012
1.84955 3.88746 2.62335
3.22256 0.895907 3.78442
2.1752 2.49815 2.94229
1.25103 0.419499 4.19743
0.149797 3.81659 2.42196
4.1357 0.231987 3.98208
-0.938322 0.57112 3.24053
3.0107 1.00265 3.47295
0.312095 4.12814 2.47919
2.41742 2.6432 2.8953
-0.420732 0.84726 3.50822
0.623383 4.03088 2.48708
2.00656 1.16577 3.7387
-0.681655 -0.740132 3.2423
-0.643409 2.63632 2.72346
2.37981 -0.758439 4.48183
0.328533 0.553367 3.6314
4.09674 -1.16048 4.44936
1.11838 2.77327 2.73276
0.556727 1.58579 3.61179
2.19302 4.24256 2.66182
2.82404 -0.976437 4.82813
0.197619 1.51792 3.638
0.368734 1.1311 3.70704
-0.506285 2.71641 2.62974
1.00429 4.197 2.5054
-0.716166 -2.24369 3.13916
-0.537886 2.89624 2.54601
3.75547 1.32264 3.39816
-0.390302 4.02027 2.27877
-0.826643 2.66682 2.44693
-0.962536 -1.31885 4.42154
-0.338676 -2.13592 3.10761
2.68413 1.30368 3.34381
-0.14116 4.01248 2.24141
3.64937 1.53839 3.57504
0.333522 2.91023 2.54686
-0.295558 4.05911 2.20401
-1.17578 0.0462107 3.83854
2.60917 1.48057 3.32115
-0.432603 3.04247 2.62385
-0.559048 4.0627 2.19468
4.90899 0.00192615 4.55624
2.66162 4.73721 2.69486
-0.0945662 1.83161 3.12771
-0.582988 3.09593 2.49931
3.82494 -0.424351 4.08409
0.211381 -0.0481847 4.32509
-0.192135 1.80234 3.1976
0.775916 4.56707 2.40104
1.85034 3.14333 2.78651
-0.463218 3.16685 2.43093
2.11103 1.92957 3.33124
0.658998 -0.726135 4.9756
2.7768 2.11881 3.08777
0.460698 3.06884 2.46933
0.11976 1.91179 3.11427
3.22634 -1.02149 4.20957
0.951145 -0.448172 4.94623
0.0626886 3.30919 2.47086
1.27329 2.03996 3.11591
-1.52544 -0.162239 4.08863
0.18332 3.28077 2.51644
3.25626 -1.63224 4.29848
0.446914 -0.783656 4.64511
1.86718 1.98823 3.24764
-0.564871 2.11495 2.85336
-0.677286 3.34424 2.3962
2.83001 3.27232 2.86363
2.87233 2.12604 3.05155
-0.180322 3.37724 2.38832
-0.0431058 0.742416 3.95157
3.85662 -0.295561 3.9057
-0.787709 2.18571 2.82408
0.35792 3.5087 2.47154
3.87484 0.199823 3.77001
1.68218 3.75389 2.65534
0.862845 2.34783 2.85892
-1.19352 0.324739 3.8947
-1.46747 4.01478 2.29015
2.25722 0.815187 3.89397
3.28198 -0.298637 4.07348
-0.628925 2.37024 2.85172
1.11353 3.72969 2.53697
2.78851 0.548099 3.98053
1.56252 2.50396 2.90661
-1.34267 -0.10904 3.25562
2.47568 0.922536 3.65005
2.89441 3.8603 2.66537
-0.570089 1.1037 3.50301
0.436727 2.43637 2.78358
-1.15539 0.253087 3.94247
-0.556343 3.68592 2.30916
-0.494784 0.92709 3.77135
-1.8042 3.13168 4.81892
2.15014 4.84875 2.52539
1.37922 3.42348 2.64414
4.13235 0.117013 3.81776
0.83299 2.00282 3.09384
2.04763 3.4815 2.79194
-0.999772 0.582788 3.65984
2.59014 2.09021 3.08917
-1.01668 4.22896 2.20372
-0.242634 0.712579 3.98057
1.42343 3.57504 2.63138
2.25907 2.08861 3.17007
-1.4102 0.45563 3.32439
-0.230343 3.30367 2.39497
0.157891 2.26575 2.7938
-1.51192 2.01955 3.10971
2.0337 3.6699 2.67895
-0.155009 0.282007 4.25785
-0.503154 4.35647 2.25867
-0.553691 3.63105 2.43832
0.701749 2.21547 2.89363
-0.514648 0.403324 4.2445
-1.30341 3.10071 2.52542
1.08538 0.121891 4.43235
0.168404 3.67602 2.44484
2.19857 2.33363 2.98975
3.35609 0.57792 3.64245
3.13908 0.0946446 3.75068
2.54611 -1.08363 4.29938
-0.973192 3.68371 2.34519
1.45132 1.12713 3.77655
1.22329 2.57077 2.9334
3.73666 -0.873805 4.00673
-1.07008 2.19917 2.564
2.48801 0.85876 3.72629
1.53437 3.87007 2.54176
1.00691 2.4511 2.87109
-0.886536 0.911932 3.21934
0.865691 1.36851 3.68199
-0.488428 3.77587 2.32517
1.3911 2.62728 2.79918
-0.935381 0.0323258 3.27044
1.07378 1.25073 3.69217
1.67377 3.96989 2.4971
3.62138 -1.4323 4.25789
-0.158444 0.860071 3.58492
0.183115 2.47767 2.62763
0.370333 0.933032 3.70477
2.43451 2.77989 2.85786
1.91279 1.33024 3.48471
1.38684 4.02013 2.46758
0.183945 0.766053 3.61701
0.709785 2.67008 2.68816
1.14461 4.09494 2.45161
3.78235 1.04081 3.53255
-1.34477 0.682691 3.26153
0.441971 2.86294 2.59764
2.03602 1.51626 3.47409
0.0300238 3.99169 2.28708
1.23688 2.8289 2.71616
-0.475021 -1.38515 3.18101
1.02096 1.53315 3.4095
0.437239 4.17155 2.36116
-1.4321 0.650953 3.33097
-0.935332 3.44635 2.41343
0.396191 2.2255 3.00088
1.48091 3.71531 2.68629
-0.74135 4.18397 2.10399
0.670087 2.26215 2.84582
2.41996 2.19318 3.07838
0.002094 3.58207 2.43566
-1.12568 3.81172 2.32356
1.68992 3.78699 2.60792
1.86738 0.90886 3.68325
3.35379 0.475061 4.02829
1.76251 2.42682 2.94271
-0.269866 -1.41557 3.86212
-0.906964 0.796434 3.74347
-0.383671 3.69676 2.38639
-0.833821 0.716477 3.84346
-0.453723 2.39925 2.79058
-1.08452 2.24575 2.54992
2.30418 2.5347 2.89814
3.39448 0.319961 3.95691
-1.05606 2.70778 2.68248
3.98844 0.778459 3.26722
1.63519 3.896 2.57333
1.14588 2.53503 2.90617
3.50213 3.30635 2.7913
-0.692139 1.00822 3.65589
1.53311 3.91752 2.51388
-0.773494 2.68027 2.57608
-0.725058 -0.872159 3.22721
-0.699849 1.41738 3.3257
1.88543 -0.823755 4.88732
1.84435 3.99463 2.52265
1.81242 2.683 2.9084
1.52224 -0.566451 4.42068
0.231606 0.239392 3.49069
3.74328 0.964613 3.57933
1.72381 4.00489 2.48241
4.41292 1.14471 3.66277
-0.984381 -0.992697 4.18879
0.25414 2.66934 2.57903
-0.908108 3.78429 2.17764
-1.31083 3.92702 2.31185
-1.14492 -0.892706 4.27282
-0.706168 1.66494 3.20695
1.37963 4.11006 2.41582
1.63931 2.98171 2.81646
-0.7134 -1.8573 3.14239
-0.0486691 1.67802 3.4824
-0.657982 3.56565 1.87756
4.13689 -1.4834 4.54219
0.836792 2.78177 2.65515
-1.0074 -1.84573 3.11622
1.24212 3.0695 2.68933
1.10319 4.21556 2.35768
2.05949 1.64157 3.34904
2.23502 2.9948 2.783
2.18898 -1.28267 4.48059
3.09485 1.39314 3.30066
0.981001 -0.980467 4.77202
-0.768118 2.67154 2.75902
3.82027 -0.839149 4.22432
1.25557 3.91798 2.49826
1.42327 1.20056 3.69207
-0.994934 -0.0888202 3.25433
1.35096 1.34478 3.55932
-0.679553 3.80674 2.27437
-0.645975 -1.38417 4.33367
0.448653 2.59025 2.59101
-0.267949 0.603471 3.48276
0.510762 4.05166 2.45326
-0.839824 1.3956 3.44099
3.12757 -1.07475 4.028
0.836119 2.6122 2.73625
-1.26082 4.08731 2.27552
-0.532438 2.7866 2.53806
-0.84328 3.87791 2.22842
2.81892 1.33694 3.45625
-0.796467 1.50218 3.2848
-0.594595 -0.0176774 3.30618
-1.16731 -1.67561 3.16053
0.341518 2.66997 2.57556
1.8936 4.16653 2.47289
-1.02769 -1.51943 3.14663
1.96984 3.00408 2.76638
1.84834 1.56651 3.34916
-0.741113 3.93246 2.15183
1.45208 2.95332 2.76745
0.542991 1.60814 3.33687
-0.780653 4.001 2.16119
3.23652 0.09928 3.93435
0.191186 -1.25037 4.58012
3.19451 0.246289 4.04278
-0.679227 3.05045 2.53867
2.28073 1.60801 3.32157
3.13088 1.66094 3.21379
1.14754 4.38385 2.37834
-0.481551 3.17146 2.49784
3.87711 -0.279654 4.18187
-0.837768 1.93667 3.19923
1.99321 4.19285 2.4579
1.62391 3.22837 2.77312
0.625966 0.0942493 4.55056
1.40165 1.97781 3.16658
1.44982 4.44462 2.3988
-1.17038 -0.378236 4.43223
-0.485826 3.22475 2.42535
3.40842 1.79363 3.32163
4.79218 0.302222 3.935
2.26315 -0.259667 4.29989
2.10263 3.3925 2.7862
0.145132 -0.767028 5.21452
0.456277 3.40569 2.51992
2.54484 2.03388 3.14574
1.41221 4.68544 2.40916
4.03187 0.062166 3.74885
-0.499612 3.29875 2.43641
3.75936 1.93571 3.29845
-0.410424 2.73944 2.59773
3.79589 -1.79636 3.83813
-0.621649 -0.669278 4.5519
2.0399 1.27993 3.4462
-0.736369 3.83152 2.24124
-0.549152 2.67175 2.60403
0.608819 0.781312 3.7038
0.261781 1.52076 3.69528
-0.37195 -0.417868 4.42144
0.210935 4.0362 2.39043
-0.949409 -2.03942 3.136
0.826232 -1.03756 4.93135
-0.0320245 2.69103 2.5016
0.275465 4.13541 2.40066
3.45174 1.20949 3.34798
4.44439 -0.862917 4.50883
-0.944484 -1.01536 4.10844
0.572224 4.21138 2.39503
0.0700645 1.71735 3.29022
-0.907047 -1.96861 3.10591
0.429631 2.94891 2.60873
0.400818 4.21538 2.33815
2.55955 1.43787 3.43593
1.38694 2.96387 2.79266
0.129102 -1.22974 4.55979
2.96363 1.52715 3.17905
-0.173983 3.07684 2.51479
-1.30611 -1.38844 4.23023
0.460147 1.7451 3.22696
1.81797 4.55257 2.42536
-0.045151 2.99161 2.53263
-0.063695 3.20282 2.50236
0.947633 4.41659 2.38219
1.37677 1.94852 3.26345
-1.1868 0.39621 3.86214
-0.63738 3.13685 2.46903
3.0465 1.6759 3.25932
1.00272 0.641584 4.14153
1.29807 4.50375 2.3889
2.74756 0.108633 3.81347
3.45759 3.22724 2.85585
1.65719 3.39532 2.70892
0.540364 0.351472 4.35451
2.21859 1.92466 3.21328
-0.420979 2.124 2.88967
3.26078 -1.64541 4.34986
0.152267 0.0653562 4.3374
0.931448 3.50614 2.62626
1.10302 2.09661 3.16985
-0.00604156 3.31238 2.47861
2.17959 5.07631 2.40738
1.37215 -0.249667 4.49763
2.10692 3.63061 2.724
-0.42245 2.15889 2.71956
-1.33837 0.139386 3.31024
4.67108 -0.263031 4.37463
0.646775 3.56112 2.5351
-0.951689 2.29358 2.93533
0.836872 -1.31294 4.31238
0.043239 3.13708 2.50038
2.56138 0.278007 3.94462
2.19739 1.7539 3.21758
2.09581 4.10891 2.59488
2.83551 0.379184 3.93446
1.11443 3.1381 2.65125
0.722778 1.825 3.25255
1.95705 4.36722 2.4523
3.63806 1.68274 3.18942
-0.715148 0.100243 4.2985
-0.148351 3.17316 2.46042
1.86583 4.38864 2.41569
0.908876 0.216505 4.51127
-1.1799 2.15467 3.00731
1.76556 2.08622 3.247
0.764385 3.40605 2.59859
2.84424 1.82555 3.14781
0.684329 4.62324 2.37506
3.32636 -0.254722 4.27087
1.43816 3.38792 2.68134
1.05648 -0.413383 4.81192
0.70948 2.185 2.99462
4.03079 0.185383 3.79118
-0.00507824 2.09279 2.90076
1.15045 -0.232308 4.6054
4.23746 -0.369411 3.82454
0.0111864 3.39413 2.48108
0.940242 3.54663 2.58811
-0.73297 2.35149 2.82161
0.654349 -1.0927 4.30459
-0.847028 3.53205 2.42471
2.7966 -1.56247 4.276
0.62442 2.1823 2.85218
-0.956929 3.62935 2.42264
2.07098 2.35862 3.01676
0.60332 3.69599 2.48691
1.66746 0.849312 3.84651
-1.35129 2.76613 2.66805
1.89535 1.0044 3.66938
1.56882 3.81463 2.5732
0.614422 2.42802 2.72881
-1.16123 -1.81091 3.40911
-0.171301 3.77162 2.3994
3.62314 0.615015 3.61149
-0.800568 1.22559 3.29953
1.49394 2.45494 2.94635
3.90147 0.307474 3.81803
0.23421 3.9984 2.51257
1.53863 2.67621 2.87486
-1.07444 0.42268 3.24679
0.780742 1.32168 3.598
3.76759 0.780406 3.43065
1.70649 0.794127 4.11962
2.60564 2.55253 2.9451
0.0125937 0.85872 3.64519
-0.724628 3.78199 2.26444
2.44785 3.4144 2.774
3.27176 2.13087 3.18558
1.39992 0.577434 4.04742
-0.737229 2.041 2.97493
1.4139 1.88759 3.19754
3.99322 -0.42144 3.94408
1.77372 3.34836 2.74204
4.68659 0.464624 4.06711
2.70833 0.3693 3.88909
0.201075 3.43406 2.529
4.29155 -0.633768 4.10969
0.634944 2.08022 2.95885
0.129858 3.29913 2.48147
3.98064 -0.0569232 3.87961
2.47747 1.98967 3.22303
-1.13646 0.234061 4.31727
0.839651 3.53839 2.58354
-0.745171 0.233532 4.09918
2.09006 2.08071 3.04174
4.85414 -1.05535 3.86659
-0.0886862 3.4514 2.40554
2.59968 2.21863 3.03315
2.5067 -0.158408 4.40197
-0.324834 0.0758395 4.31437
0.0886841 2.22622 2.8712
-0.630945 3.60889 2.4308
-0.0180244 4.55077 2.25847
1.87024 -1.63808 4.26647
0.0978001 3.69047 2.47202
1.43326 2.42496 2.91943
-1.3374 3.25292 2.38412
1.13738 1.01026 3.77304
4.59489 0.516327 3.52066
2.54752 2.30148 3.00561
1.20992 3.77761 2.53839
-1.12616 -1.36204 4.22576
1.72157 2.56593 2.90312
-0.866766 0.858985 3.25217
3.78979 0.784347 3.422
0.851872 3.89221 2.5394
-0.511502 0.469771 3.36969
1.7547 2.50116 2.95249
-0.668624 3.70593 2.27109
3.92892 0.717103 3.55377
-0.86557 -1.03585 3.28921
0.66744 4.01696 2.49587
1.28953 2.61571 2.79108
3.92588 0.918462 3.5307
3.28578 1.14403 3.46757
1.12045 4.00057 2.45193
-0.0998593 -0.415943 3.27748
-0.701847 0.783536 3.76886
1.05475 2.74559 2.72977
1.72103 4.06131 2.47846
4.23886 1.00469 3.44625
0.302986 -0.0371778 3.41265
-0.134866 2.63113 2.59962
3.68927 -1.51975 4.06707
0.517701 2.34981 2.82937
0.579793 3.63822 2.51648
-0.498728 2.34739 2.84771
-1.28928 2.32015 2.86404
1.22813 3.71207 2.5434
-0.292883 2.46474 2.69699
-1.18699 0.202086 3.27628
-0.282125 3.70093 2.40146
0.810207 1.12432 3.96069
1.04749 2.41737 2.8589
-0.897214 1.2777 3.29654
1.6768 1.00221 3.89262
0.754392 3.84793 2.50656
1.78169 1.1131 3.65833
0.569989 2.50425 2.69806
1.55977 3.89898 2.51002
-0.560311 0.185024 3.32366
3.05524 0.618242 4.00683
-0.55276 1.42362 3.36808
0.900737 4.09292 2.55653
2.12413 2.71499 2.87632
-0.149924 0.576017 3.49117
1.49257 0.913779 4.0833
0.373723 4.10419 2.48611
-0.00949823 1.35431 3.47518
-0.735825 2.59121 2.59824
0.372792 -0.00965768 3.43187
0.38266 0.189944 3.52461
-0.742569 2.84798 2.60434
4.69866 -0.511088 4.09004
1.12914 1.49638 3.41249
-0.279273 3.86443 2.24917
-0.290384 -2.3437 3.17097
2.28508 2.80522 2.89108
1.80903 4.0958 2.43267
1.77021 -0.302309 4.50502
-1.07242 1.45093 3.44258
-0.396212 -1.30182 3.19103
0.365749 2.9183 2.586
-0.514863 1.74565 3.23025
1.80331 4.12171 2.39421
0.554286 2.8332 2.59684
0.689432 1.58148 3.31639
2.72111 -0.674156 4.46547
-0.336988 1.81791 3.21113
-1.14156 -0.760677 4.00704
1.65779 4.19926 2.38265
0.745512 3.03933 2.62981
3.9743 -0.890242 4.72013
0.628498 -0.820539 4.744
1.55604 4.60112 2.4065
0.331007 1.89294 3.15511
-1.10598 -1.43365 4.33299
-0.0435083 3.14577 2.50933
2.79958 1.61574 3.28808
3.38341 -1.12072 4.19458
1.19847 4.55785 2.38683
1.82014 3.18987 2.7523
-0.35186 1.21171 3.62588
0.943805 3.83172 2.56368
1.07766 2.48032 2.85303
-1.30818 0.874714 3.27542
2.19005 3.91697 2.6215
1.30463 1.02885 3.9034
-0.478929 -0.0331897 3.37243
-0.761718 -1.05798 4.31561
1.54423 2.45492 2.97073
-0.316419 2.60634 2.63998
-0.80178 0.722703 3.26663
2.64516 1.04572 3.52375
0.752748 3.96397 2.52723
3.95726 -1.53654 4.34665
1.13833 2.60322 2.88522
-0.159419 -0.125304 3.33325
-0.253546 1.27473 3.57365
0.579134 4.01736 2.49844
-0.784596 2.77898 2.6183
0.217853 -0.63115 3.29132
0.768574 1.46527 3.51513
0.194873 4.09164 2.47856
0.217092 2.58745 2.59402
0.159943 -0.252886 3.32952
0.5111 4.07481 2.43011
3.31687 0.993156 3.37824
0.734661 1.52085 3.39377
2.07922 2.85295 2.84004
0.754465 4.10118 2.41002
-1.01553 -2.17462 3.12265
0.127371 1.75957 3.35971
1.22129 4.1702 2.40583
-0.596059 0.0569576 4.17395
-1.05042 3.16742 2.45234
1.33875 3.00585 2.75238
-2.38571 2.69493 6.39351
0.267648 4.1585 2.30013
0.513414 2.80796 2.58374
1.88949 3.20231 2.78334
1.55706 -0.287938 4.6601
0.892674 -0.849414 4.75542
0.00651445 1.86253 3.22271
3.98097 -0.320072 4.17163
0.988019 1.75544 3.33977
2.06145 4.72873 2.52613
-0.348795 3.01638 2.54748
2.373 3.33577 2.76873
2.04767 -0.708467 4.99775
2.00311 4.17077 2.49152
2.46265 1.84157 3.29425
-1.03883 -0.417775 4.21638
-0.566964 3.17747 2.51602
-0.48939 1.90579 3.07645
0.808721 4.5515 2.39972
1.26055 3.35919 2.66577
4.57084 -1.05874 4.80964
3.9925 -0.734662 3.90177
0.0395444 -0.818103 4.72031
0.333885 2.03725 3.10826
3.14344 1.34464 3.38659
1.13553 4.08657 2.40296
-1.28354 -0.303557 4.08882
-0.0941825 -2.37623 3.23557
-0.102926 2.82449 2.54875
-1.43052 0.931732 3.22523
3.19472 1.25022 3.40154
-0.653659 3.9268 2.16565
-1.21211 -0.037957 4.12774
0.732366 2.76894 2.63613
1.81515 3.10593 2.77904
2.79275 -0.531285 4.23958
1.05692 4.1953 2.35337
2.77278 1.53987 3.31027
-0.0978156 2.94518 2.56948
0.769196 -0.854063 4.7187
3.44007 1.45148 3.48329
1.6438 -0.767596 4.50048
2.67022 4.46359 2.53727
2.82567 -0.686432 4.40888
1.27521 3.17677 2.70961
1.22063 1.8243 3.36052
-0.878435 2.02219 3.06761
1.88342 4.5204 2.42725
0.72219 3.2695 2.60609
3.31975 -1.23355 4.74638
2.81377 1.6674 3.21574
4.63072 0.661628 3.76546
1.17327 -0.997957 4.84551
-0.532504 3.21236 2.53648
-0.200122 2.04107 2.9234
-1.32926 1.30843 3.39037
0.879834 3.37588 2.59238
1.04227 -1.66998 4.65776
0.615616 1.98795 3.07235
2.76501 0.681683 3.76309
0.0288156 3.26646 2.50763
4.12147 -0.446678 4.0012
2.44823 0.501949 3.84664
-0.749117 2.17257 2.82818
-0.321109 3.39364 2.47197
3.46384 0.498164 3.88537
-1.24655 3.68204 2.27431
2.01704 2.03553 3.12082
-0.412639 3.49199 2.47968
-1.26336 2.94653 2.51375
1.71805 0.31926 4.14287
2.11094 2.21745 2.99014
-0.469957 3.50067 2.42239
-0.398355 0.458907 4.13447
0.382137 4.38117 2.25718
1.10069 3.67201 2.56993
1.14672 2.20609 2.96806
0.338793 0.0448816 4.43541
-0.606489 2.37595 2.76804
0.955413 3.71262 2.53995
-1.30984 3.04898 2.53487
3.52405 0.022873 3.9955
-0.828965 4.05957 2.20425
-0.605127 1.83489 3.2351
1.99847 0.124279 4.16218
1.50404 3.09886 2.75352
-0.384749 -0.825883 4.49106
1.17403 0.391331 4.33815
-0.943368 1.79616 3.29089
0.556154 2.90712 2.59918
3.99157 -0.352978 4.09799
3.80464 1.58306 3.24214
2.50637 4.91628 2.65111
-0.660574 3.11172 2.45641
0.22447 0.0326108 4.42799
-0.542455 1.86029 3.14601
1.1723 4.37851 2.3788
-0.0150612 3.06786 2.53415
0.996545 3.36074 2.64875
-0.0943406 1.9961 3.0069
1.91813 4.29987 2.42681
2.27063 -0.53171 4.38371
1.19805 3.24764 2.62653
-0.348118 2.01174 3.11544
4.0044 -0.801486 3.92701
-1.03331 -0.275145 4.19247
0.58718 3.45197 2.5618
2.35152 2.0083 3.12586
-1.21128 -0.6801 4.24701
3.89907 -1.17457 4.06276
0.97184 4.74115 2.37957
2.29315 3.44471 2.73296
2.10449 -0.719095 4.86617
3.24485 1.89606 3.21241
2.69295 2.03091 3.05699
1.27261 3.5596 2.63351
-1.29769 4.03734 2.15696
1.54543 3.68883 2.68014
0.344004 0.856029 4.18557
3.81318 -0.0339046 3.89813
0.730335 2.28066 2.89776
3.98427 2.09143 3.17486
1.18132 3.70861 2.61018
0.126981 4.26282 2.2311
-1.48477 1.8056 3.22432
-0.849726 2.4383 2.71356
3.50197 0.368624 3.91999
1.37991 3.74623 2.59057
2.83911 0.737094 3.67133
-0.206021 2.43001 2.87078
-1.36219 0.209353 3.25915
1.22593 0.69093 4.03403
-0.16288 3.71391 2.42591
1.4211 2.6138 2.93202
3.61445 2.26525 3.20163
1.89038 1.08552 3.68122
0.3019 3.8054 2.4583
-0.916071 2.60231 2.81349
-0.673042 0.62392 3.36818
4.4572 0.835596 3.60155
1.30533 0.480501 4.15914
0.130356 3.90764 2.46082
4.94423 -0.733913 4.06423
-0.954043 2.13925 2.88492
1.44239 3.51205 2.66437
0.470696 2.01728 2.99403
-0.126823 3.30723 2.47429
4.24163 -0.635575 4.0133
1.62546 0.756932 4.08947
0.74675 3.51899 2.57112
-0.234276 2.2213 2.84025
4.20411 2.19972 3.2832
0.955538 2.18039 3.0382
-0.0413325 0.855617 4.02666
-1.15351 2.73448 2.70235
-1.0196 3.52437 2.42013
0.154428 2.33189 2.77897
0.660593 -1.02392 4.19431
4.23043 0.167627 3.83319
-0.459481 3.59867 2.43929
2.16361 0.549012 3.87995
3.64251 2.5413 3.01268
0.557635 2.2593 2.84372
0.354945 3.65954 2.46962
-1.4609 0.857214 3.26617
0.301923 0.197685 4.38216
