ply
format ascii 1.0
element vertex 1836
property float x
property float y
property float z
end_header
0.870919 -0.0791314 2.94663
-0.483368 0.806728 2.42395
-1.21793 -0.872987 3.3448
1.32272 -0.288485 2.8058
0.509369 1.1644 2.87709
0.254992 -1.23043 3.58784
0.731898 0.467293 2.91203
0.802188 -0.269342 2.9812
-0.314733 0.784313 1.94953
-0.330768 0.43877 2.99069
-1.46691 -1.05409 3.19644
0.372397 -1.07936 3.42257
1.26719 0.504906 2.8014
1.80485 -0.213632 2.74849
-0.568366 0.853002 1.88067
-1.42098 -0.965616 3.21573
-0.913704 0.512405 2.96231
-0.505674 -0.18029 3.0697
-0.413423 0.899507 2.65593
-1.27258 -1.25058 3.31785
-0.96134 0.0383446 3.09987
-0.836333 -0.42541 3.21039
-0.789813 -1.25765 3.46655
0.695751 0.307291 2.905
-0.400807 0.731203 1.99746
0.137218 1.11256 2.90866
1.82717 -0.362106 2.84799
2.51539 -0.942174 3.15643
0.699728 0.385859 2.90251
1.54376 0.943774 2.47698
-1.06224 -0.358512 3.23832
1.15396 0.343 2.8592
1.66514 -1.12756 3.11728
0.45583 -0.589535 3.16968
0.899049 0.923979 2.87642
2.19852 0.338031 2.61791
-0.181056 -1.46342 3.37539
-0.415542 0.221953 3.04466
0.435576 -0.546176 3.15895
0.23015 0.902309 2.97494
-0.0960856 0.461409 1.42334
1.33457 -1.50851 3.57809
0.58566 0.170202 2.87407
-0.515998 -1.46085 3.65783
0.308366 0.283374 2.92262
2.16646 0.259121 2.63255
1.5476 0.910079 2.59575
-0.513859 -0.49342 3.1364
-0.804516 -1.32339 3.43592
0.947392 0.256462 2.89053
0.351381 -0.461928 3.0874
0.429066 1.00094 2.9701
2.3153 0.540341 2.68708
1.04058 -1.31017 3.50609
-0.492041 0.395794 2.98422
1.3699 -0.370454 2.8469
-0.483812 0.751168 1.93168
-0.336477 -1.23776 3.49919
-0.929901 0.362805 2.94105
0.71484 1.06016 2.8445
0.17382 -0.353033 3.06474
-0.710766 0.726115 1.81526
-0.955603 0.0294125 3.09134
1.40529 -1.1128 3.18203
-0.557427 -0.311718 3.10454
-0.427693 0.440286 2.98162
0.0190212 0.98778 2.96341
0.821937 -0.532829 3.08052
-1.30299 0.281076 3.02212
-0.85835 -1.44419 3.52778
1.91273 0.421034 2.63618
-0.807623 -0.479583 3.08443
0.120133 0.976122 3.03529
2.67567 -2.00378 3.66098
-1.2536 -1.33489 3.37454
-1.20164 0.232711 2.97583
-0.726391 -0.474184 3.25267
1.74068 0.295117 2.74851
-1.22386 -1.29099 3.36285
-0.617105 0.695417 1.95001
1.97087 0.0617566 3.00518
-0.578082 -1.29314 3.43615
-1.03526 0.305048 3.00146
-0.27901 0.749125 2.11718
1.9656 0.497116 2.62684
0.96389 -0.416592 3.00673
1.24262 -1.657 3.56793
1.31606 0.127989 2.78962
-0.146645 -0.675137 3.2696
-0.690388 -1.55283 3.25848
0.597441 0.860665 2.93261
0.793992 0.100098 2.91371
-0.929195 -1.50556 3.40404
1.07163 -0.609329 3.03146
0.364782 0.837333 3.0021
2.04621 0.477264 2.6112
-0.634492 1.13515 2.85884
1.51289 0.798447 2.58102
-0.627096 0.18047 3.00229
-0.316993 1.41548 2.94107
-1.39685 -0.591242 3.20202
-2.30699 -2.44226 5.48962
0.605816 -0.0367816 2.93451
-0.348103 0.768819 3.18153
-1.03915 0.11226 3.04586
-1.34986 -0.809769 3.19532
-0.734398 0.00777087 3.04728
2.14383 1.00579 3.04584
-1.00256 0.681248 2.9059
0.518054 -0.793515 3.24142
0.367657 0.0735108 2.92747
0.23233 -0.756028 3.28156
0.707622 0.784294 2.92718
0.0454329 1.32001 2.85232
1.21871 0.0199589 2.78909
0.872993 0.745358 2.89588
0.833545 -0.694828 3.15344
-0.233683 1.00447 2.74478
-0.311483 0.743659 2.98994
0.0903797 -0.801814 3.2884
0.350243 0.0240291 2.95849
-0.279432 0.568599 1.83388
0.413942 0.728631 3.03397
-1.11805 -1.03136 3.33893
1.03607 -0.736363 3.09312
1.69635 -0.0170164 3.10316
-0.066679 -0.71275 3.27777
1.03124 0.0880379 2.84519
0.16614 0.832325 3.02119
1.37875 0.194669 2.01439
1.56858 0.696272 2.5995
-0.844097 -1.59814 3.44969
1.87425 -0.283645 2.71234
0.893854 0.0577659 2.89935
-1.00345 -0.679182 3.30933
1.49479 0.571963 2.65338
0.705204 -0.929993 3.28564
0.620514 -0.11716 2.98032
0.560355 -1.7728 3.74171
-0.940773 -0.886402 3.36133
1.41677 0.542893 2.68506
-0.61061 -0.0752409 3.07755
1.78214 -1.06016 2.99995
1.20424 1.24161 2.72863
0.100895 0.679146 2.99972
1.28968 -0.0492077 2.80372
-0.97316 -1.35311 3.41087
0.562363 -0.861734 3.3343
-0.0454932 -0.261221 3.05821
-0.56364 0.777648 1.84839
0.677645 -1.14006 3.42978
-0.819362 0.521573 3.05848
-0.677096 -0.236035 3.11382
0.314144 1.17567 2.92398
0.653373 0.456743 2.90888
1.25129 -1.03326 3.20441
-0.914603 0.624577 3.23344
-0.19119 -0.196414 3.05739
1.27913 1.20423 2.69268
-0.855185 -1.0302 3.42976
0.451561 -1.00459 3.42646
0.936388 0.519023 2.87878
1.46107 -0.151768 2.77153
0.000739425 1.23032 2.72951
-1.16069 -1.1756 3.26927
-1.00723 0.395383 2.91775
-1.3304 -0.39815 3.1872
0.0655092 1.11696 2.93064
0.42763 -1.26754 3.55055
-1.38763 0.370538 3.00213
-0.54373 0.734232 1.95064
0.293719 -0.364352 3.08056
0.916061 1.09036 2.75873
0.0716967 0.615939 1.32756
0.904383 0.426595 2.91833
-1.35598 -0.326762 3.16853
-0.0393919 -1.19285 3.48556
1.35087 -0.225521 2.80641
-0.483744 0.824693 1.89043
1.15217 -1.07294 3.32565
-0.329397 0.536001 3.04695
-0.0320911 -0.19779 3.06055
0.750504 1.17161 2.81187
1.14993 1.24295 2.72779
0.8186 -1.00751 3.25987
1.27177 0.472546 2.81708
0.645323 -0.157009 2.97959
1.75892 -0.898849 3.02171
-0.0440549 0.660722 3.21301
-0.44938 -0.110358 3.04442
0.49904 1.307 2.87614
-1.4067 -0.903221 3.23041
1.49527 0.510464 2.68051
-1.50475 -1.18762 3.29819
-0.80847 0.438791 3.01068
1.05518 -0.349442 2.9235
-0.472112 0.747648 1.89724
0.00430928 -1.1859 3.44919
1.62114 0.34704 2.66623
0.657684 1.1007 2.89506
0.191782 -0.322234 3.07231
0.402828 -1.18264 3.56903
1.04831 -0.266597 2.88317
-0.504117 0.465828 2.96386
0.139406 1.15486 2.88594
0.383755 1.02507 2.97591
0.254894 -0.505146 3.12499
1.34908 0.261354 2.78475
1.02327 -1.42649 3.47393
-1.1225 -0.614321 3.31592
0.0149559 0.610138 1.52841
1.30514 -0.447357 2.87642
1.02212 0.937269 2.77672
1.07485 -1.38358 3.48721
0.113682 0.249856 2.91672
-1.18319 -0.438917 3.20612
0.871825 0.341575 2.90843
0.538358 -1.37459 3.59301
0.0122966 1.07407 2.91864
2.10525 0.449615 2.62193
-0.996521 -1.26538 3.48144
0.716937 1.01651 2.84856
2.19051 -0.115532 3.17589
1.62557 -0.363929 2.75165
-1.37809 0.325444 2.95922
1.72243 0.163525 2.74575
-1.27042 -1.42184 3.16121
1.48302 0.793867 2.59405
0.071739 -0.637251 3.20738
-0.486912 -1.49098 3.47915
-1.17535 0.145745 2.95695
1.69969 -0.539686 2.7843
2.15963 0.19453 2.86864
0.157922 0.865283 2.98774
1.24597 -1.59045 3.75449
0.691499 -1.46304 3.58389
-0.0874833 0.954512 3.02785
-0.0345453 -0.554998 3.17169
1.73175 0.202174 2.74677
2.11552 0.333421 2.63768
1.48901 0.426234 2.68983
1.00298 -0.311902 2.9265
-0.638768 0.757717 1.86741
1.53621 -1.14958 3.25922
0.219994 -1.15095 3.51129
-0.20215 0.785191 1.96111
0.912897 -0.269288 2.97264
-1.03093 0.454822 3.04756
-0.270828 -1.05124 3.36402
-0.883192 0.563884 3.08191
1.38633 -0.224825 2.81984
-0.567785 0.835244 1.87882
-0.535616 0.501669 2.99379
-0.489941 -1.08907 3.56818
1.08456 1.13848 2.69452
1.76168 -0.201459 2.79422
-0.354374 -1.31959 3.50175
0.257304 1.06758 2.97334
1.43364 -0.400939 2.83397
0.070856 0.610833 1.40337
-0.208098 0.317594 2.98972
1.24243 1.05277 2.72355
0.0354674 -0.38288 3.10387
1.47766 0.38465 2.91167
0.244576 -1.30733 3.56059
1.41041 0.983441 2.61887
1.24827 -0.346917 2.84903
0.0536023 0.924702 1.88387
-0.986813 0.36266 2.96189
-0.866822 -1.1946 3.40977
-0.9402 -0.577934 3.15033
2.08657 0.423355 2.62828
-0.0963642 0.214329 2.96869
-1.00141 -1.42265 3.30924
1.27714 0.880214 2.73515
-0.312655 0.917172 3.04916
1.0125 -1.58471 3.746
2.44059 1.08278 2.91808
1.74217 0.157844 2.73014
0.339822 -0.543949 3.13714
-0.601513 -1.63086 3.42236
-0.156721 0.287108 2.9694
0.922773 -1.56314 3.82494
2.43923 1.10903 2.8632
1.03929 -0.478398 2.9255
-0.0722942 1.03188 3.003
2.33276 0.619756 2.75426
0.540395 -1.48003 3.75519
-0.319212 0.260799 2.98989
-0.215282 -0.469339 3.16814
-0.728359 0.676287 1.98476
-0.0091917 0.789067 2.97567
-0.681611 0.0715968 3.02693
-0.98882 -0.569167 3.306
-0.684336 -0.736291 3.39426
-0.112716 1.35311 2.90413
-0.822781 0.668905 2.25702
0.451994 -0.65954 3.15108
-0.555581 0.137985 2.9837
0.382855 -1.64057 3.57531
-0.911493 -0.658158 3.41228
1.33677 0.757249 2.68936
-0.508302 -1.55867 3.50559
0.47462 0.0970456 2.90606
1.22573 0.917177 2.73516
-1.34141 -0.561384 3.2301
2.18857 0.964096 3.04347
1.94993 -0.478883 2.78508
-1.75037 -1.50448 3.52941
1.48506 0.243994 2.84167
0.481523 -0.516546 3.14827
-0.413754 0.684936 2.10552
0.0875241 0.695948 1.45821
-2.22352 -1.91726 4.62604
-1.12509 0.233411 3.05333
-0.836245 0.320761 2.96648
-0.998941 -1.37561 3.46272
0.374794 1.06945 2.97006
2.32476 0.964036 2.93273
1.59118 -0.446739 2.86283
-0.755642 -1.31873 3.50478
-1.32937 0.309546 3.01652
-0.707714 0.69414 1.97161
-0.0325526 -0.439173 3.1691
2.11415 0.356199 2.62469
0.876392 -1.69812 3.68166
1.25 -0.641949 2.98616
0.774829 -1.68134 3.65223
-1.37872 0.118659 3.08407
-0.566742 0.821726 2.95681
2.22873 0.271658 2.6314
1.29287 1.03233 2.71062
1.31043 -0.583046 2.85064
-0.665245 0.643281 2.07408
1.18228 -1.7197 3.78445
-0.204775 0.182938 2.9881
0.496735 -0.601166 3.21466
1.07961 0.826352 2.80856
1.6864 0.123124 2.76015
-0.0800245 -1.56893 3.63691
-0.0564927 0.709491 2.96654
1.16366 -0.0430882 2.82286
0.0867054 1.28038 2.76926
-0.553374 0.00189976 3.04963
1.40593 -0.763102 2.92404
-0.915681 0.674446 2.93904
2.26917 0.940529 3.20361
0.883971 -0.781932 3.15542
1.44409 0.0531403 2.86647
-0.550068 -0.771365 3.30795
-0.315283 0.797407 3.02583
0.791466 -1.53902 3.73759
-0.935249 0.041765 3.06704
-1.10954 0.229129 3.0297
-1.00851 0.775297 2.99947
0.0408098 -0.715387 3.24961
-0.104159 -0.969049 3.38272
0.314537 -1.72296 3.62573
-0.188739 -0.152084 3.04112
0.0701305 1.2372 2.78096
0.967073 0.549683 2.88604
0.261892 1.32124 2.90897
1.82176 0.885538 2.54455
-1.16353 -0.109106 3.12657
-0.500413 0.648163 3.05759
1.50165 -0.820069 2.83522
-0.279476 -0.0766914 3.05175
1.65399 -0.805113 2.89491
1.21939 0.557055 2.79003
-1.25618 -0.910625 3.26698
-1.30577 -0.114594 3.10074
1.80447 0.51454 2.63711
0.205106 0.581875 2.93075
-0.650363 0.703271 2.20442
0.589205 -0.078267 2.94362
0.515387 1.28207 2.88111
-0.601369 0.682116 3.06401
0.262938 -0.901707 3.32709
-1.26544 -0.0421404 3.08051
1.03527 -0.85458 3.2774
0.609218 0.628324 2.98114
-1.28927 -0.287711 3.19929
-0.745702 0.752392 1.79274
-0.720501 -1.11883 3.42454
-0.283246 0.491546 2.982
-0.209718 -0.234794 3.0895
0.437549 1.16226 2.89259
-3.40985 1.10839 7.05097
0.592173 -1.09149 3.3949
-0.774323 -1.05643 3.48412
1.00301 0.543526 2.89482
0.664505 -0.200595 2.96173
-0.32226 0.800773 2.09879
0.0629796 0.528093 2.96548
1.1463 -0.985158 3.2919
-0.30506 0.898205 1.93697
-0.755805 -0.152349 3.08376
0.859325 -1.36814 3.68629
-0.985182 -0.392723 3.15349
-0.0711909 0.351217 2.97441
-0.762932 0.706307 1.89747
1.76306 -0.350685 2.72875
1.61288 1.00729 2.53237
2.50311 0.700273 2.7952
1.55482 0.366956 2.51135
-1.06231 -1.09054 3.10158
-0.671716 0.733013 1.92055
0.408097 -0.324939 3.08144
-0.257054 0.374679 2.93706
0.488663 -1.28352 3.70567
0.143987 -0.557579 3.16099
2.34926 -0.156564 3.01613
-0.235908 0.248454 2.98893
-0.736645 -1.45796 3.52486
1.68196 0.857051 2.54231
1.38473 0.846997 2.63528
-0.92822 -1.39539 3.48539
0.286927 1.38572 2.9051
-0.0507616 0.214408 2.94868
0.878839 -0.509911 3.04044
-0.685478 -1.35064 3.46463
-0.794763 0.32562 3.00606
1.13195 -0.44259 2.8813
0.688982 1.02074 2.86419
2.28505 0.631691 2.75905
-0.137328 -1.35551 3.58286
0.0887069 0.274294 2.90541
2.38332 0.898159 2.93454
-0.743075 -0.429318 3.15942
0.627634 0.998394 2.88823
-1.3923 -1.14101 3.16723
0.0601381 0.417512 2.92692
1.15803 -0.35738 2.87472
-0.784899 0.730852 1.8483
0.586412 -1.23211 3.53249
0.269907 0.367343 2.89629
-0.827717 0.716452 1.85854
1.08243 -0.318423 2.87552
0.2015 1.17909 2.94491
1.35983 0.432844 2.78972
-0.470638 -0.289319 3.09285
-0.652718 -1.11454 3.39485
0.390621 -1.43034 3.56839
1.33439 -0.478892 2.83734
-0.491105 0.701573 2.02319
1.22843 0.272598 2.84625
0.518445 -1.50105 3.68874
-1.38019 -0.494313 3.24437
0.635754 0.972475 2.91383
0.0565369 0.934094 1.96596
-0.952135 -1.38858 3.56705
0.662018 0.236012 2.91626
-0.607316 0.345914 2.96527
1.39714 -1.31894 3.36432
0.051647 1.0708 2.92044
2.34963 0.236009 2.73671
-0.646955 -0.444692 3.17779
0.630711 0.295245 2.90727
0.429638 -1.29534 3.50271
-0.79603 0.684459 1.88429
0.565079 -0.39604 3.04888
1.0922 -1.67337 3.63218
-0.0694101 -1.58 3.53295
-0.524394 0.170131 2.98441
-1.44068 -0.614741 3.04716
0.784223 0.869516 2.86024
0.864269 0.122705 2.89504
-0.80886 -1.44977 3.35503
0.374582 -1.74562 3.63813
-0.551792 -0.572113 3.11429
0.35743 0.862712 2.97742
2.01669 -0.794997 3.26277
0.65881 -1.61636 3.62719
-0.45206 0.678813 2.10565
1.3192 0.194903 2.78586
1.83086 0.321438 2.80226
1.26682 -0.533776 2.92113
0.78132 -1.71833 4.0414
1.33786 0.686814 2.71753
2.23773 -0.195069 3.57863
-0.276753 0.0261451 3.02126
0.406626 -0.815506 3.31994
-0.243828 0.734124 3.09596
-0.0799629 1.09811 2.95919
0.710976 -0.0153325 2.93246
-0.794577 -0.797552 3.45095
0.912857 0.0933448 2.88767
1.67685 -0.768059 2.55868
1.03732 -0.681376 3.03832
-0.103872 0.837369 3.05865
-0.253757 0.0598627 3.04078
-0.807357 -1.60305 3.44705
1.86716 -0.503441 2.73819
1.6538 0.703651 2.64736
-0.918519 -0.690562 3.31601
-0.196368 0.768722 2.10857
-0.562194 0.320244 3.02344
-0.935795 0.0182341 3.08657
0.4657 -0.429887 3.0569
-1.05064 -1.25213 3.29652
0.974492 -0.384557 2.98511
-0.346634 0.766223 1.98102
1.33798 -1.22884 3.26596
0.592677 0.376086 2.93902
0.7042 -0.362191 3.02623
1.44693 0.979109 2.62845
1.48928 -1.22749 3.35709
0.513308 0.333588 2.86452
2.51633 0.30589 2.64602
0.78843 -1.71313 3.91551
1.18166 0.201568 2.80066
2.27088 0.140906 2.96198
0.161195 -0.595268 3.18549
-0.362012 0.918267 2.7804
-0.177478 -1.50669 3.62968
0.960422 0.157886 2.85159
2.37075 -0.0912602 2.97614
1.58637 -0.496354 2.75912
1.07914 0.855953 2.81726
1.41567 -1.4119 3.38965
1.41551 0.268332 2.77147
2.18664 0.2871 2.6323
0.654645 -0.512611 3.1194
-0.33161 0.726409 2.06491
-1.45773 -1.23005 3.06677
-1.37964 0.282463 3.08954
-0.0141412 1.32403 2.89494
-0.753497 -0.473044 3.19819
0.383907 0.986098 2.96933
0.138031 0.799048 3.04101
-2.48476 -1.26761 5.22427
-0.100307 1.32773 2.89586
0.446764 0.0571216 2.92458
-0.515148 0.768684 3.03587
-0.303064 -0.715398 3.24552
-0.677152 -0.984667 3.57578
-0.166142 0.0276694 3.00526
1.0591 -0.654809 3.03556
-0.499786 0.799854 2.76914
-0.0872168 -1.69275 3.63665
1.73662 0.120883 2.73236
1.85347 -0.322381 2.70921
1.56176 -0.586619 2.84992
-0.502162 0.82134 3.00628
-0.45605 0.0992325 3.01921
0.695348 -1.74145 3.88721
0.715219 -1.58137 3.76506
0.40249 -0.879712 3.27052
-0.998346 0.78664 2.84642
-0.829224 0.704887 3.05935
-0.850347 -0.0657487 3.08837
0.0383736 -0.840668 3.29206
0.56115 0.629119 2.94994
-0.568759 -0.0393704 3.07887
1.26112 -1.78566 3.71913
-2.15819 -1.1022 4.39083
-0.283758 0.883733 2.43393
-0.30451 0.952959 2.74774
0.133119 -0.00863459 2.95226
-1.13198 0.724386 2.94486
-3.14285 -3.24878 6.92852
1.08938 0.773981 2.78999
1.46086 -0.629292 2.91443
-1.18674 0.118998 3.13699
-0.101769 -1.69848 3.5255
0.611051 -1.47152 3.59023
2.1941 0.316274 2.62317
1.24032 0.820508 2.71324
-0.190775 -0.643512 3.27272
-0.0703448 0.173743 2.96751
-0.879473 -1.52634 3.42641
1.20389 -0.582224 3.01204
1.42628 0.758319 2.59853
0.188816 -1.52526 3.53079
-0.227244 0.132387 3.00409
-0.216828 1.15673 2.95841
0.29395 -0.0414483 2.95548
-0.228631 -0.0119148 3.05413
0.0160982 1.17681 2.8785
1.43794 -0.768243 2.90272
0.140815 0.724073 3.02964
2.3126 -1.52593 4.2176
1.15341 -0.772572 3.10449
-1.16223 0.670174 2.89067
0.319271 -0.782423 3.31555
1.78332 0.0594246 2.76887
-1.00428 0.79265 2.91933
1.52868 -1.49049 3.44327
1.64143 -0.827721 2.7296
1.61119 0.0261582 2.67378
-1.33561 -0.718932 3.27628
1.71726 0.700536 2.71444
0.242944 1.26193 2.92726
-1.19936 0.534979 2.76319
1.27267 1.14238 2.67673
-1.01839 -0.158023 3.15434
0.288395 -0.997915 3.40609
1.86285 0.998359 2.54569
-0.0683025 -0.116166 3.03445
0.191152 -0.928337 3.31334
-0.711208 0.636835 2.99344
-1.20111 -0.0739962 3.10071
-1.07136 0.590061 2.90579
1.31416 -0.840772 3.03725
-0.917876 0.466833 2.96074
-0.738232 -1.16403 3.41774
1.6031 -0.297401 2.73645
0.830109 1.12436 2.78526
1.48895 0.388129 2.71237
-1.04235 -1.07057 3.32585
-0.29964 -0.278706 3.07497
-0.0924804 0.832476 2.11994
-0.0172584 -1.0727 3.40362
-1.09348 0.532945 2.93606
-0.509486 -0.241892 3.08754
-0.458283 0.873202 1.89729
0.184666 -1.10372 3.6264
-1.71161 0.622165 3.63977
-1.04449 -0.197159 3.11275
-0.136412 0.84262 2.00492
0.39276 0.474726 2.92768
1.26112 -0.277277 2.8528
-0.156334 0.839289 1.99258
-1.11054 -1.09282 3.32988
-1.31312 -1.03599 3.25759
0.75059 1.12625 2.80499
1.56049 -0.243508 2.84078
-1.10344 0.460743 2.92463
0.801282 -1.06581 3.42132
-0.954982 0.557577 2.95485
-1.35381 -0.207174 3.08635
-0.607946 0.841751 1.87088
1.37948 0.496083 2.79176
1.18056 -0.960646 3.21853
-0.881946 -0.164631 3.11848
0.944109 1.02333 2.7874
0.132179 1.33031 2.88447
1.05589 0.337659 2.8759
-1.06383 -0.405686 3.16621
0.620912 -1.29948 3.49069
-1.35572 -0.38201 3.17953
0.308273 1.17191 2.98038
-1.37073 -1.16416 3.25189
1.79443 0.403498 2.77967
-0.267649 0.775308 2.01052
0.502331 -0.328343 3.03407
2.64931 0.641449 2.72403
0.390086 -1.23356 3.53823
1.49929 0.343315 2.72913
-0.00771569 -1.51845 3.64619
-0.784014 0.255421 3.03799
2.15438 -1.09892 3.52193
1.51471 -0.499145 2.72196
-0.694507 0.66973 2.04262
0.7904 -1.71231 4.13595
-0.75552 0.216947 2.96152
1.31535 -1.72074 3.72425
0.759035 -0.517413 3.06862
-0.769362 0.64648 2.0337
-0.328051 0.310623 2.97912
1.40923 -1.67936 3.55657
1.40893 -1.51809 3.74094
2.0697 0.26899 2.75615
0.915421 -0.466764 3.02129
-0.00302305 1.03878 2.93533
0.435629 -1.40131 3.63769
0.837305 0.271595 2.87744
1.8782 0.675516 2.64674
-1.03086 -0.438148 3.17508
1.66811 0.87663 2.55794
1.64751 0.740558 2.66303
1.01343 -1.58673 3.62573
0.0421013 0.0984405 2.99664
-1.4031 -0.674426 3.15296
0.497404 0.630812 2.94176
0.577148 0.884076 2.93787
0.135144 -0.644109 3.21895
0.633772 0.157438 2.87962
-1.04761 -1.5518 3.44299
1.25967 -2.00785 4.11956
0.982511 -0.586807 3.03808
0.733871 0.832943 2.89113
0.470914 -1.636 3.77042
-0.736248 0.1378 3.01179
-0.278682 0.971916 2.38086
0.287502 -0.525409 3.11955
-0.0767301 0.481252 1.47176
0.167186 0.26924 2.91591
-0.186052 -1.4502 3.58013
0.884816 0.970894 2.8449
-1.34522 -0.497317 3.22934
-0.193196 0.975961 2.9818
2.66214 0.871705 2.8345
0.0991993 -1.38833 3.49929
-1.38794 0.255317 3.01369
-0.516495 0.346864 3.02048
-0.328476 -1.34882 3.5488
-1.43299 -0.458204 3.19718
-0.342576 0.746526 2.00972
2.09631 0.49071 2.59669
-0.457155 -1.31141 3.56059
0.330312 0.294378 2.90447
2.01367 -0.453863 2.77795
-0.515695 -0.416244 3.27119
1.30091 0.974386 2.72614
-0.280476 -1.63233 3.63736
1.44061 -0.587779 2.83735
-0.889525 -0.319311 3.16482
0.946766 0.124765 2.87793
-0.367847 0.88003 3.06122
2.01357 0.301208 2.76495
-0.692726 0.958431 2.94597
0.627367 -0.601228 3.15361
0.97175 0.901239 2.84531
0.0331465 -1.53156 3.54493
1.65426 0.187832 2.68387
-0.96476 -0.564779 3.15285
-0.798739 0.638245 2.10681
-0.290676 -1.48155 3.55485
-0.308484 0.16375 2.98063
1.18829 0.00910737 2.7718
1.52696 -1.00926 3.28453
1.25328 -0.761248 2.99947
-0.227518 0.764013 3.06079
-1.19387 -0.768047 3.28022
-0.0230711 0.723581 3.05075
-0.276481 1.04846 2.86695
0.159853 -0.0184297 2.9511
-0.758503 0.104567 3.0503
-0.723058 0.822406 2.95751
0.996526 -1.73168 3.68775
-0.464224 -0.735575 3.29342
1.62329 0.601115 2.54735
-1.19012 0.0685395 2.97234
0.494612 -0.690726 3.21491
0.404589 0.79105 2.9913
1.29523 -0.884184 3.05055
0.997749 0.572465 2.91717
-0.546798 -1.61757 3.44876
-0.462809 0.717303 1.93727
1.42542 -0.131003 2.74077
1.92353 0.438379 2.63768
1.17965 -0.0862015 2.75408
0.850708 0.65016 2.89799
0.971021 -0.915956 3.31838
-0.037016 -0.0556535 3.01999
-0.669666 0.620994 2.99429
0.431431 1.29479 2.8779
1.74223 -0.735056 2.76298
0.255206 0.20522 2.95426
1.04421 -1.56153 3.57524
1.77058 -0.440828 2.7377
0.619917 0.927754 2.93685
-1.39357 -0.632391 3.33365
-1.20995 -1.41337 3.36826
-0.408308 -1.59065 3.42856
1.41177 0.15483 2.82288
-0.144816 -0.555825 3.15378
-0.4542 0.876377 2.90144
-1.08899 -1.32682 3.30135
-0.845584 -0.503112 3.19896
0.896759 -1.78335 3.64982
-0.897476 -0.505035 3.16021
-0.00480668 0.238514 2.94437
2.36247 0.105221 2.94867
-0.309023 0.744246 2.19631
1.23173 0.733906 2.75289
1.4036 -0.723441 2.9727
0.801209 0.0531673 2.87741
-0.155525 0.939332 3.02923
-0.723693 -0.730529 3.31465
1.15507 0.718442 2.81838
0.647571 -1.46049 3.56133
-0.823031 0.0293981 3.09255
-1.22277 -0.714807 3.39058
1.75786 0.109655 2.72457
-1.2191 0.831896 2.82223
-0.267334 0.828838 3.02892
1.82927 -0.533561 2.79117
-1.18534 -1.561 3.4518
-0.296471 0.101831 2.96578
0.998162 -0.616651 3.02066
1.12856 -2.10723 4.84
-0.538701 -0.945772 3.55241
-0.0222487 -0.0730281 3.01142
-0.495374 0.688703 3.09732
-0.333304 0.643689 3.09388
1.19496 -0.822057 3.11276
-1.17994 0.0101946 3.09088
1.06842 -0.0487013 2.85673
1.74759 0.986223 2.53273
-1.60794 -0.83297 3.34436
1.29419 0.660083 2.75646
-1.04972 -0.00816858 3.05202
1.86982 0.518734 2.62845
-0.377806 -0.242419 3.06419
-0.0155579 1.22639 2.64658
-1.34772 -1.00967 3.16885
0.692285 0.51889 2.93747
0.978113 1.14832 2.76057
0.0164141 -0.206398 3.04959
1.02628 1.21308 2.74316
0.146377 0.478982 2.9155
-1.286 -1.05581 3.40002
-0.592925 0.620282 3.12571
1.11005 -0.157652 2.81123
0.974809 -0.971071 3.25574
-0.139874 -0.941747 3.41249
0.309457 1.25729 2.90923
0.901671 -0.125996 2.91621
0.0242986 0.574438 3.03678
1.87411 -0.553689 2.74912
-0.390302 -0.856667 3.37421
0.453137 -0.023647 2.963
-1.04965 -0.0402972 3.11146
-0.749517 0.719222 3.00594
-0.152211 -0.809839 3.32659
1.09359 0.650208 2.88016
-0.76739 0.0727109 3.07877
1.89559 0.142146 2.74216
-1.13768 -0.787706 3.34771
-0.77722 0.799162 3.00818
-0.330416 0.0215691 2.97778
-1.01899 0.783415 2.83075
0.945904 0.726177 2.86341
1.11141 -0.691771 3.00663
-0.592279 -0.205007 3.12071
-0.654658 0.793302 1.86477
-1.82991 -1.1823 3.78325
0.196673 0.54364 2.90872
0.903279 1.19417 2.77185
1.53241 -0.161053 2.79935
-0.595437 0.827256 1.87271
-0.991027 -0.974201 3.35144
0.886436 0.241923 1.36439
-1.0417 0.789633 2.85292
-0.410597 -0.121075 3.02516
-0.580859 0.630271 3.05478
0.269303 -0.962428 3.39792
-2.66445 -0.26506 5.76574
1.39085 -0.79461 2.86095
-1.21517 0.590349 2.90006
0.137426 0.442359 2.92566
1.4913 -1.15868 3.24201
-0.837582 -0.341472 3.1977
-0.661927 0.745041 1.84559
1.40862 -1.15712 3.38213
-0.095102 0.418663 2.96739
0.809538 1.10116 2.81368
-1.07366 -0.285375 3.14982
-0.548329 -1.13642 3.60739
1.40168 -0.230479 2.73945
1.69393 0.471504 2.85783
0.354532 1.20365 2.9097
0.985577 0.989807 2.76177
-0.998786 -0.462707 3.09405
-0.140129 0.308175 2.9801
-0.538357 -1.35948 3.47391
0.835544 0.969081 2.82563
2.38284 0.462514 2.59222
-0.458791 -0.450114 3.26269
1.11911 -1.33144 3.39309
-0.898196 0.290462 3.00438
0.362362 -0.405225 3.11253
0.677665 1.08819 2.88497
-1.145 -1.22162 3.3547
2.33996 0.000364999 2.8755
0.46706 0.362997 2.87445
-0.650034 0.719997 1.92824
0.365863 -0.374909 3.12675
0.113378 -1.27689 3.56524
1.73034 -0.145487 2.81908
1.55814 0.300905 2.66795
0.165866 1.07026 2.95312
0.970578 -0.442869 2.99716
-1.14966 0.352317 2.99076
0.700197 -1.40137 3.60768
-0.479905 0.715394 1.98404
1.49902 -0.382517 2.77405
0.50697 -1.3598 3.62806
-0.41431 0.305726 2.96091
0.648473 -0.364401 2.95811
-0.361401 0.764057 1.94932
-0.0447284 0.538021 1.37143
0.0978248 -1.28959 3.57996
-1.2358 0.430225 2.99415
1.57473 0.983655 2.55912
-0.265544 -0.333881 3.13032
1.36447 -1.19173 3.33313
2.63194 0.690525 2.76086
0.18597 0.360866 2.91937
1.06949 0.225815 2.87622
-1.04141 -1.38258 3.27542
-0.0149509 0.560813 1.28744
-0.377589 0.708805 2.11913
1.50808 -0.536895 2.86776
0.617883 -1.53356 3.7101
0.638632 0.194665 2.88908
-0.580516 -0.533897 3.23117
-0.588185 0.654605 2.05026
1.23758 -1.48193 3.66239
2.05784 0.352263 2.63761
1.57159 -0.448225 2.74804
0.999408 0.262437 2.89122
2.23563 0.470157 2.60132
-0.250898 0.906655 2.58451
1.28812 -0.675035 2.89484
1.39093 0.74417 2.69864
0.552462 -1.46334 3.59613
1.71207 0.0889262 2.76223
-1.1771 0.737237 2.73776
1.35541 -0.655019 2.97403
-0.666929 0.79171 2.97624
1.65203 0.0431498 2.80151
0.735884 -0.643571 3.12417
1.05775 0.151235 2.82193
1.43724 -1.66761 3.62669
-0.829811 0.632459 2.08632
0.674817 0.847714 2.95272
1.34403 -0.570826 2.88423
2.40057 -0.956405 3.83555
-0.58243 0.125391 3.01554
1.20499 -1.68641 3.83421
-0.277238 1.08585 2.45641
0.868447 -0.850033 3.22538
-1.16591 -0.0155882 3.0874
0.512096 -1.46298 3.5839
-0.0735721 -0.0566519 3.01942
1.34273 0.642597 2.70006
-0.197635 -0.799736 3.3015
1.46535 0.608404 2.72311
0.74098 -1.88569 3.97005
0.993915 -0.785383 3.23289
1.9038 0.375675 2.67774
1.59427 -1.47644 3.39886
1.63249 0.0104583 2.74818
0.0532643 0.754974 3.04153
-0.760495 0.626127 2.15697
-0.21021 -1.68183 3.60839
-1.3247 0.139514 3.08831
-0.486514 1.38187 2.96069
1.64489 -0.604052 2.83916
2.23042 0.231192 2.74848
0.199969 -1.67355 3.7104
-0.478482 0.679734 2.12436
-0.2196 -0.619073 3.20549
-1.05933 0.217397 3.02874
1.1434 -1.49493 3.36526
0.926583 -0.559422 3.00909
-1.1393 0.745894 2.45969
-1.16404 -1.40434 3.32469
-0.713829 0.171221 2.97117
1.86463 0.995941 2.54951
1.08285 -0.784156 3.1029
-0.864382 -1.26664 4.49831
0.908327 0.0144589 2.88923
1.48863 -0.0323806 2.78534
1.26351 0.69518 2.76434
-0.586441 -0.757489 3.22397
-0.251984 1.08073 2.45388
1.14343 0.676907 2.83214
0.0171494 0.0894896 2.96924
1.56844 -1.37761 3.19725
0.793369 -0.725401 3.16872
1.11514 0.765018 2.79494
0.956793 0.0500259 2.88299
-0.525982 0.78032 2.26796
0.497358 0.764795 2.91592
1.66027 -0.630651 2.81591
-0.377647 0.594445 3.05755
1.82676 1.03905 2.55017
1.35607 -0.126982 2.69466
-0.0471997 1.07 2.40805
1.36864 -0.900645 3.08182
1.89193 0.0802659 2.70301
-0.315327 0.671484 3.07126
-0.529615 -0.0909792 3.08301
1.40096 -0.842786 3.00314
1.7372 -0.0567762 2.77601
-0.084254 -0.871271 3.34422
1.46229 0.562501 2.66553
1.02134 -1.12356 3.30669
0.566518 0.472348 2.91977
0.501835 1.25134 2.88058
0.733305 -0.283774 3.02714
1.00188 1.13486 2.74087
1.46765 0.42062 2.78369
-1.14221 -1.03321 3.30316
-0.711914 -0.243503 3.06895
0.718462 1.14516 2.8562
-0.581303 -1.11106 3.62294
1.31726 0.514794 2.77542
-0.781837 -0.204612 3.07189
-0.156561 -0.990518 3.37644
-0.769785 0.526621 3.04543
-1.43871 -0.171181 3.088
-0.443713 0.899866 1.87767
-0.113085 0.781203 2.99067
-0.360981 0.843172 1.92765
1.29977 -0.722161 2.96664
1.09113 0.0485894 2.80424
-0.575653 0.757718 3.05287
-1.35773 -0.725996 3.21653
0.520169 -1.46572 3.58639
-0.0407333 0.0189699 2.96597
-1.41057 0.136623 3.05333
1.94812 0.712646 2.569
-0.726532 -0.684105 3.28861
-0.66917 0.857397 2.89341
-1.1116 0.112698 3.12218
-0.443625 -1.60905 3.56746
0.270646 -0.0857754 0.144047
0.638704 -0.649262 3.18673
1.50111 0.725841 2.61657
1.10502 -0.850048 3.08216
-0.175909 0.661157 2.95985
1.87411 0.108706 2.7077
0.962743 -0.0804386 2.89334
-1.28941 -0.824192 3.18784
0.780596 0.606218 2.92572
-1.47618 -1.58449 3.36436
1.47491 -0.0572176 2.82949
1.5268 0.377351 2.27681
1.79454 0.957757 2.52724
-0.861552 0.713455 2.97693
-1.00502 -0.00448218 3.07337
1.17756 -0.770573 3.06528
-1.09396 -0.249879 3.14157
-0.548552 0.819918 1.88862
0.784789 -1.08507 3.35161
1.68506 0.456491 2.58417
0.970449 -0.205335 2.91473
-0.716879 0.781934 1.86342
-0.125541 0.684598 1.64051
-0.555778 -1.06051 3.43789
-0.382353 0.487859 2.98018
-0.488524 -0.995533 3.36422
0.0934222 0.591761 2.99938
-1.46778 -0.167418 3.0931
-0.983951 -0.917942 3.30818
0.510602 0.529406 2.88278
-0.66661 -0.130592 3.06011
-0.653145 0.857668 1.86069
1.37642 -1.22243 3.3194
0.327856 -0.372177 3.08947
1.28281 0.358663 2.82662
-0.540035 0.74827 1.9445
0.0494691 -0.326677 3.06505
-0.315016 0.790245 1.968
-0.547837 0.456067 2.98865
-1.52238 -1.14864 3.26503
1.00365 1.1125 2.83444
0.122021 -0.285501 3.05845
1.82235 0.391467 2.76609
0.533815 -1.18461 3.53416
-0.246806 -0.211118 3.08802
-0.262611 0.869326 1.95665
0.440892 -1.06437 3.44012
0.375783 1.3353 2.89405
-0.858306 0.594701 3.16789
-0.283234 0.921988 1.9355
1.75874 0.728817 2.58332
-0.426634 -0.168815 3.09149
0.276354 0.506527 2.92974
0.203198 -1.04877 3.55031
-0.193276 0.63996 3.09121
-0.544722 -0.13736 3.08975
-1.3227 -0.922027 3.26124
-0.481014 -0.956755 3.53423
-0.0702706 -0.0888942 3.01648
-0.120583 0.592397 3.00069
0.720338 -1.22493 3.48288
1.73151 0.420771 2.696
0.960214 -0.321552 2.89669
1.48352 1.02877 2.52998
0.482294 0.400334 2.89576
1.36061 -1.14415 3.33702
1.12462 -0.278959 2.83656
0.10243 1.11952 2.90541
1.1894 1.12038 2.68974
1.54235 0.423398 2.69374
0.980812 -0.246871 2.92213
0.199666 -1.11354 3.46601
0.879619 -0.48416 3.05574
-0.0524215 1.05709 2.99179
1.54343 0.277126 2.70338
-1.07499 -1.30943 3.3488
2.50977 0.0280706 2.92601
-0.948384 -0.453778 3.27657
-0.0430798 1.01548 2.96462
-1.44797 -1.19888 3.08482
1.72103 0.252223 2.6809
-1.12941 -0.421153 3.25361
0.0792127 0.362268 2.91463
1.52152 -1.31073 3.42411
0.280255 1.12187 2.97997
-0.00549808 0.530909 1.21694
1.62008 -1.18612 3.209
-1.48035 -0.385226 3.21888
-0.758138 0.70642 1.89606
0.0289735 0.582558 1.46442
0.181705 0.332483 2.91993
0.568159 -1.57173 3.61747
-1.2695 0.222942 3.02592
-1.4303 -0.605547 3.1667
1.57506 0.815831 2.58288
0.506051 -1.57745 3.75221
-1.1059 0.171329 2.92567
2.44478 0.654571 2.78588
1.5019 -0.565075 3.04704
1.40386 0.804867 2.68538
-0.49019 1.44518 2.95956
0.981082 0.934239 2.84139
0.594259 0.228747 2.89226
0.0527098 -0.528209 3.17716
2.15996 -0.710347 3.2237
-1.35806 -1.32646 3.25689
0.627633 0.225087 2.91293
-1.18207 -1.36405 3.22739
0.190014 0.964858 2.99423
0.67372 -0.574723 3.1183
-0.413194 -1.46965 3.59166
-0.817738 0.206167 2.97199
-1.27442 -0.541749 3.25634
-0.260772 0.939671 3.03789
0.022995 0.710353 1.80127
0.117825 0.99862 2.96294
2.49773 0.818581 2.88013
-1.03163 -1.62978 3.45937
0.43518 0.260943 2.88228
-1.06118 -0.485758 3.09076
2.27302 0.0245143 2.96513
0.31574 -1.46913 3.65719
-1.12888 0.77059 2.76615
-1.08073 -0.765955 3.33729
-0.225362 0.0868386 3.03131
0.056574 1.31679 2.88024
-0.0414784 -0.697251 3.25418
-0.412033 1.31602 2.95314
-0.0359781 0.771279 2.98744
-0.716467 0.0614555 3.04139
0.372665 -0.645942 3.15644
-0.108396 0.16409 3.01224
-0.33942 -1.59384 3.52051
-0.173729 0.883691 3.02983
0.0833113 0.690161 3.34581
-0.743605 0.861899 2.93904
-1.03317 -1.46144 3.30643
1.40778 0.102699 2.85091
1.4388 -0.578455 2.93415
-0.298409 0.858929 1.9311
-0.838886 -0.995208 3.80012
-0.958014 0.699852 2.944
-0.146412 -0.056331 3.01972
1.51094 -0.681115 2.66972
-0.97405 0.728643 3.25019
0.307356 -0.021426 2.96557
-0.212204 1.01318 2.76517
1.8191 0.351743 2.65525
0.702226 0.731922 2.94308
-1.20406 0.0249272 3.09143
1.51559 0.406715 2.27159
1.45244 -0.718333 2.92973
0.430019 -0.210377 2.99128
-0.129502 0.942663 2.14989
0.348637 1.26884 2.91025
-0.450494 -1.08263 3.51439
-0.987684 0.55402 2.96334
1.32632 -0.168969 2.79227
-0.633037 0.807645 1.86557
1.69799 1.11181 2.56109
-1.10889 -0.967978 3.26557
-0.346126 0.511183 2.99514
-0.592558 -0.983396 3.43431
-1.12846 0.606026 2.8669
-1.03534 -0.132677 3.16647
1.7134 -0.794403 2.8063
1.56557 0.523454 2.67919
-0.734675 -0.0847386 3.03893
0.68127 -0.801384 3.18554
1.04574 0.0109786 2.87472
2.54616 0.0136191 3.78307
0.928091 -0.0255739 2.88112
-0.31283 0.75866 3.09105
0.221244 -0.779858 3.28641
1.03006 0.68184 2.8726
1.85746 -1.40646 3.26873
-1.38592 -0.723442 3.14278
-0.869566 0.766737 2.65009
-0.350193 0.0433788 2.97802
1.34509 0.704197 2.70808
-1.38726 -0.173111 3.08305
1.35842 -0.935257 3.05912
-0.388197 0.578686 2.99644
1.89841 0.589541 2.61068
1.54752 -0.136131 2.74432
-0.547124 0.855084 1.88399
1.88622 0.367629 2.63982
-1.43748 -0.910697 3.17817
0.606641 0.537188 2.91999
0.866311 -0.098817 2.95291
1.39105 0.594346 2.6966
-0.102692 -0.908365 3.34531
0.778839 1.26386 2.82601
0.639551 -0.0637093 2.93747
-1.40452 -0.824811 3.13209
1.73537 0.562729 2.70422
1.15348 -1.15856 3.37821
1.74932 0.449847 2.74466
0.0764364 -0.292613 3.06166
-0.451032 0.775919 1.86275
-0.698296 0.458193 3.07434
0.0994006 -1.14975 3.56012
0.000273956 0.844452 2.09144
0.470062 -0.25956 2.97651
1.58972 -0.999812 3.12873
1.6644 -0.206327 2.72187
0.616471 0.502225 2.9187
-0.691954 0.71162 1.91368
1.33113 -0.411889 2.74573
0.966033 1.01139 2.77792
1.29685 -1.36103 3.44296
1.40151 0.312683 2.78492
-0.0528971 0.932548 2.16296
-0.252585 -0.416881 3.16937
0.524369 1.02236 2.91414
0.332951 -1.31268 3.50003
0.247693 0.292964 2.91964
1.5508 0.363177 2.63363
1.27208 -0.364117 2.8592
0.698116 -1.28101 3.5045
1.1916 1.05983 2.71207
-0.0243912 0.504992 1.3187
-0.613632 -1.19125 3.45441
1.81519 -0.338828 2.81461
1.34493 1.01305 2.67091
2.27193 0.30018 2.51199
1.2273 0.35529 2.84584
0.775872 -0.894168 3.21868
1.55658 -0.0965475 2.83897
1.93199 0.000323432 2.73698
0.0863293 0.647199 3.12614
1.03853 -1.74685 3.69146
1.2546 -0.0629709 2.77875
1.65201 1.14291 2.56437
0.371192 0.711732 3.02391
-0.47672 -0.877641 3.36274
0.7811 -0.0260457 2.91098
-1.2318 0.657128 2.88305
0.230781 -0.827777 3.31354
1.32008 0.493445 2.84209
1.24237 -0.243483 2.77647
-0.262005 0.878341 1.97248
-1.22837 -1.05677 3.3061
-1.27342 -1.01478 3.30419
-0.383125 0.779096 2.02934
0.835101 1.1575 2.79495
1.5491 -0.216467 2.86959
-0.459935 0.488979 3.00886
-0.662116 -1.00843 3.42819
-0.898634 0.596521 2.99914
0.065266 -0.16987 3.02724
0.275154 0.539653 2.93192
-0.293036 -0.943489 3.35565
-0.607955 0.872411 1.88271
0.507129 -0.135277 2.94768
0.898791 1.05425 2.77847
-0.63531 0.37209 3.01024
-1.00594 -0.371999 3.14344
-1.15787 -1.21301 3.34447
1.60881 -0.32045 2.83884
-0.474812 0.756778 1.87749
1.1266 -1.21111 3.41974
0.598437 0.440851 2.90986
-0.76635 0.7273 1.85147
-0.500102 -0.293046 3.09915
0.801022 0.404995 2.91681
1.00465 -1.19526 3.50602
-0.886125 0.162759 3.05042
1.46797 -0.48332 2.80374
-0.0470314 0.623768 1.34467
-0.576072 0.277257 2.99133
-0.443523 -1.43816 3.52562
1.08088 0.944402 2.76033
1.36032 0.884013 2.68715
0.952937 -1.52655 3.78109
-0.313231 0.238189 3.00692
-0.0315225 0.573543 1.30044
1.25571 -0.476148 2.93706
-1.41191 -1.22748 3.1667
-1.09426 0.348625 2.94983
0.397939 -0.445962 3.08824
-0.695664 0.720306 1.93799
2.31275 0.0378552 2.95317
-0.171784 -1.32892 3.58607
0.998791 0.287207 2.91433
-0.00829934 0.543384 1.289
1.05491 -0.393957 2.91791
0.176524 1.02442 2.9182
0.736648 -1.16251 3.27837
0.987366 0.440454 2.89641
0.0273363 -0.336001 3.08205
-0.517961 0.416185 3.00061
0.368521 -1.19426 3.54612
1.01325 1.07958 2.76982
-0.994195 -0.292343 3.13421
0.21595 1.20186 2.8943
-0.842414 0.499781 3.0222
-1.3126 -0.258394 3.14438
1.55116 1.02826 2.54164
-0.956675 -1.02368 3.1619
2.59366 0.936353 2.86923
-0.241918 -0.49263 3.18589
1.35242 0.95113 2.68228
0.594484 0.289732 2.89149
-0.869439 -1.40572 3.53442
-1.30651 -0.452151 3.15984
-0.0420629 1.00271 2.28619
1.47078 0.880605 2.56391
0.391831 -1.37608 3.56327
0.865966 0.259287 2.87129
1.66153 0.334752 2.67061
0.893454 -1.32194 3.48916
-0.185149 0.790448 2.06965
-0.0174167 0.533292 1.24476
0.236399 -0.405241 3.09687
-1.07447 0.352164 3.02482
1.25796 -1.23913 3.35628
1.11376 1.00558 2.74434
1.5938 -0.359033 2.82366
0.651741 -0.456962 0.857854
-0.967213 -1.48667 3.41114
-1.33858 -0.644854 3.37301
2.2636 0.21128 2.74715
0.394153 0.156681 2.91226
-0.393875 0.893123 3.02217
-0.478522 -1.60469 3.41447
2.25396 0.50781 2.64457
-0.50522 1.40404 2.96384
-1.44955 -0.579636 3.18469
-0.852529 0.668017 2.01882
0.813375 -1.52472 3.57399
-0.827997 0.235476 2.99207
-1.00049 -0.544175 3.21812
1.66835 0.807967 2.54629
0.797622 -1.56172 3.79301
1.23775 0.1832 2.79155
-0.035332 0.044926 2.95541
-0.229832 1.06848 2.45275
0.989706 0.75737 2.87943
1.678 -0.71298 2.85658
0.980882 -0.733676 3.14872
0.0311147 0.747355 3.04081
2.00484 1.07237 2.6972
0.678313 0.0112788 2.91161
0.758464 0.116233 2.86749
-0.298996 0.874403 3.02937
1.82284 0.715667 2.57448
0.871581 -0.682324 3.12998
0.608082 -1.7764 3.9082
0.274889 0.0834175 2.95498
1.05302 -0.637744 3.06663
2.49758 0.0194535 3.75763
0.763771 0.800911 2.90566
0.706477 -0.7361 3.16449
1.19152 0.752264 2.76533
-0.0461041 1.11773 2.92387
1.06504 0.0765835 2.80011
1.39022 0.687393 2.65877
1.47437 -0.63352 2.84965
-0.284418 -1.07735 3.44394
1.13796 0.0310445 2.84254
-0.607975 -1.57219 3.46118
-0.668966 0.151929 2.97978
2.06529 1.16269 2.80725
-1.37156 -0.647619 3.16487
-0.108888 0.912526 3.10338
-0.256748 0.114439 2.99999
-0.678103 -1.54497 3.51879
2.11356 1.06307 2.76681
0.234208 -0.628278 3.21963
1.64068 0.741902 2.60573
1.11373 -0.815478 3.06552
0.787478 -0.0647838 2.90418
0.56523 -1.77286 3.7418
-0.266269 0.683698 3.16363
1.92048 0.645267 2.60883
-1.4296 -0.0233483 3.08517
-0.904012 -1.61898 3.41758
0.113326 0.74106 3.04145
1.91833 -0.164655 2.72025
0.807985 -0.809584 3.18219
1.25182 0.00572721 2.76629
0.341255 0.707601 3.02796
-0.411693 -0.787734 3.32076
1.28579 0.514242 2.81311
0.169861 -0.22823 3.03515
-0.278069 0.909576 1.96615
0.0493904 -1.06276 3.41399
-0.629708 -1.00575 3.40969
-0.447503 0.756806 2.22485
-0.684305 0.801805 1.86578
0.99072 -0.17918 2.92485
0.826837 0.502306 2.96546
-0.548847 -0.956776 3.32685
1.04844 0.593735 2.8861
-0.385711 -0.146198 3.09452
0.441657 0.557359 2.91143
1.21618 -0.889278 3.15173
0.670349 1.24908 2.84353
0.408672 -0.101002 2.96572
-1.02841 -1.2102 3.50716
-0.37643 -0.346779 3.13079
-1.31516 0.420547 2.95399
-0.393525 0.7593 1.94391
1.66417 -0.278962 2.61987
1.16381 1.11866 2.70507
0.293751 -1.20859 3.54933
0.359711 0.459729 2.8793
1.13522 -0.256015 2.82931
0.395702 1.14093 2.86936
-0.582291 0.447671 2.97867
0.447097 -1.15505 3.53077
1.26199 -0.174299 2.77461
-0.422397 0.723903 1.96896
0.303706 1.30945 2.90624
-0.934778 -0.983624 3.37952
1.12547 0.552594 2.83951
-0.685026 0.856499 1.8654
-0.803359 -0.139036 3.09022
-0.549573 0.549991 3.04209
1.83523 0.66152 2.60272
-0.751386 -0.957721 3.36782
-0.566466 -0.0995415 3.09827
-0.866891 -0.904667 3.30068
-0.1179 0.694551 3.12167
-0.193632 -0.896664 3.42846
-0.32234 -0.059051 3.05454
1.38725 0.562469 2.7502
-1.42953 -1.08678 3.20487
0.0380962 0.479439 3.00303
0.818437 -0.303337 2.98394
0.623704 1.19462 2.88481
1.41703 0.413429 2.76604
-0.396995 -1.19074 3.6982
-0.334442 -0.264066 3.10555
1.42155 1.05539 2.63417
-0.369231 0.850351 2.41277
0.0975861 0.50207 2.96569
1.29184 -0.211078 2.80438
0.690948 -1.09075 3.4163
-0.906564 -0.462125 3.20296
0.100351 1.18411 2.15666
0.818683 1.03178 2.8366
0.195846 -1.42116 3.65396
1.6638 0.295858 2.72588
-0.305979 -0.419867 3.1791
1.12528 0.982338 2.78279
0.687376 -1.36889 3.6253
0.908503 0.289188 2.86026
1.52994 0.366168 2.69916
1.65037 -1.20963 3.22181
1.53187 0.987237 2.52426
0.0625903 0.539621 1.29819
1.2278 -0.374059 2.92307
0.00459272 0.361507 2.95805
1.67248 -1.10337 3.06596
-0.808091 0.706946 1.87053
-0.716602 -0.348814 3.12604
2.47637 0.933195 2.90135
-0.730823 -1.47699 3.49445
1.09178 -0.545013 2.91594
2.08796 0.526671 2.60004
-1.36514 -1.29866 3.10457
-0.262661 0.183735 2.97062
1.64857 -0.500384 2.82551
-0.659709 0.644836 2.08339
0.122852 0.590013 1.34549
2.02124 0.457968 2.62016
0.741512 0.971181 2.88075
0.251245 0.264722 2.93313
-0.0362249 -0.508605 3.18734
0.968138 0.930581 2.86044
-0.585545 -1.395 3.49305
1.51431 0.205564 2.70571
1.1157 -1.10783 3.36082
-0.50314 0.514949 3.00164
-0.0725131 -0.256584 3.08247
-0.317597 0.863958 1.94197
1.19112 0.45577 2.82555
-0.738012 -1.06217 3.45737
-1.13586 -0.220573 3.16095
1.55199 1.03375 2.47217
-1.51935 -0.956563 3.17289
1.65996 0.541081 2.75714
1.2458 1.16457 2.69695
-0.238036 -0.177833 3.07621
-1.12992 -0.915115 3.20844
-0.020628 0.549454 3.02444
0.309702 -0.140682 2.96781
-0.515678 0.853849 1.88441
0.877021 1.06526 2.8213
-1.101 0.378381 2.99407
1.17287 0.990977 2.71002
-0.484249 -0.375799 3.09768
0.974785 0.32595 2.91532
0.0636078 -1.31858 3.63798
-1.13705 -0.361335 3.26694
1.54825 1.00426 2.49317
2.64484 0.925798 2.85866
-1.25913 -1.15913 3.33459
0.750326 0.444448 2.91799
0.255548 1.1307 2.95278
0.443799 -0.290148 2.99855
0.141597 1.25237 2.37905
1.32273 0.387331 2.79212
-0.605225 -1.17757 3.50872
-1.21071 -1.32634 3.24308
1.53109 0.238857 2.59003
0.525778 -0.304431 0.580315
1.30915 0.932157 2.73318
1.30305 -0.508392 2.90485
-0.67524 -1.39184 3.51354
-0.613343 0.227615 2.92986
0.991207 -0.489222 3.00379
-0.46678 0.687049 2.08122
1.85932 -1.89948 3.62123
0.725288 -1.3961 3.56652
0.692129 -0.454965 3.08868
-0.0296669 -1.34347 3.58357
0.766426 -1.81142 3.81853
1.50354 0.27595 2.75514
0.0409081 0.59611 1.30592
-0.191391 -0.416744 3.14144
-0.545804 0.699421 2.00116
-1.46123 -0.69239 3.19233
-0.641878 0.852603 2.98504
-0.501492 1.35557 2.96346
-0.122534 0.123882 3.00051
0.0661576 0.822169 3.03531
-0.719232 -0.679185 3.40381
2.28106 0.676929 2.75945
-0.993491 0.10572 3.22786
0.077715 -1.58355 3.48226
0.741886 -0.609978 3.11405
0.191508 0.934316 3.02123
0.637869 -1.65766 3.72974
1.53367 0.182065 2.80092
-0.178626 1.11824 2.87394
-0.726004 -0.568045 3.20749
1.5939 0.764282 2.57229
-1.34595 -1.40376 3.32542
-1.03971 0.167355 3.00203
0.722668 -1.66099 3.64967
0.996751 -0.476606 2.93481
-0.0294643 0.588081 1.53196
1.0756 0.288816 2.8931
-0.69272 0.706165 1.97822
1.06797 -1.36208 3.33641
-1.08548 -1.27427 3.3397
1.23602 0.254835 2.81506
1.51619 0.880373 2.59397
0.0260979 0.838174 1.82181
0.0776458 -0.44941 3.1229
-1.48341 -1.23678 3.29133
1.08098 0.352458 2.87224
-1.3311 -0.431946 3.24046
-0.231642 0.776785 2.03586
0.0279747 0.550356 1.32358
-0.918322 -1.23047 3.44299
-1.36019 0.343717 2.99125
-0.0225437 0.5224 1.45055
1.4842 -0.363073 2.82042
-0.42152 0.736629 1.99578
1.22684 0.825562 2.7577
2.27388 0.735378 2.83825
-0.411703 0.153429 2.99252
-0.752409 -0.621233 3.28816
0.110095 -1.63548 3.69311
2.23129 0.519896 2.64579
-0.709643 0.662478 2.00633
1.46047 -0.561157 3.00829
-0.346825 0.232805 3.06034
-0.182243 -1.53107 3.61491
-0.431045 -0.540145 3.24101
1.35404 0.83889 2.69894
0.223208 -1.46079 3.55313
-0.892605 0.196104 2.97444
-0.215433 1.34467 2.92538
-0.247113 1.01584 2.23591
0.490635 0.0404884 2.91834
-1.08595 -0.788754 3.40039
-0.611246 0.760512 2.95351
-0.563683 -1.03217 3.58958
-1.07296 0.748982 2.97518
-1.41462 0.0209041 3.16808
1.38681 -0.702054 2.98729
0.387937 0.112375 2.92569
1.4676 0.330083 2.1891
0.566132 0.825898 2.9262
-0.86417 -0.699766 3.23477
0.135154 -1.57767 3.47372
-0.819906 0.0914883 3.0547
1.90617 1.12678 2.94506
-1.06975 0.787777 2.8377
0.180859 -0.65928 3.20997
1.27817 0.570304 2.76706
1.84249 0.320645 2.68443
-0.359584 -0.0940902 3.07311
0.0146493 -1.7142 3.68333
-0.979695 -0.898246 3.35091
1.67293 -1.06705 2.94595
-0.651343 -0.067733 3.07945
1.76254 0.65862 2.79231
1.47705 -0.801566 2.94511
-0.67818 -0.0225006 3.07426
-1.05359 0.661263 2.97496
-1.20345 0.238155 3.00156
-1.18662 -0.794738 3.20053
0.0177677 0.716998 3.24393
0.0351453 1.26545 2.85567
-0.462987 -0.0642209 3.07898
-0.386022 0.866366 2.36069
0.115899 -0.877557 3.34012
-1.45425 -0.0286193 3.08773
-1.2 0.729524 2.91628
-1.23605 -0.789088 3.15122
1.43206 -0.00433854 2.78788
-0.692451 0.698128 3.02572
1.76118 0.93223 2.53133
-0.0918339 -0.793016 3.32547
1.71195 0.48365 2.64187
0.334035 -0.229231 3.0392
-0.377161 0.846988 1.91256
-0.964632 -1.05092 3.41319
1.30209 -0.949636 3.09979
0.459216 0.4861 2.88455
-0.135685 0.992415 2.64358
1.15041 -0.174252 2.77121
-0.354958 0.869008 2.45738
1.84576 -0.861109 2.91416
-1.02252 0.611674 2.97352
0.979139 -0.148243 2.89816
-0.758999 -1.0156 3.6301
0.375472 0.551275 2.93288
0.4733 -0.109741 2.97167
0.918655 1.23892 2.76476
-0.553087 0.745637 1.90837
0.913225 0.390917 2.92
0.46797 -0.343111 3.04457
1.21879 -1.1747 3.292
1.57706 -0.303536 2.95642
1.65141 1.04779 2.53525
1.11639 -1.19605 3.47049
1.11192 0.461435 2.86532
1.32197 1.05455 2.63164
-1.42535 -0.270369 3.11291
-0.252209 0.443982 2.99148
0.595696 -1.10895 3.37748
0.399946 -1.4278 3.54691
1.16978 0.271661 2.80099
0.0643046 1.00396 1.9709
-0.799785 0.692975 1.96871
1.18661 -0.472864 2.8701
-0.19994 -1.38213 3.58117
-0.671538 0.259312 2.99526
-0.366517 0.720926 2.09565
0.0996569 1.1924 2.25617
0.732763 -0.452489 3.01335
-0.0124228 1.35421 2.88957
0.0758407 -1.33938 3.56296
0.446084 0.343953 2.87817
0.701097 -0.415149 3.04008
-0.4521 0.741319 1.95256
-0.102713 -1.26058 3.48746
0.0935625 0.567184 1.35337
-0.969687 0.328258 2.96013
-0.232361 -0.385727 3.14698
1.50221 0.935962 2.57084
0.864548 -1.17011 3.38775
-1.50975 -0.321261 3.22292
0.450146 0.425847 2.89498
-0.294192 0.781421 1.96586
1.08216 -0.257362 2.83652
-0.696444 0.684897 1.9361
-1.35136 -1.06488 3.2319
-0.417466 0.511133 3.01089
-0.744153 -0.21801 3.08347
1.09478 1.10117 2.69474
0.908812 0.461806 2.9177
0.408394 -1.07581 3.40814
1.5067 -0.431825 2.81215
1.15545 0.297682 2.8097
-0.937008 0.0759594 3.07843
-0.599709 0.697547 1.94523
-0.432809 -1.35123 3.50055
-0.883432 -1.27527 3.42718
-0.0334068 0.289774 2.93005
-0.660605 0.693995 1.95878
-0.584801 -0.43248 3.24439
-0.73031 -1.25291 3.47492
-0.92874 0.407329 2.95729
-1.09574 -0.37046 3.02538
0.394676 1.1016 2.87266
0.0779516 0.555337 1.35788
-1.06255 -1.18445 3.34904
1.67854 0.327234 2.69341
0.0529072 0.702491 1.39889
-0.610361 0.723529 1.91001
-0.778131 -0.357915 3.18285
0.881842 -1.50675 3.46435
0.880478 -0.572517 3.04882
2.45898 0.73057 2.85844
0.291838 0.178627 2.93179
0.290917 0.926232 3.03612
1.89098 -0.214757 2.7837
0.816294 0.966693 2.87283
1.02355 -0.526233 2.98804
0.199122 -1.69552 3.59895
-1.53939 -1.38462 3.31474
1.13576 0.246905 2.81576
-0.176063 -0.504881 3.18253
1.10369 0.887044 2.75533
0.0224184 -1.43518 3.56605
0.352387 0.207498 2.89854
0.928908 -0.72577 3.11866
1.53984 0.0735913 2.96269
-0.458653 1.05522 2.85706
2.0403 0.52142 2.60747
-0.520589 0.801678 3.00664
1.36224 0.690418 2.66942
-0.141342 1.38762 2.9068
0.281649 0.035662 2.95254
1.09451 -0.672563 3.01795
0.197401 0.142245 2.96254
-0.566744 -1.56219 3.4349
1.38651 -1.35717 3.26176
0.964768 0.840778 2.86408
-1.35197 -0.665363 3.21196
-0.21857 -1.58627 3.59227
0.238085 0.110941 2.95546
-1.23651 -0.650299 3.34766
2.26224 1.06865 3.01923
-0.390127 0.860033 3.0748
0.472549 1.06908 2.87062
-1.24393 -0.418707 3.1647
1.47544 0.342484 2.85451
0.957995 -1.50298 3.92714
-0.225691 0.764304 2.06991
0.173726 -0.378125 3.07829
0.878645 0.316692 2.905
0.924772 -1.33004 3.57625
-0.0142785 0.441631 2.96483
1.34297 -0.327902 2.76454
-0.403317 -1.24085 3.5559
0.476837 1.1325 2.86594
0.128425 1.37039 2.83589
-0.408792 -1.18846 3.53111
1.11705 1.03954 2.66969
-1.12973 -0.303664 3.18932
0.753446 0.395942 2.90957
0.198381 1.43777 2.58273
-0.0812209 0.262093 2.95565
0.869523 -1.49118 3.59175
-1.16299 -0.562089 3.34225
0.448333 0.991819 2.94534
-0.805568 -1.39003 3.47951
0.227511 0.220359 2.92716
0.0338585 0.522646 1.31094
-1.16686 -0.513 3.24705
0.383168 0.949814 2.94861
-0.401082 -1.36658 3.55193
2.31565 0.460924 2.60259
0.651897 -0.458467 3.0715
-1.35385 0.304563 2.95481
0.0336594 0.557763 1.23163
1.47051 0.906587 2.57059
0.398536 0.834134 2.97818
0.126163 -0.702296 3.23882
0.991397 0.10134 2.855
-0.00360776 1.36779 2.88465
0.556495 -0.66336 3.2141
0.441686 0.801913 2.95226
1.12967 -1.749 3.79253
1.87423 -0.667735 3.00578
-0.469735 0.0797039 2.97751
-0.448115 -0.6328 3.32068
1.15324 0.173423 2.78738
-1.21103 -1.42293 3.22923
1.74518 0.0665941 3.29647
0.884909 0.897232 2.90293
1.69365 0.778827 2.62209
-1.11351 -1.41868 3.32504
-0.2602 0.149292 2.96149
-0.666724 0.790878 2.97337
-0.483283 -0.594987 3.3129
-1.24765 0.0180588 3.12593
-0.346583 -0.842296 3.39036
0.900167 0.708019 2.88369
1.71937 -0.037406 2.70542
-1.41879 -0.77238 3.19803
-0.531122 0.709067 3.07944
-0.785016 -1.26193 4.36702
1.54789 0.0507781 2.37198
0.603566 0.776239 2.99463
-0.60213 0.0492419 3.04
1.10179 -1.66648 3.51942
0.0372497 1.21552 2.87663
-0.089604 -0.745404 3.26052
-0.574065 0.823939 2.73082
2.10109 0.265919 2.64559
1.12885 0.134455 2.81108
-0.51382 -0.627346 3.28014
0.259871 0.854961 3.0534
-0.804274 -1.55566 3.52023
-0.940098 -1.62989 3.44006
1.68445 0.0935046 2.75747
0.550645 -0.588535 3.18428
-0.564111 0.68391 2.09054
2.24017 0.562806 2.6957
0.260919 -1.54972 3.63598
-1.00371 0.239867 3.01805
-0.15392 1.06501 2.98155
-1.22206 -0.560087 3.29915
1.20084 0.85147 2.75042
-0.0867051 -1.47644 3.60974
-1.42676 0.199966 3.08526
-0.349772 1.29917 2.94866
2.13884 1.06557 2.93458
0.190844 -0.788697 3.29346
1.63949 0.0305712 2.70438
-1.13093 0.781941 2.96833
-0.596589 0.0107059 3.05155
-0.691887 0.725765 2.9626
-1.18682 -0.725379 3.18959
-0.358847 0.982415 2.70355
