ply
format ascii 1.0
element vertex 1834
property float x
property float y
property float z
end_header
-0.472112 0.747648 1.89724
0.00107255 -1.19565 3.43735
1.61706 0.35258 2.69296
0.655917 1.11596 2.89822
0.191838 -0.32219 3.08166
0.410201 -1.19122 3.56211
1.05931 -0.271273 2.90386
-0.509377 0.466692 2.95273
0.140328 1.17269 2.88249
0.381664 1.03532 2.96748
0.257197 -0.50973 3.13042
1.35323 0.272034 2.81229
1.01937 -1.43488 3.4733
1.30787 -0.450431 2.89098
1.0234 0.94478 2.79277
1.07333 -1.39565 3.48339
0.11546 0.259582 2.92075
-1.18319 -0.438917 3.20612
0.878257 0.351926 2.92459
0.545255 -1.38718 3.58441
0.0097274 1.08888 2.91876
-1.00575 -1.27333 3.4615
0.721162 1.03389 2.85758
1.62551 -0.366539 2.76176
-1.37809 0.325444 2.95922
1.72243 0.163525 2.74575
-1.27042 -1.42184 3.16121
1.48852 0.799924 2.6095
0.0756693 -0.639697 3.20831
-0.487139 -1.49965 3.47208
-1.17535 0.145745 2.95695
1.69634 -0.542955 2.79403
0.154325 0.878922 2.98199
1.2566 -1.60379 3.75224
-0.0909977 0.974733 3.02708
-0.0362862 -0.555516 3.16534
1.73175 0.202174 2.74677
1.4874 0.431119 2.71245
1.01413 -0.310746 2.94729
-0.638768 0.757717 1.86741
1.53149 -1.15909 3.26605
0.225484 -1.16211 3.49976
-0.20215 0.785191 1.96111
0.920887 -0.274813 2.98873
-1.03093 0.454822 3.04756
-0.272132 -1.06142 3.33722
-0.881564 0.561128 3.08028
1.39146 -0.224999 2.83753
-0.567785 0.835244 1.87882
-0.545538 0.511147 2.9748
-0.489284 -1.08801 3.56829
1.09025 1.14687 2.71384
1.76394 -0.193639 2.81126
-0.361449 -1.33053 3.47923
0.258434 1.08027 2.96749
1.43842 -0.404218 2.8453
-0.211252 0.325752 2.9683
1.25179 1.05946 2.73166
0.0346553 -0.389222 3.09245
1.48582 0.392744 2.9337
0.250091 -1.31971 3.54722
1.41551 0.991524 2.63204
1.2568 -0.346272 2.8674
-0.986813 0.36266 2.96189
-0.882325 -1.20274 3.38257
-0.9402 -0.577934 3.15033
-0.0952029 0.225476 2.97378
-1.00024 -1.41968 3.31001
1.28279 0.893532 2.75596
-0.3194 0.931922 3.03461
1.00581 -1.58843 3.74724
1.73723 0.155971 2.74911
0.341654 -0.549239 3.14028
-0.601513 -1.63086 3.42236
-0.156408 0.295783 2.96222
0.933334 -1.57238 3.82095
1.04567 -0.48554 2.93872
-0.0800446 1.04767 2.99458
0.5369 -1.48818 3.74006
-0.324149 0.266391 2.96967
-0.211788 -0.471203 3.1505
-0.728359 0.676287 1.98476
-0.013432 0.800281 2.96839
-0.688763 0.0770235 3.00395
-0.688472 -0.738815 3.36815
-0.822781 0.668905 2.25702
0.459376 -0.666719 3.14774
-0.563197 0.145985 2.9652
0.374554 -1.64558 3.56393
-0.917715 -0.665903 3.38512
1.33973 0.767416 2.71261
-0.507999 -1.55829 3.50552
0.484285 0.104654 2.93041
1.23515 0.929126 2.75022
-1.34141 -0.561384 3.2301
2.19842 0.970662 3.04731
-1.75037 -1.50448 3.52941
1.4904 0.249251 2.86284
0.484834 -0.515958 3.15705
-0.413754 0.684936 2.10552
-2.22352 -1.91726 4.62604
-1.12509 0.233411 3.05333
-0.833887 0.321913 2.9628
-0.998941 -1.37561 3.46272
0.369086 1.07547 2.9636
1.5956 -0.449898 2.87055
-0.760601 -1.32685 3.4865
-1.32937 0.309546 3.01652
-0.707714 0.69414 1.97161
-0.0356689 -0.43853 3.16169
0.875909 -1.71179 3.67959
1.2549 -0.648407 3.00173
-1.37872 0.118659 3.08407
-0.573488 0.832823 2.94482
1.31765 -0.586061 2.86704
-0.665245 0.643281 2.07408
1.18228 -1.7197 3.78445
-0.202977 0.181738 2.97137
0.498403 -0.604852 3.21657
1.08504 0.837589 2.83145
1.68122 0.123876 2.77854
-0.0746683 -1.57792 3.62552
-0.0598094 0.722402 2.95593
1.17236 -0.0403874 2.84868
0.0867054 1.28038 2.76926
-0.555938 0.00264401 3.03283
1.40815 -0.774739 2.94025
-0.915681 0.674446 2.93904
2.28403 0.935983 3.20985
0.887907 -0.786814 3.16743
1.45473 0.0601753 2.88472
-0.556258 -0.766326 3.28564
-0.326139 0.811408 3.01393
0.80727 -1.55544 3.733
-0.934314 0.0422915 3.05898
-1.10954 0.229129 3.0297
-1.00851 0.775297 2.99947
0.0367864 -0.717805 3.24417
-0.100667 -0.981622 3.36214
0.31467 -1.72209 3.62444
-0.188082 -0.150954 3.03765
0.0701305 1.2372 2.78096
0.970226 0.559921 2.90851
0.270248 1.33556 2.91217
1.82189 0.88944 2.5586
-1.16353 -0.109106 3.12657
-0.509242 0.657999 3.03642
1.49811 -0.824988 2.84826
-0.281324 -0.0707486 3.03803
1.65937 -0.807003 2.90765
1.22686 0.569407 2.80998
-1.25618 -0.910625 3.26698
-1.30577 -0.114594 3.10074
1.80524 0.507122 2.66205
0.202331 0.590284 2.92833
-0.650363 0.703271 2.20442
0.593985 -0.0781554 2.95333
0.520316 1.29279 2.87684
-0.615913 0.694788 3.03616
0.267191 -0.906641 3.32483
-1.26544 -0.0421404 3.08051
1.03964 -0.863662 3.28434
0.617998 0.639464 2.99258
-1.28927 -0.287711 3.19929
-0.745702 0.752392 1.79274
-0.742137 -1.12336 3.39473
-0.288317 0.502506 2.97624
-0.2085 -0.235087 3.07688
0.438026 1.17487 2.88461
-3.40985 1.10839 7.05097
0.592398 -1.09685 3.39161
-0.790602 -1.05849 3.45221
1.00923 0.554309 2.91544
0.671404 -0.198447 2.97559
-0.32226 0.800773 2.09879
0.0641953 0.537011 2.96736
1.14488 -0.990678 3.30163
-0.30506 0.898205 1.93697
-0.761206 -0.155916 3.06429
0.876373 -1.38576 3.69202
-0.985694 -0.394872 3.14602
-0.0737084 0.358276 2.97646
-0.762932 0.706307 1.89747
1.75513 -0.346802 2.73821
1.61168 1.00868 2.54868
1.55482 0.366956 2.51135
-1.07833 -1.10395 3.0873
-0.671716 0.733013 1.92055
0.416977 -0.330162 3.08816
-0.263008 0.386899 2.92452
0.495096 -1.29306 3.69164
0.142451 -0.559944 3.16322
-0.233174 0.258764 2.97531
-0.73882 -1.46724 3.51372
1.68492 0.861835 2.56504
1.38805 0.852923 2.65327
-0.929867 -1.40737 3.47467
-0.0493771 0.220435 2.95207
0.884905 -0.51095 3.05749
-0.695069 -1.35536 3.44075
-0.791606 0.324678 3.00284
1.13628 -0.450388 2.89464
0.691914 1.03621 2.87306
-0.140443 -1.37185 3.56492
0.0899934 0.284417 2.90938
-0.757688 -0.430684 3.13397
0.626091 1.0089 2.8943
-1.3923 -1.14101 3.16723
0.0621671 0.424648 2.93466
1.16499 -0.355826 2.89723
-0.784899 0.730852 1.8483
0.586507 -1.24059 3.52304
0.275028 0.378676 2.90743
-0.827717 0.716452 1.85854
1.09274 -0.318701 2.898
0.205518 1.19215 2.9401
1.36306 0.439702 2.81583
-0.480006 -0.28358 3.07802
-0.665958 -1.12024 3.37107
1.34082 -0.483926 2.85001
-0.489258 0.699891 2.02328
1.23136 0.273725 2.87012
0.53119 -1.51893 3.66792
-1.38019 -0.494313 3.24437
0.635698 0.981419 2.91682
-0.953879 -1.39873 3.5525
0.668624 0.249917 2.93809
-0.621961 0.351848 2.94939
1.39628 -1.32571 3.36639
0.0447393 1.08271 2.91876
-0.655025 -0.437457 3.15321
0.635068 0.310005 2.92536
0.42272 -1.30778 3.49495
-0.79603 0.684459 1.88429
0.56867 -0.398688 3.05748
-0.0715707 -1.58334 3.52395
-0.533025 0.178819 2.96577
-1.44068 -0.614741 3.04716
0.784804 0.877634 2.87266
0.871293 0.131737 2.91812
-0.806358 -1.44742 3.35369
0.372592 -1.75265 3.63304
-0.562369 -0.579775 3.09234
0.362391 0.876147 2.97779
-0.45206 0.678813 2.10565
1.32607 0.19914 2.8086
1.27495 -0.53668 2.93722
0.792473 -1.72384 4.04036
1.34531 0.699295 2.74121
2.25544 -0.188694 3.58666
-0.275499 0.0312797 3.00607
0.407184 -0.819395 3.31487
-0.251444 0.746248 3.08378
0.713737 -0.0144809 2.94771
-0.810902 -0.803652 3.41951
0.920477 0.0976956 2.91166
1.67685 -0.768059 2.55868
1.03976 -0.689902 3.04516
-0.111768 0.850035 3.04883
-0.255885 0.0677719 3.02509
-0.807357 -1.60305 3.44705
1.85741 -0.500631 2.75712
1.6553 0.711814 2.65991
-0.932308 -0.697166 3.29043
-0.196368 0.768722 2.10857
-0.574337 0.324535 3.00431
0.470792 -0.430532 3.06066
-1.04943 -1.2535 3.29666
0.982217 -0.391311 2.99972
-0.346634 0.766223 1.98102
1.32777 -1.23897 3.27318
0.602958 0.388642 2.95792
0.706303 -0.363691 3.03293
1.4487 0.988573 2.64483
1.48517 -1.23494 3.36167
0.519466 0.344297 2.8871
0.805775 -1.73067 3.91605
1.18776 0.20539 2.82205
0.160959 -0.599111 3.18637
-0.362012 0.918267 2.7804
-0.171219 -1.52239 3.61104
0.971882 0.166278 2.88375
1.58601 -0.504224 2.76585
1.0821 0.869464 2.83354
1.41567 -1.4119 3.38965
1.42447 0.2684 2.79271
0.660758 -0.515898 3.12704
-0.33161 0.726409 2.06491
-1.45773 -1.23005 3.06677
-1.37964 0.282463 3.08954
-0.762691 -0.473846 3.17446
0.381224 0.995757 2.96151
0.137077 0.814663 3.03789
-2.48476 -1.26761 5.22427
0.454304 0.066793 2.94779
-0.521971 0.772409 3.01735
-0.304562 -0.714445 3.23114
-0.166205 0.0338701 2.99261
1.06676 -0.660208 3.049
-0.512772 0.809839 2.7594
-0.0872168 -1.69275 3.63665
1.72844 0.119749 2.75269
1.8405 -0.328425 2.72795
1.56275 -0.591414 2.86202
-0.516667 0.841121 2.99696
-0.466813 0.108403 3.00672
0.712275 -1.75762 3.87809
0.737971 -1.59386 3.74897
0.41015 -0.888435 3.26628
-0.998346 0.78664 2.84642
-0.828168 0.704386 3.05726
-0.857586 -0.0697611 3.05961
0.0396405 -0.847326 3.28008
0.556613 0.639571 2.97125
-0.575521 -0.0382581 3.05681
1.26718 -1.79817 3.72559
-2.15819 -1.1022 4.39083
-0.283758 0.883733 2.43393
-0.30451 0.952959 2.74774
0.13542 -0.0049041 2.96518
-1.13198 0.724386 2.94486
-3.14285 -3.24878 6.92852
1.09548 0.786371 2.80872
1.46131 -0.641473 2.92608
-1.18674 0.118998 3.13699
-0.101769 -1.69848 3.5255
1.24671 0.835005 2.7385
-0.194077 -0.648408 3.25686
-0.0665577 0.177879 2.96696
-0.879473 -1.52634 3.42641
1.20722 -0.585506 3.03048
1.43 0.766729 2.61721
0.184023 -1.53646 3.51921
-0.228801 0.140361 2.98774
0.298733 -0.0406989 2.96572
-0.227769 -0.00603565 3.04472
0.0195349 1.19544 2.8858
1.43706 -0.773491 2.91783
0.140137 0.73634 3.02564
2.31897 -1.5254 4.2133
1.15783 -0.781123 3.11433
-1.16223 0.670174 2.89067
0.320102 -0.787253 3.31384
1.78332 0.0594246 2.76887
-1.00428 0.79265 2.91933
1.52516 -1.49944 3.45577
1.64164 -0.827029 2.73204
1.61119 0.0261582 2.67378
-1.33561 -0.718932 3.27628
1.71726 0.700536 2.71444
0.249844 1.27394 2.92062
-1.19936 0.534979 2.76319
1.27823 1.15055 2.68642
-1.01848 -0.158184 3.15157
0.296074 -1.00511 3.39702
1.86605 0.993032 2.55393
-0.0653471 -0.112322 3.03401
0.194917 -0.93702 3.31255
-0.717846 0.640891 2.98643
-1.20111 -0.0739962 3.10071
-1.07136 0.590061 2.90579
1.31708 -0.847282 3.04697
-0.916898 0.465746 2.96011
-0.745464 -1.17269 3.39673
1.6031 -0.297401 2.73645
0.837707 1.1403 2.79993
1.49837 0.395232 2.73717
-1.04993 -1.08625 3.30205
-0.296502 -0.27597 3.06142
-0.0924804 0.832476 2.11994
-0.0212471 -1.08054 3.38877
-1.09348 0.532945 2.93606
-0.514392 -0.235461 3.07763
-0.458283 0.873202 1.89729
0.192418 -1.11365 3.61636
-1.71161 0.622165 3.63977
-1.04449 -0.19521 3.11201
-0.136412 0.84262 2.00492
0.394206 0.48399 2.93576
1.26945 -0.279469 2.86826
-0.156334 0.839289 1.99258
-1.11126 -1.10177 3.32442
-1.31312 -1.03599 3.25759
0.754506 1.1401 2.81226
1.56516 -0.246794 2.85541
-1.10344 0.460743 2.92463
0.802346 -1.07506 3.42204
-0.954982 0.557577 2.95485
-1.35381 -0.207174 3.08635
-0.607946 0.841751 1.87088
1.38291 0.501148 2.81735
1.17854 -0.969959 3.22536
-0.889703 -0.162213 3.09096
0.950534 1.03819 2.8022
0.132179 1.33031 2.88447
1.06642 0.342553 2.90656
-1.06392 -0.406249 3.16492
0.619988 -1.30958 3.47812
-1.35572 -0.38201 3.17953
0.313061 1.1818 2.97648
-1.37073 -1.16416 3.25189
1.79247 0.397526 2.79748
-0.267649 0.775308 2.01052
0.507211 -0.330429 3.03888
0.403803 -1.24378 3.52775
1.50158 0.349011 2.75146
-0.00812873 -1.53908 3.63032
-0.789082 0.256331 3.02548
1.51242 -0.508207 2.73447
-0.694507 0.66973 2.04262
0.807284 -1.71793 4.13181
-0.755788 0.216116 2.94708
0.764672 -0.518561 3.07674
-0.769362 0.64648 2.0337
-0.332402 0.316837 2.96158
1.40923 -1.67936 3.55657
1.41207 -1.52744 3.74055
0.92068 -0.475147 3.02746
-0.00223344 1.05309 2.93619
0.441366 -1.41446 3.6247
0.842592 0.276233 2.91022
-1.03263 -0.440794 3.16693
1.66901 0.882791 2.57099
1.64688 0.746405 2.67773
0.0466295 0.100001 3.00029
-1.4031 -0.674426 3.15296
0.580505 0.899076 2.94887
0.134956 -0.650683 3.21582
0.639761 0.167078 2.90706
-1.04761 -1.5518 3.44299
1.25936 -2.02256 4.12208
0.991578 -0.592405 3.05072
0.740243 0.846866 2.89836
0.489464 -1.65113 3.75256
-0.74293 0.138285 2.98857
-0.278152 0.970599 2.38053
0.288451 -0.525512 3.13083
0.169259 0.280449 2.92915
-0.187265 -1.46364 3.56454
0.886258 0.982769 2.85311
-1.34522 -0.497317 3.22934
-0.198044 0.983965 2.96484
0.0966301 -1.39875 3.48349
-1.38794 0.255317 3.01369
-0.529302 0.355949 2.99837
-0.339593 -1.36185 3.52658
-1.43299 -0.458204 3.19718
-0.342576 0.746526 2.00972
-0.472242 -1.31843 3.53389
0.337331 0.309601 2.9313
-0.52288 -0.417432 3.24583
1.30764 0.986013 2.74335
-0.280465 -1.64244 3.62614
1.44295 -0.59476 2.84983
0.955033 0.125758 2.90812
-0.375156 0.891618 3.04862
0.630742 -0.60628 3.15446
0.978182 0.914479 2.86247
0.0413283 -1.54213 3.52832
1.64421 0.186704 2.70595
-0.96476 -0.564779 3.15285
-0.798739 0.638245 2.10681
-0.290325 -1.4917 3.53904
-0.306633 0.173818 2.96612
1.19759 0.0148157 2.79525
1.53372 -1.01643 3.28776
1.25818 -0.765505 3.01666
-0.236542 0.77236 3.04639
-1.19307 -0.770379 3.27945
-0.0203003 0.730865 3.03859
-0.275758 1.0479 2.86608
0.161481 -0.0138277 2.96538
-0.765138 0.10677 3.02693
-0.723058 0.822406 2.95751
1.00275 -1.74572 3.68604
-0.473048 -0.739239 3.27103
1.62311 0.601447 2.55033
-1.19012 0.0685395 2.97234
0.496668 -0.694142 3.21397
0.402072 0.802782 2.99489
1.29339 -0.890464 3.05921
1.00057 0.587287 2.93217
-0.546798 -1.61757 3.44876
-0.462809 0.717303 1.93727
1.43037 -0.127853 2.75808
1.91775 0.443543 2.65001
1.19031 -0.0791475 2.77785
0.854687 0.663031 2.91393
0.973817 -0.921551 3.32525
-0.0358011 -0.0475672 3.01643
-0.678884 0.63263 2.97652
0.439713 1.30439 2.88256
1.74223 -0.735056 2.76298
0.261614 0.213593 2.96225
1.04815 -1.57579 3.56893
0.616327 0.944586 2.94561
-1.39357 -0.632391 3.33365
-1.21068 -1.4094 3.36968
-0.409802 -1.58893 3.42638
1.41842 0.159113 2.84243
-0.140313 -0.558958 3.13776
-0.460801 0.891325 2.8898
-1.09284 -1.33761 3.29472
0.896759 -1.78335 3.64982
-0.911038 -0.510636 3.14146
-0.00530668 0.250597 2.94797
-0.309023 0.744246 2.19631
1.23511 0.745474 2.77527
1.4086 -0.729409 2.98521
0.806938 0.0585934 2.89959
-0.731522 -0.736839 3.29045
1.15709 0.724627 2.8384
-0.833187 0.0346893 3.06262
-1.22367 -0.716359 3.3883
1.75113 0.113217 2.74462
-1.2191 0.831896 2.82223
-0.275499 0.840971 3.01606
1.82927 -0.533561 2.79117
-1.18534 -1.561 3.4518
-0.303739 0.10339 2.95304
1.00232 -0.623358 3.03023
1.14091 -2.11975 4.84131
-0.54495 -0.952326 3.51739
-0.0231751 -0.0743126 3.00655
-0.500819 0.701288 3.07572
-0.327125 0.655596 3.07696
1.19968 -0.829274 3.12272
-1.17994 0.0101946 3.09088
1.08235 -0.0493589 2.88537
1.74846 0.988109 2.55146
-1.60794 -0.83297 3.34436
1.29961 0.669359 2.77872
-1.04972 -0.00816858 3.05202
1.86696 0.522405 2.64644
-0.382679 -0.239452 3.05453
-0.0155579 1.22639 2.64658
-1.34772 -1.00967 3.16885
0.698976 0.52715 2.95469
0.983168 1.16346 2.77406
0.0112826 -0.202319 3.04765
1.03173 1.22786 2.75272
0.15006 0.490161 2.91605
-1.286 -1.05581 3.40002
-0.59322 0.629129 3.10692
1.12389 -0.156374 2.83749
0.97394 -0.978959 3.26483
-0.144856 -0.956905 3.39342
0.316405 1.27081 2.90642
0.911359 -0.120325 2.94604
0.0238656 0.580263 3.04114
1.86743 -0.551957 2.76904
-0.383882 -0.86898 3.35044
0.458974 -0.0150006 2.9812
-1.04473 -0.039991 3.10978
-0.751448 0.722736 2.99938
-0.147372 -0.816116 3.31237
1.09723 0.65879 2.89711
-0.773909 0.0710762 3.05296
1.89559 0.142146 2.74216
-1.13744 -0.789082 3.34605
-0.778298 0.801217 3.0053
-0.338202 0.0278237 2.96994
-1.01899 0.783415 2.83075
0.951933 0.734132 2.87822
1.11944 -0.695987 3.02019
-0.598866 -0.203834 3.09753
-0.654658 0.793302 1.86477
-1.82991 -1.1823 3.78325
0.194897 0.549092 2.90902
0.909501 1.20967 2.78083
1.53755 -0.163819 2.81506
-0.595437 0.827256 1.87271
-0.99022 -0.975916 3.34959
0.886436 0.241923 1.36439
-1.0417 0.789633 2.85292
-0.41326 -0.115987 3.01049
-0.582438 0.644211 3.03131
0.277954 -0.967155 3.3937
-2.66445 -0.26506 5.76574
1.39343 -0.803014 2.87638
-1.21517 0.590349 2.90006
0.138806 0.457608 2.92614
1.49067 -1.16222 3.24478
-0.846168 -0.338952 3.17713
-0.661927 0.745041 1.84559
1.3997 -1.15841 3.38733
-0.0925108 0.429434 2.96919
0.816654 1.11683 2.82953
-1.07263 -0.287957 3.14774
-0.563124 -1.14544 3.57539
1.40516 -0.230713 2.75476
1.69393 0.471504 2.85783
0.356252 1.21677 2.90308
0.993323 1.002 2.7832
-0.999545 -0.467827 3.08866
-0.142145 0.319328 2.97073
-0.543862 -1.37228 3.45054
0.838166 0.981389 2.83587
-0.462175 -0.450808 3.23865
1.12728 -1.33704 3.39778
-0.896156 0.290926 2.9986
0.368049 -0.407929 3.1215
0.678223 1.10574 2.89005
-1.15339 -1.23073 3.34289
0.473052 0.374986 2.89405
-0.650034 0.719997 1.92824
0.373569 -0.376909 3.13393
0.120409 -1.28769 3.55692
1.55771 0.309244 2.68803
0.168385 1.08534 2.94959
0.979473 -0.444228 3.01569
-1.14966 0.352317 2.99076
0.697623 -1.41252 3.60434
-0.479905 0.715394 1.98404
1.50143 -0.383007 2.78754
0.512306 -1.36814 3.6198
-0.422277 0.309113 2.94926
0.649036 -0.364757 2.96443
-0.361401 0.764057 1.94932
0.0958497 -1.29697 3.55633
-1.2358 0.430225 2.99415
1.57473 0.983655 2.55912
-0.266548 -0.334471 3.11172
1.35787 -1.19916 3.33818
0.187198 0.373103 2.91834
1.07778 0.235 2.90264
-1.04037 -1.37942 3.277
-0.377589 0.708805 2.11913
1.51315 -0.53995 2.87982
0.615238 -1.53471 3.71416
0.648423 0.203272 2.91084
-0.590161 -0.531961 3.20269
-0.588185 0.654605 2.05026
1.24758 -1.49409 3.66035
1.56627 -0.450249 2.75941
1.00878 0.272716 2.91757
-0.250898 0.906655 2.58451
1.29292 -0.680739 2.91064
1.39417 0.755305 2.72144
1.71207 0.0889262 2.76223
-1.1771 0.737237 2.73776
1.35876 -0.660704 2.98896
1.65034 0.0443392 2.81758
0.741747 -0.646234 3.12844
1.06783 0.156489 2.8521
1.43724 -1.66761 3.62669
-0.829811 0.632459 2.08632
0.680642 0.861369 2.96209
1.35284 -0.570805 2.89929
2.39814 -0.962231 3.83722
-0.592 0.131587 2.99387
1.21915 -1.70122 3.8307
-0.277046 1.0853 2.45582
0.875515 -0.857729 3.23296
-1.16591 -0.0155882 3.0874
0.522268 -1.47426 3.56706
-0.0715131 -0.0492569 3.01863
1.35058 0.651828 2.72525
-0.198661 -0.809904 3.28015
1.46993 0.615138 2.74569
0.74098 -1.88569 3.97005
1.0019 -0.78809 3.24163
1.9038 0.375675 2.67774
1.58895 -1.48721 3.39893
1.63752 0.00961456 2.76276
0.0497426 0.763662 3.02953
-0.760495 0.626127 2.15697
-0.2089 -1.68436 3.6038
-1.3247 0.139514 3.08831
1.64542 -0.606443 2.85016
0.208469 -1.69188 3.6974
-0.478482 0.679734 2.12436
-0.224018 -0.613415 3.19733
-1.05933 0.217397 3.02874
1.1434 -1.49493 3.36526
0.935265 -0.559643 3.02404
-1.1393 0.745894 2.45969
-1.1645 -1.4005 3.32615
-0.717916 0.17067 2.95021
1.08878 -0.790392 3.11084
-0.874254 -1.25796 4.48044
0.914455 0.0167524 2.91459
1.49256 -0.0283356 2.80449
1.26537 0.700471 2.78516
-0.599695 -0.759215 3.19658
-0.250061 1.07879 2.45429
1.14672 0.683069 2.84803
0.0168066 0.0942719 2.97284
1.56821 -1.37777 3.19806
0.796036 -0.733717 3.173
1.12195 0.781193 2.81399
0.961812 0.0498305 2.90838
-0.525982 0.78032 2.26796
0.499786 0.776362 2.92294
1.65964 -0.633855 2.82469
-0.378035 0.606483 3.04176
1.82598 1.03685 2.55305
1.36123 -0.128696 2.713
-0.0471997 1.07 2.40805
1.36642 -0.905906 3.09398
1.88644 0.0835396 2.72761
-0.315754 0.687039 3.05558
-0.538895 -0.0843768 3.06333
1.40557 -0.851766 3.02056
1.7372 -0.0567762 2.77601
-0.0846797 -0.876123 3.32975
1.45791 0.564788 2.69286
1.02429 -1.13293 3.30906
0.56991 0.485115 2.94122
0.504977 1.26342 2.87732
0.739967 -0.28993 3.03615
1.00902 1.15043 2.75491
1.47083 0.42972 2.80598
-1.15268 -1.04818 3.28524
-0.717611 -0.24784 3.04622
0.723013 1.15832 2.86568
-0.591543 -1.11552 3.59523
1.32665 0.521129 2.79633
-0.786859 -0.206839 3.05428
-0.158293 -0.997766 3.35839
-0.764525 0.536498 3.03808
-1.43871 -0.171181 3.088
-0.443713 0.899866 1.87767
-0.112516 0.794278 2.98369
-0.362456 0.84309 1.9262
1.30421 -0.73147 2.98285
1.09668 0.0522863 2.83254
-0.58822 0.768007 3.03403
-1.35773 -0.725996 3.21653
-0.0392431 0.0236229 2.95335
-1.41057 0.136623 3.05333
1.94852 0.709491 2.58831
-0.732143 -0.693833 3.26104
-0.66917 0.857397 2.89341
-1.1116 0.112698 3.12218
-0.444408 -1.612 3.56319
0.270646 -0.0857754 0.144047
0.638032 -0.653873 3.18852
1.5023 0.732742 2.63769
1.10745 -0.861294 3.09055
-0.186731 0.670896 2.94985
1.86438 0.107241 2.73548
0.977884 -0.0803047 2.91966
-1.28941 -0.824192 3.18784
0.782301 0.620438 2.93393
-1.47618 -1.58449 3.36436
1.48286 -0.0573191 2.84758
1.52035 0.385435 2.28773
1.79173 0.96096 2.54795
-0.863738 0.71399 2.97593
-1.00353 -0.0054636 3.07041
1.1812 -0.77757 3.07579
-1.09396 -0.249879 3.14157
-0.548552 0.819918 1.88862
0.783477 -1.09451 3.35273
1.67887 0.45513 2.60784
0.978612 -0.207899 2.93724
-0.716879 0.781934 1.86342
-0.125541 0.684598 1.64051
-0.576183 -1.05578 3.40878
-0.388297 0.494575 2.97534
-0.488524 -0.995533 3.36422
0.0978124 0.601117 2.99684
-1.46778 -0.167418 3.0931
-0.997832 -0.924816 3.28409
0.514466 0.544027 2.89948
-0.676482 -0.123588 3.04659
-0.653145 0.857668 1.86069
1.36895 -1.22841 3.32565
0.335447 -0.374952 3.09648
1.28359 0.365161 2.85096
-0.540035 0.74827 1.9445
0.0517232 -0.330796 3.06359
-0.315016 0.790245 1.968
-0.554818 0.462846 2.972
-1.52238 -1.14864 3.26503
1.00615 1.12384 2.85111
0.122165 -0.28672 3.06062
1.81987 0.393584 2.78661
0.537473 -1.19556 3.5294
-0.245748 -0.210313 3.07912
-0.262611 0.869326 1.95665
0.442555 -1.07395 3.42921
0.377595 1.34798 2.89666
-0.857489 0.596362 3.16084
-0.283234 0.921988 1.9355
1.75835 0.735275 2.60135
-0.435959 -0.167059 3.07576
0.281557 0.514492 2.93362
0.211214 -1.05561 3.54265
-0.193363 0.652667 3.08238
-0.550232 -0.129902 3.07139
-1.3227 -0.922027 3.26124
-0.486512 -0.957682 3.50697
-0.0660357 -0.0808694 3.023
-0.126839 0.60296 2.99037
0.724603 -1.23476 3.47869
1.73151 0.420771 2.696
0.970162 -0.324717 2.91394
1.48352 1.02877 2.52998
0.487807 0.412825 2.91484
1.35227 -1.15184 3.34285
1.13261 -0.278922 2.85852
0.10504 1.13798 2.90282
1.19705 1.13126 2.69889
1.53705 0.441187 2.7068
0.988879 -0.248406 2.93985
0.198549 -1.11922 3.45731
0.885632 -0.486389 3.0721
-0.0575508 1.07123 2.98446
1.53899 0.278678 2.7179
-1.0767 -1.32509 3.34057
-0.960275 -0.460246 3.25179
-0.0413227 1.0255 2.96912
-1.44797 -1.19888 3.08482
1.72103 0.252223 2.6809
-1.12667 -0.421135 3.2532
0.0827957 0.376227 2.91328
1.51939 -1.31626 3.42885
0.27993 1.13592 2.97347
1.60823 -1.19858 3.21597
-1.48035 -0.385226 3.21888
-0.758138 0.70642 1.89606
0.184301 0.34373 2.92487
0.563272 -1.58258 3.60274
-1.2695 0.222942 3.02592
-1.4303 -0.605547 3.1667
1.5755 0.827261 2.60069
0.522573 -1.59906 3.73181
-1.1059 0.171329 2.92567
1.50972 -0.566608 3.05901
1.41094 0.818501 2.70355
0.986604 0.951118 2.86149
0.602707 0.240099 2.91167
0.0537221 -0.532958 3.17384
-1.35806 -1.32646 3.25689
0.63786 0.233279 2.93315
-1.18225 -1.36072 3.22883
0.185252 0.984023 2.99174
0.679198 -0.57623 3.12498
-0.413123 -1.47617 3.57687
-0.818014 0.207445 2.96352
-1.27442 -0.541749 3.25634
-0.268665 0.952743 3.02198
0.115257 1.01406 2.96071
-1.03163 -1.62978 3.45937
0.43995 0.272551 2.91202
-1.06118 -0.485758 3.09076
0.304921 -1.47753 3.6439
-1.12888 0.77059 2.76615
-1.08073 -0.765955 3.33729
-0.22472 0.0933343 3.01429
-0.0442183 -0.701808 3.24435
-0.0421224 0.785308 2.97902
-0.722607 0.0596489 3.01647
0.375425 -0.650586 3.15633
-0.109221 0.166498 3.00732
-0.33721 -1.59644 3.51725
-0.177372 0.900937 3.01551
0.0950507 0.705665 3.33957
-0.745459 0.859885 2.93598
-1.03317 -1.46144 3.30643
1.41728 0.111557 2.87214
1.44569 -0.586577 2.9465
-0.298425 0.857924 1.93072
-0.852413 -0.999316 3.75026
-0.958014 0.699852 2.944
-0.147868 -0.0501342 3.01244
1.51094 -0.681115 2.66972
-0.973804 0.727187 3.25157
0.311213 -0.0185106 2.97063
-0.212204 1.01318 2.76517
1.81436 0.353826 2.67798
0.707669 0.741535 2.95762
-1.20406 0.0249272 3.09143
1.51464 0.408064 2.27178
1.45846 -0.725225 2.94129
0.439483 -0.212471 3.00166
-0.129502 0.942663 2.14989
0.355824 1.28373 2.89928
-0.46465 -1.08968 3.48393
-0.987684 0.55402 2.96334
1.33477 -0.169773 2.80998
-0.633037 0.807645 1.86557
1.69799 1.11181 2.56109
-1.10889 -0.967978 3.26557
-0.354611 0.523979 2.98269
-0.592558 -0.983396 3.43431
-1.12846 0.606026 2.8669
-1.03304 -0.133923 3.16494
1.7134 -0.794403 2.8063
1.56617 0.533863 2.7032
-0.743478 -0.0850281 3.0144
0.687241 -0.809662 3.18541
1.05543 0.0130971 2.90376
2.55362 0.00731806 3.79316
0.937213 -0.0252283 2.90859
-0.303915 0.769335 3.08366
0.224727 -0.788925 3.27747
1.03427 0.68848 2.88847
1.85746 -1.40646 3.26873
-1.38592 -0.723442 3.14278
-0.869566 0.766737 2.65009
-0.359262 0.0514489 2.9707
1.35058 0.716727 2.73033
-1.38726 -0.173111 3.08305
1.34911 -0.941793 3.07341
-0.395625 0.588514 2.9811
1.89709 0.591345 2.63969
1.54908 -0.138596 2.76057
-0.547124 0.855084 1.88399
1.88203 0.374722 2.66878
-1.43748 -0.910697 3.17817
0.615957 0.546652 2.93989
0.873054 -0.0929364 2.97408
1.39671 0.601661 2.72325
-0.102651 -0.917313 3.3246
0.784743 1.27956 2.83385
0.646587 -0.0595969 2.95467
-1.40452 -0.824811 3.13209
1.73822 0.56466 2.72102
1.15192 -1.16575 3.38328
1.74932 0.449847 2.74466
0.0793049 -0.293042 3.06669
-0.451032 0.775919 1.86275
-0.700506 0.471928 3.06317
0.0993352 -1.15606 3.54594
0.000273956 0.844452 2.09144
0.477226 -0.258142 2.98422
1.58541 -1.00622 3.13446
1.66026 -0.206686 2.73816
0.621763 0.512358 2.93877
-0.691954 0.71162 1.91368
1.33049 -0.417158 2.76016
0.973957 1.02846 2.79273
1.29693 -1.37289 3.4481
1.40442 0.316037 2.81018
-0.253589 -0.416879 3.15362
0.527639 1.03783 2.92105
0.330982 -1.32158 3.49351
0.249779 0.303421 2.93238
1.55123 0.367617 2.65363
1.28317 -0.364613 2.87359
0.69707 -1.29047 3.50021
1.1934 1.07344 2.73668
-0.621091 -1.20164 3.42862
1.81094 -0.336158 2.83228
1.3458 1.02235 2.68542
1.23359 0.360115 2.87012
0.772093 -0.899997 3.22527
1.55904 -0.0946268 2.85564
1.93199 0.000323432 2.73698
0.0836941 0.65754 3.12357
1.04295 -1.75781 3.69242
1.26533 -0.0581664 2.80156
1.65201 1.14291 2.56437
0.369459 0.725992 3.02682
-0.483229 -0.874971 3.34042
0.785996 -0.0213027 2.93193
-1.2318 0.657128 2.88305
0.230993 -0.83285 3.31072
1.32639 0.501572 2.86679
1.24743 -0.242247 2.79544
-0.262005 0.878341 1.97248
-1.22693 -1.05693 3.307
-1.27342 -1.01478 3.30419
-0.383125 0.779096 2.02934
0.844133 1.17275 2.80959
1.55823 -0.214334 2.88428
-0.467088 0.494762 3.00092
-0.680971 -1.00558 3.40069
-0.897404 0.59605 3.00068
0.0640213 -0.168247 3.0351
0.277451 0.546685 2.9357
-0.289788 -0.951917 3.33278
-0.607955 0.872411 1.88271
0.513867 -0.13217 2.9656
0.906393 1.06743 2.79274
-0.646893 0.383533 2.99329
-1.00897 -0.372964 3.1351
-1.15787 -1.21301 3.34447
1.61131 -0.326821 2.85467
-0.474812 0.756778 1.87749
1.12466 -1.21988 3.42214
0.601856 0.452435 2.92947
-0.76635 0.7273 1.85147
-0.509862 -0.290397 3.07519
0.807134 0.413442 2.93728
1.00691 -1.20532 3.5097
1.47108 -0.489737 2.81535
-0.582285 0.281475 2.97188
-0.442937 -1.44143 3.51703
1.08423 0.958288 2.78194
1.36552 0.893698 2.70469
0.976105 -1.54156 3.77692
-0.31418 0.245859 2.98858
1.2649 -0.479245 2.95251
-1.41191 -1.22748 3.1667
-1.09426 0.348625 2.94983
0.400338 -0.44814 3.09174
-0.695664 0.720306 1.93799
-0.17543 -1.33851 3.57044
1.00503 0.298747 2.93985
1.06587 -0.395961 2.9363
0.172581 1.03833 2.91661
0.73596 -1.1689 3.2767
0.993769 0.4481 2.92594
0.0257882 -0.338919 3.07739
-0.525605 0.421469 2.98591
0.378719 -1.20607 3.53745
1.02003 1.09389 2.78524
-0.993552 -0.293613 3.1284
0.218389 1.20973 2.89093
-0.842343 0.498638 3.01986
-1.3126 -0.258394 3.14438
1.54979 1.03114 2.55654
-0.956675 -1.02368 3.1619
-0.240708 -0.498391 3.15296
1.35439 0.96091 2.69759
0.600385 0.298088 2.91189
-0.866196 -1.41005 3.52645
-1.30651 -0.452151 3.15984
1.47102 0.886653 2.58314
0.401711 -1.39071 3.54851
0.873223 0.268143 2.89781
1.66153 0.334752 2.67061
0.902626 -1.32728 3.49151
-0.185149 0.790448 2.06965
0.238684 -0.409459 3.10089
-1.07447 0.352164 3.02482
1.25727 -1.24927 3.36117
1.11961 1.01961 2.7641
1.59544 -0.361662 2.83467
-0.963973 -1.48414 3.4111
-1.33858 -0.644854 3.37301
0.398689 0.162733 2.924
-0.400933 0.904983 3.01082
-0.478522 -1.60469 3.41447
-1.44955 -0.579636 3.18469
-0.852529 0.668017 2.01882
0.809817 -1.53385 3.57317
-0.829491 0.242421 2.98252
-1.00049 -0.544175 3.21812
1.67322 0.811048 2.55885
0.816577 -1.57895 3.78879
1.24441 0.190759 2.80911
-0.0310773 0.0541427 2.95924
-0.229436 1.06799 2.45253
0.994013 0.767427 2.89583
1.67893 -0.713723 2.86464
0.985315 -0.737716 3.1574
0.0269661 0.759293 3.02712
0.685573 0.0157344 2.92777
0.764642 0.119796 2.88836
-0.298996 0.874403 3.02937
1.82524 0.724398 2.59086
0.873119 -0.68867 3.1403
0.627326 -1.79174 3.90245
0.279697 0.090453 2.96665
1.05867 -0.642685 3.08003
2.50595 0.0317441 3.76995
0.76338 0.808673 2.91056
0.712273 -0.740514 3.17111
1.19866 0.76606 2.78661
1.06886 0.0779855 2.82993
1.3964 0.701165 2.68003
1.47354 -0.64237 2.86158
1.1474 0.0378202 2.86613
-0.608984 -1.57067 3.45883
-0.677637 0.159584 2.9587
2.06102 1.16102 2.81073
-1.37156 -0.647619 3.16487
-0.115062 0.924413 3.09199
-0.260189 0.121278 2.98368
-0.678045 -1.54339 3.5167
2.12463 1.06102 2.77694
0.229975 -0.629169 3.2236
1.64617 0.745153 2.61698
1.11501 -0.826637 3.07592
0.793272 -0.061322 2.92631
0.591524 -1.80192 3.73617
-0.269605 0.698078 3.15324
1.91729 0.643442 2.63433
-1.4296 -0.0233483 3.08517
-0.904012 -1.61898 3.41758
0.113958 0.755451 3.03564
1.911 -0.170432 2.73916
0.813005 -0.816422 3.19102
1.25996 0.00592622 2.79107
0.337409 0.71895 3.02863
-0.413989 -0.791936 3.30015
1.29811 0.521866 2.82819
0.169544 -0.220679 3.05386
-0.278069 0.909576 1.96615
0.0486894 -1.07183 3.40615
-0.648687 -1.00761 3.37783
-0.447503 0.756806 2.22485
-0.684305 0.801805 1.86578
0.997344 -0.182019 2.95106
0.82774 0.517606 2.98209
-0.548847 -0.956776 3.32685
1.05201 0.60368 2.90533
-0.391305 -0.140568 3.08374
0.437949 0.570427 2.91382
1.21864 -0.895831 3.16412
0.678089 1.26174 2.85842
0.417047 -0.0979548 2.98175
-1.03289 -1.22082 3.49087
-0.376032 -0.347134 3.10668
-1.31516 0.420547 2.95399
-0.393525 0.7593 1.94391
1.65655 -0.276475 2.6307
1.17166 1.12973 2.71557
0.299142 -1.21377 3.54572
0.360032 0.470306 2.88852
1.14342 -0.254175 2.8564
0.397208 1.14938 2.8646
-0.590317 0.453318 2.96211
0.446158 -1.15844 3.5274
1.26957 -0.175228 2.79347
-0.422397 0.723903 1.96896
0.310918 1.32342 2.9074
-0.947454 -0.991803 3.35506
1.13292 0.559926 2.86192
-0.685026 0.856499 1.8654
-0.81148 -0.135683 3.06287
-0.562435 0.558877 3.01955
1.83129 0.664742 2.60751
-0.777836 -0.953781 3.33481
-0.576472 -0.0960755 3.07744
-0.893222 -0.898417 3.2745
-0.1179 0.694551 3.12167
-0.190179 -0.899458 3.41722
-0.322957 -0.0584849 3.04375
1.39105 0.571738 2.77668
-1.42953 -1.08678 3.20487
0.0419595 0.493772 3.00374
0.82839 -0.301546 3.00751
0.622337 1.20241 2.88932
1.41906 0.420927 2.79018
-0.388557 -1.19923 3.66628
-0.336486 -0.262253 3.08697
1.42555 1.06418 2.64763
-0.369231 0.850351 2.41277
0.0982613 0.514963 2.96408
1.29941 -0.213537 2.818
0.690879 -1.09251 3.421
-0.911578 -0.46086 3.1933
0.825827 1.04596 2.85071
0.197043 -1.43338 3.64045
1.66505 0.300385 2.7442
-0.308043 -0.421509 3.15611
1.12992 0.994924 2.80332
0.677466 -1.38241 3.61906
0.914528 0.293127 2.88848
1.53456 0.372242 2.72045
1.64371 -1.21777 3.22696
1.52917 0.989768 2.54083
1.23603 -0.372848 2.94091
0.00274709 0.371847 2.95922
1.67248 -1.10337 3.06596
-0.808091 0.706946 1.87053
-0.72657 -0.346119 3.10541
-0.731664 -1.48741 3.48417
1.10101 -0.548486 2.93179
-1.36514 -1.29866 3.10457
-0.262093 0.193567 2.95434
1.64873 -0.500782 2.83531
-0.659709 0.644836 2.08339
0.738732 0.985053 2.88716
0.253088 0.273238 2.94351
-0.0381319 -0.510259 3.18033
0.969352 0.94205 2.8761
-0.590681 -1.40207 3.47453
1.5103 0.205234 2.72479
1.11721 -1.11505 3.36731
-0.515803 0.522266 2.98496
-0.0657829 -0.260043 3.07229
-0.317597 0.863958 1.94197
1.19926 0.46665 2.85032
-0.747077 -1.07025 3.43162
-1.13586 -0.220573 3.16095
1.54941 1.03693 2.48598
-1.51935 -0.956563 3.17289
1.66409 0.544457 2.77706
1.2533 1.17433 2.70505
-0.240913 -0.175469 3.06772
-1.12992 -0.915115 3.20844
-0.0201185 0.564394 3.02025
0.315662 -0.137147 2.98318
-0.515678 0.853849 1.88441
0.88092 1.07885 2.83421
-1.101 0.378381 2.99407
1.17903 1.00324 2.72874
-0.490551 -0.37573 3.0727
0.981284 0.331618 2.94474
0.0562677 -1.3245 3.61946
-1.1334 -0.360962 3.26807
1.54607 1.00875 2.5087
-1.25824 -1.16037 3.33531
0.756585 0.450305 2.94559
0.258691 1.14527 2.94022
0.450747 -0.292536 3.00279
1.32823 0.392989 2.8158
-0.614411 -1.18304 3.49014
-1.20989 -1.32774 3.24371
1.53109 0.238857 2.59003
1.31806 0.944781 2.75062
1.31204 -0.511167 2.91897
-0.675022 -1.40243 3.49726
-0.623784 0.234998 2.91141
0.999689 -0.491394 3.02157
-0.46678 0.687049 2.08122
0.728589 -1.40664 3.56551
0.698647 -0.457797 3.09502
-0.0348416 -1.3494 3.56811
0.766426 -1.81142 3.81853
1.50412 0.27838 2.7741
-0.189643 -0.417204 3.12877
-0.545804 0.699421 2.00116
-1.46123 -0.69239 3.19233
-0.646331 0.860059 2.9774
-0.12044 0.125588 2.99436
0.0622102 0.833623 3.02535
-0.723087 -0.683182 3.37409
-0.992812 0.10537 3.2274
0.079418 -1.58782 3.47494
0.74673 -0.611803 3.12441
0.187783 0.949989 3.01502
0.63774 -1.65805 3.72989
1.53457 0.179205 2.81478
-0.178497 1.11825 2.8731
-0.732557 -0.571776 3.18194
1.59793 0.772745 2.58835
-1.34595 -1.40376 3.32542
-1.03971 0.167355 3.00203
1.00414 -0.482732 2.951
1.08497 0.295761 2.92149
-0.69272 0.706165 1.97822
1.06961 -1.36323 3.33697
-1.09408 -1.28872 3.32486
1.24003 0.258829 2.838
1.51442 0.890832 2.61363
0.0799875 -0.454846 3.1178
-1.48341 -1.23678 3.29133
1.09065 0.360194 2.90007
-1.3311 -0.431946 3.24046
-0.231642 0.776785 2.03586
-0.932095 -1.23833 3.41653
-1.36019 0.343717 2.99125
1.4874 -0.364495 2.8352
-0.42152 0.736629 1.99578
1.23146 0.834683 2.78452
-0.416277 0.159395 2.98653
-0.76255 -0.623762 3.26095
0.108857 -1.63551 3.69187
-0.709643 0.662478 2.00633
1.46808 -0.567762 3.02083
-0.347955 0.239686 3.04302
-0.173142 -1.5456 3.59448
-0.431645 -0.541887 3.21424
1.35981 0.851448 2.71721
0.222121 -1.47205 3.53641
-0.891043 0.197973 2.96967
-0.247178 1.01422 2.23559
0.496758 0.0471574 2.93729
-1.10121 -0.79813 3.36367
-0.621634 0.771479 2.94111
-1.07296 0.748982 2.97518
-1.41462 0.0209041 3.16808
1.38919 -0.710285 3.00153
0.392425 0.117093 2.93502
1.46478 0.334346 2.19322
0.570346 0.843062 2.93523
-0.86624 -0.698477 3.23187
0.143551 -1.58979 3.45675
-0.82683 0.0923452 3.02351
1.9149 1.12895 2.95513
-1.06975 0.787777 2.8377
0.182501 -0.66339 3.21084
1.2838 0.579265 2.7871
1.84249 0.320645 2.68443
-0.366753 -0.091008 3.05678
0.0100846 -1.71773 3.67611
-0.989195 -0.908696 3.326
1.67293 -1.06705 2.94595
-0.658337 -0.0558451 3.06062
1.7651 0.667574 2.81666
1.48151 -0.801945 2.96351
-0.689443 -0.019149 3.04544
-1.05359 0.661263 2.97496
-1.20345 0.238155 3.00156
-1.18662 -0.794738 3.20053
0.0177677 0.716998 3.24393
0.0351453 1.26545 2.85567
-0.470874 -0.0608898 3.06281
-0.386022 0.866366 2.36069
0.115845 -0.883719 3.33349
-1.45425 -0.0286193 3.08773
-1.2 0.729524 2.91628
-1.23605 -0.789088 3.15122
1.43915 -0.00377583 2.80882
-0.696291 0.704588 3.01575
1.76007 0.935129 2.55655
-0.0897305 -0.799907 3.31131
1.71195 0.48365 2.64187
0.33585 -0.227763 3.04978
-0.377161 0.846988 1.91256
-0.987038 -1.05657 3.38722
1.30311 -0.955138 3.11165
0.466298 0.499316 2.9011
-0.135685 0.992415 2.64358
1.15892 -0.175071 2.79147
-0.354958 0.869008 2.45738
1.84576 -0.861109 2.91416
-1.02252 0.611674 2.97352
0.984472 -0.147403 2.92844
-0.758999 -1.0156 3.6301
0.377974 0.564846 2.93297
0.484408 -0.102236 2.99209
0.926401 1.25351 2.77988
-0.553087 0.745637 1.90837
0.917994 0.401065 2.93973
0.472181 -0.348051 3.04492
1.21585 -1.18659 3.29108
1.58755 -0.305119 2.96751
1.6494 1.04917 2.54887
1.12145 -1.20536 3.47579
1.12092 0.467775 2.89568
1.33005 1.06271 2.64562
-1.42535 -0.270369 3.11291
-0.254592 0.455526 2.98716
0.595786 -1.11982 3.37632
0.398212 -1.44411 3.5385
1.17215 0.281042 2.82392
-0.799785 0.692975 1.96871
1.19206 -0.476605 2.88631
-0.207459 -1.39894 3.5611
-0.688474 0.271359 2.96749
-0.366517 0.720926 2.09565
0.73678 -0.453433 3.01921
0.0659372 -1.34897 3.54484
0.450193 0.358086 2.89276
0.705159 -0.418702 3.04499
-0.4521 0.741319 1.95256
-0.11316 -1.27238 3.46892
-0.969687 0.328258 2.96013
-0.236808 -0.383584 3.13093
1.50789 0.944085 2.58069
0.865753 -1.1772 3.38664
-1.50975 -0.321261 3.22292
0.456067 0.437949 2.91119
-0.294192 0.781421 1.96586
1.08999 -0.258772 2.8564
-0.696444 0.684897 1.9361
-1.35136 -1.06488 3.2319
-0.43142 0.517864 2.99673
-0.752276 -0.221721 3.05481
1.10506 1.11489 2.70725
0.915164 0.474348 2.93492
0.405378 -1.0812 3.39853
1.50934 -0.435274 2.82337
1.15783 0.306851 2.83218
-0.599709 0.697547 1.94523
-0.437444 -1.36007 3.47665
-0.89218 -1.28205 3.40696
-0.0290184 0.298782 2.9381
-0.660605 0.693995 1.95878
-0.584281 -0.430086 3.22102
-0.740695 -1.26126 3.45028
-0.926638 0.406836 2.95804
-1.09574 -0.37046 3.02538
0.39715 1.11199 2.86719
-1.06255 -1.18445 3.34904
1.67438 0.328998 2.71596
-0.610361 0.723529 1.91001
-0.783661 -0.354384 3.16444
0.881842 -1.50675 3.46435
0.891581 -0.575787 3.06091
0.297537 0.185911 2.94098
0.293574 0.94088 3.03599
0.817539 0.978056 2.88362
1.03162 -0.530432 3.00443
0.194133 -1.69904 3.59636
-1.53939 -1.38462 3.31474
1.14146 0.252848 2.83861
-0.177006 -0.510429 3.16421
1.11174 0.902232 2.77476
0.0146041 -1.44181 3.55219
0.361255 0.222006 2.92213
0.932062 -0.733983 3.12618
1.55882 0.0708904 2.9797
-0.537077 0.816517 2.99568
1.36438 0.699626 2.69219
0.288742 0.0400909 2.96602
1.09963 -0.677451 3.03006
0.206141 0.149277 2.968
-0.568173 -1.56082 3.43237
1.38181 -1.3644 3.26577
0.965638 0.853129 2.87208
-1.35197 -0.665363 3.21196
-0.217785 -1.59431 3.58221
0.242692 0.114513 2.96759
-1.23651 -0.650299 3.34766
2.26641 1.07214 3.02655
-0.393993 0.871303 3.06476
0.481742 1.08427 2.86831
-1.24393 -0.418707 3.1647
1.47688 0.352594 2.87633
0.957995 -1.50298 3.92714
-0.225691 0.764304 2.06991
0.175467 -0.380028 3.07995
0.886922 0.323364 2.93431
0.930211 -1.33439 3.58082
-0.0143381 0.452241 2.96859
1.34129 -0.326159 2.78037
-0.41072 -1.24921 3.52938
0.483907 1.14846 2.86199
-0.420366 -1.19327 3.502
1.11936 1.04895 2.69002
-1.12973 -0.303664 3.18932
0.75854 0.404493 2.93036
-0.0792432 0.273202 2.95883
0.875513 -1.50384 3.58873
-1.1635 -0.560715 3.3415
0.452215 1.00386 2.94262
-0.802363 -1.3956 3.46916
0.231645 0.227266 2.9349
-1.16686 -0.513 3.24705
0.385278 0.960419 2.94113
-0.404441 -1.37693 3.52739
0.654349 -0.460416 3.08193
-1.35385 0.304563 2.95481
1.47227 0.914242 2.58704
0.400841 0.850957 2.97763
0.126876 -0.707922 3.23645
1.00228 0.109118 2.8869
0.564106 -0.669882 3.21246
0.442378 0.81406 2.95769
1.12689 -1.75772 3.79136
-0.47494 0.0854437 2.96667
-0.453848 -0.634254 3.28805
1.16019 0.175848 2.81267
-1.21103 -1.42293 3.22923
1.75876 0.080732 3.3104
0.887735 0.911524 2.91021
1.70141 0.781231 2.63692
-1.11307 -1.41511 3.32664
-0.263547 0.155156 2.94583
-0.484801 -0.596213 3.28432
-1.24765 0.0180588 3.12593
-0.346056 -0.84601 3.36959
0.903053 0.719499 2.89449
1.71036 -0.0358968 2.71981
-1.41879 -0.77238 3.19803
-0.536906 0.717999 3.05983
-0.785016 -1.26193 4.36702
1.54789 0.0507781 2.37198
0.608134 0.790355 3.00215
-0.606117 0.0500008 3.01744
1.09865 -1.67317 3.51851
0.0273849 1.222 2.8856
-0.088448 -0.747922 3.25206
-0.574065 0.823939 2.73082
1.13692 0.139999 2.83883
-0.517347 -0.632356 3.24976
0.257043 0.866586 3.04539
-0.801611 -1.55375 3.51873
-0.940098 -1.62989 3.44006
1.68094 0.096164 2.77258
0.556628 -0.5916 3.18665
-0.564111 0.68391 2.09054
0.256741 -1.56219 3.6206
-1.00371 0.239867 3.01805
-1.22206 -0.560087 3.29915
1.20698 0.863877 2.7794
-0.0820689 -1.49768 3.5909
-1.42676 0.199966 3.08526
2.14965 1.06415 2.93765
0.191282 -0.797001 3.2846
1.63489 0.0311501 2.71951
-1.13093 0.781941 2.96833
-0.601736 0.0143661 3.03238
-0.696655 0.733692 2.95244
-1.18682 -0.725379 3.18959
-0.358847 0.982415 2.70355
1.63022 -0.665689 2.93503
1.56095 0.0637674 2.71112
0.668536 -1.85065 4.01866
1.97006 0.11145 2.63574
-1.25399 -0.678596 3.31223
0.084395 0.82443 3.01414
1.61323 -0.144577 2.80366
1.44032 -0.872056 2.93963
1.07742 0.594697 2.88802
1.93372 0.544851 2.64512
1.15446 -0.0979331 2.78899
0.393936 1.31918 2.89793
-0.0690288 -0.92297 3.32351
-0.644935 0.60334 3.07664
1.88897 -1.02722 2.90698
1.61734 0.619727 2.65278
-0.734924 -0.0570174 3.04112
1.52982 -0.802904 2.95669
0.87205 0.638762 2.91569
-1.38956 -0.022546 3.11351
1.51748 -0.75918 2.92808
1.18801 -1.29551 3.39879
-2.54676 -1.9648 5.52484
0.645941 0.505179 2.92793
0.624703 -0.263706 2.96725
-0.790044 0.735677 2.37372
-0.0961698 0.486262 2.96771
0.484211 -1.09617 3.45037
-0.411878 0.772542 1.87237
0.491161 -0.220287 2.9844
1.4767 -0.886608 2.87416
0.0874582 -0.179855 3.02982
-1.28686 0.532451 2.87086
0.161509 1.30212 2.89723
-1.09533 -1.01986 3.2439
0.45727 0.528047 2.90987
-0.294167 -0.228298 3.10065
-0.611645 0.896036 1.86309
-0.126969 -1.03966 3.4356
1.14269 0.495747 2.90027
0.948385 -0.191036 2.93387
-0.232859 0.814696 1.92897
-0.054303 -0.977273 3.34845
1.79809 -0.151574 2.80707
-1.33571 0.566818 2.89898
1.06217 1.23217 2.73713
-0.756424 0.7275 1.87359
1.11162 -0.370272 2.90212
-0.752634 0.406055 2.97169
-0.397526 -1.30032 3.52851
0.633822 1.08816 2.88936
0.0904347 -0.355838 3.09853
-1.23118 0.374537 2.99753
0.517983 -1.29825 3.60419
0.935081 -0.307101 2.96608
1.37079 1.08102 2.62793
-1.04323 -1.13653 3.34517
-0.892575 0.478649 2.95605
0.851904 -0.276302 3.01421
1.63044 1.00126 2.49048
0.267763 0.429923 2.89173
0.0151569 -1.13393 3.42846
1.63132 0.259212 2.63582
1.36256 -1.42309 3.44079
-1.24316 -0.51912 3.25903
-0.483358 0.708318 2.00791
0.35462 -1.33594 3.36407
1.31642 0.249788 2.82652
-1.03789 -0.455774 3.1011
-0.512979 0.695874 2.03742
-1.12808 -1.26129 3.33074
0.804736 -0.423629 3.03993
1.45975 0.299742 2.79524
1.59442 0.946788 2.60187
0.0511157 0.900491 3.04867
-1.4203 -0.653552 3.11978
0.34876 0.149151 2.96204
1.14733 -1.66788 3.58538
0.337173 0.860384 3.02656
-0.49563 -0.647756 3.30836
0.182689 0.110184 2.95351
1.49051 -1.61079 3.54077
1.52045 -0.536997 2.79938
-1.32521 0.24053 3.06117
1.30227 -1.58136 3.60963
0.294642 0.974605 2.99862
1.43631 0.82269 2.66969
0.915484 -1.53157 3.63293
1.01642 0.171511 2.86089
0.368727 -0.547326 3.14127
1.56145 -0.444101 2.86219
0.0821616 0.318646 2.91798
1.28924 -1.42272 3.53586
0.427729 1.05041 2.89333
0.56636 -1.36135 3.52742
1.24387 0.9642 2.75057
0.195173 0.290712 2.92378
-1.32449 -0.426874 3.16585
1.04829 -1.21183 3.23982
1.64465 0.362434 2.68126
0.615069 -0.385742 3.03323
0.0277384 1.11452 2.88211
-0.0875489 -1.35896 3.788
0.228186 0.359173 2.93319
0.154914 1.10485 2.93877
-1.18231 -0.352828 3.12717
-0.0643709 0.928786 3.01853
-0.961205 0.190765 3.039
0.821884 -0.582486 3.10204
0.846731 -1.5071 3.45877
-0.600288 0.665586 1.9832
0.971963 -0.539849 3.02714
0.146665 0.265749 2.92768
0.139559 -1.54653 3.67254
1.13194 -0.48449 2.93399
1.52329 0.85131 2.62341
1.47527 -1.40791 3.37632
1.4084 0.209045 2.85927
-1.38691 -0.786558 3.32934
-1.46054 0.0835233 3.20479
0.300702 0.787507 2.91925
-0.957485 0.0446218 3.03401
-0.500649 0.796812 3.06144
0.259185 -0.724907 3.28261
0.817325 -1.75219 3.75753
1.00667 0.136051 2.87939
-0.560171 0.914472 2.86524
1.16599 -0.634346 2.95823
-0.456257 0.886258 3.0011
0.709743 0.103111 2.90871
0.151588 -1.6119 3.59946
-0.160817 0.527174 1.46593
1.47603 -0.577531 2.83187
-0.837467 0.843943 2.93942
1.13727 -0.107652 2.80799
-0.212648 0.650361 2.98077
1.19993 -1.70829 3.66355
1.24793 -0.895969 3.14727
0.379769 -0.067658 2.95449
-1.04582 -0.873707 3.32107
0.45201 0.59966 2.95193
1.53356 0.263288 2.30682
0.604539 0.736232 2.98703
-0.753481 -0.0302586 3.04917
1.25063 -1.69672 3.54153
0.560453 0.00115987 2.97423
1.77971 0.801768 2.58514
-0.943948 -0.987872 3.80054
1.27652 0.642726 2.78704
-0.561331 -0.850129 3.46276
1.75847 0.908798 2.56493
0.0294981 -1.51584 3.62601
-0.273615 0.268369 2.9607
0.25 1.01688 3.00041
0.903188 -0.541037 3.05946
-1.2028 -1.36616 3.4065
-0.868799 0.231222 3.01618
-0.685998 -0.509018 3.22039
0.70232 0.95073 2.91353
0.0647681 1.02306 2.92666
-0.965465 0.304491 3.00931
0.119848 -1.71164 3.61892
-0.0648919 -0.475146 3.18468
-1.04554 -1.31224 3.37147
1.15907 -0.676252 3.00714
0.724288 0.840104 2.95886
-0.892191 0.120641 3.04132
-0.847226 0.833205 3.04682
0.913471 -0.671321 3.17094
0.526864 0.0779801 2.91436
1.24467 -1.62242 3.48901
1.02635 -1.62613 3.60965
0.0358876 0.179206 2.94574
2.24913 1.03355 3.08426
1.54957 -0.569004 2.78344
-0.398351 0.914773 2.9663
-0.897701 0.153256 2.97847
-0.355141 -1.46777 3.41979
-1.15185 -0.603854 3.33516
0.180413 0.890212 2.99652
0.419421 -0.842619 3.29396
1.04322 -0.0358389 2.90495
1.58999 0.0482111 2.41468
0.889679 0.674646 2.88972
-0.518696 0.919414 2.87308
-0.0485927 1.11677 2.43854
-0.875704 0.767845 2.95296
-1.35356 -0.795949 3.30382
-0.102979 0.0429338 2.99269
0.485536 0.734308 2.98578
0.572943 -0.758488 3.23195
-0.192204 0.00947497 3.02031
-0.318107 0.659356 1.67429
0.502851 -0.183173 2.98909
1.52432 1.10129 2.56529
0.258437 -1.05548 3.48335
-0.174183 0.556293 2.84814
1.72449 0.926247 2.55763
-0.292516 -0.139445 3.01667
-0.167099 0.878306 2.01452
-1.29082 -0.936824 3.25934
1.63854 0.510108 2.81467
0.549196 -0.930777 3.30732
1.41572 -0.105314 2.73223
-1.30289 0.618041 2.80575
-0.669704 -0.915773 3.45078
1.58299 0.541073 2.65376
1.28446 -0.0709848 2.77774
0.286457 -0.818562 3.34747
0.0325961 0.0385481 2.95725
0.446501 0.767189 2.95233
0.91559 -0.749631 3.16922
1.746 0.000938911 2.74405
1.01564 0.71473 2.89161
2.33915 1.01854 3.15085
1.512 -0.0325874 2.21669
0.693846 -0.703576 3.16558
-0.936401 0.0826759 2.95568
1.961 -0.00253842 2.64245
-0.508751 0.819252 3.01863
-1.13307 -0.148107 3.1015
0.7537 -0.976327 3.30556
1.70695 0.916243 2.56318
0.408168 0.56751 2.7881
0.764538 1.25304 2.83495
1.54835 -0.881175 2.80403
-1.47177 -0.104986 3.20357
-2.80831 1.13414 5.80529
-0.852832 -1.64652 3.45334
0.105862 -0.935961 3.34681
-0.909084 -0.0601114 3.08291
0.994982 -0.89319 3.29959
1.25784 0.652346 2.81177
-1.99913 -1.05163 4.04714
0.0532653 0.711404 3.21791
-0.347034 0.906233 2.60468
-0.305938 -0.0291664 3.04707
1.09146 -1.14612 3.43126
1.70026 0.457083 2.64536
-0.15109 -0.26606 3.05655
-0.370783 0.760643 2.17196
0.476056 0.468813 2.90251
-0.164558 -1.08422 3.43791
1.02099 -0.22519 2.91432
-0.190871 0.8113 1.96998
-0.61316 0.878672 1.86664
1.22032 0.511589 2.81648
0.434977 -0.185773 2.99839
1.50544 -0.99233 3.20676
1.31167 -0.393966 2.79998
1.4765 0.998432 2.64523
-0.276905 -1.32338 3.4719
0.702741 0.359536 2.92813
1.39902 -0.361908 2.82455
-0.532851 0.713465 1.95112
1.44433 -1.27405 3.38401
0.18686 0.320693 2.91661
-0.517271 0.443492 2.94681
1.66712 -0.327827 2.70878
-0.207391 -1.23202 3.46026
-0.362835 0.77134 1.91824
-0.129963 -1.18394 3.43981
0.324541 0.39606 2.9117
-0.187045 0.792989 2.0354
-0.645359 -0.301425 3.05228
1.70152 -0.360387 2.6883
0.736142 1.10005 2.85415
-1.32993 -1.215 3.30863
-1.34219 0.39804 2.93293
0.565633 1.09084 2.9161
-0.443642 -0.369524 3.19868
-0.122253 -1.33388 3.71116
1.71434 0.327839 2.71842
1.38553 0.443962 2.81147
0.590695 -0.321225 3.0261
-1.15063 -1.12829 3.27064
0.279706 1.20491 2.94876
0.564357 -1.1795 3.51695
0.0514189 1.13114 2.84888
-0.18545 -0.270441 3.05308
-1.0465 0.424016 2.8659
1.04637 -1.42336 3.44469
1.77638 0.268372 2.79643
0.453471 -0.521692 3.19356
1.58051 0.90176 2.58103
-1.3385 -1.28067 3.27191
0.515902 0.252863 2.83448
1.44591 -0.441157 2.8219
1.58114 0.855767 2.54663
-0.15244 0.901821 2.4534
-1.33553 0.338641 3.03043
-0.134606 -0.436228 3.14631
-0.827375 -1.27615 3.35016
0.645994 0.876369 2.96068
-0.0685967 -1.70385 3.60314
0.619829 -0.678354 3.17594
-0.653897 0.143849 2.96875
-0.044629 -1.68335 3.65756
1.24986 -0.612777 3.00947
-0.867396 0.824219 2.87292
0.88212 -1.73884 3.82876
-1.47654 0.124126 3.22625
-1.41107 0.228334 2.98102
-0.415182 -1.47933 3.42273
-1.18697 -0.614192 3.33075
1.31381 0.874202 2.70452
1.75187 -1.57246 3.68514
-1.29576 0.188305 3.04769
0.751268 -0.550226 3.10012
-0.777618 0.670276 2.17089
1.51213 0.0228295 2.89317
0.315345 -0.821991 3.34579
1.52838 0.672959 2.61382
-1.42728 0.00016425 3.07337
-0.91782 -0.773988 3.32095
1.54342 0.648429 2.6572
-0.344284 0.696312 2.19031
1.50357 -1.46411 3.36721
1.68006 0.708744 2.6364
1.28616 0.0593829 2.79993
1.8929 -0.278388 2.72522
0.00571474 -0.714265 3.22207
-0.932448 -0.631272 3.20218
1.14779 0.851967 2.77659
1.10385 -1.63864 3.61351
1.6883 0.156628 2.78131
0.337205 -0.589216 3.13453
-0.0429083 0.905601 3.06653
-1.34151 0.154134 3.06427
-0.61982 -1.49621 3.46098
0.768294 0.96705 2.86956
-0.659162 -0.572949 3.30771
1.16414 -1.61406 3.77929
-0.0444645 0.263207 2.93946
1.79933 -1.92875 3.97351
0.744792 -0.514003 3.11153
0.785904 0.932562 2.89498
-1.24198 -1.30572 3.23655
1.47908 0.204346 2.83485
-0.0233885 -0.763118 3.24662
0.736804 0.0638595 2.92577
1.17564 0.753225 2.79519
-0.0735378 0.0328916 2.96338
0.769057 -0.712097 3.17772
-0.18685 0.773864 3.02669
1.35715 -1.69859 3.62953
1.90921 -0.32841 2.73344
1.15502 -0.653541 3.01138
