ply
format ascii 1.0
element vertex 1847
property float x
property float y
property float z
end_header
-1.01514 -0.762205 3.35869
-0.709419 0.0893819 3.07948
1.78283 0.321518 2.81115
1.18184 1.46196 2.80709
-0.947568 0.786848 2.83595
1.52809 -0.031583 2.25804
1.27418 0.70872 2.75988
-0.330411 -1.33523 3.54181
-0.922717 0.748529 2.71925
-0.624363 0.0421179 3.07598
-0.807531 -0.728297 3.41938
0.287204 0.77793 3.0304
1.4795 -0.86592 2.94899
1.90414 0.236439 2.71262
1.18217 0.560769 2.84669
-1.29193 -0.13847 3.10228
-0.323222 -1.66525 3.51527
1.78041 -0.150222 2.84986
0.294027 0.545292 2.91648
0.464191 -2.36342 3.56535
1.08303 -0.961075 3.4205
-0.40008 0.757412 2.07543
-1.33976 -0.0973123 3.22966
0.848303 -1.57936 3.5249
-0.264057 -0.868513 3.34512
-0.66036 -0.0595735 3.08089
1.48038 -1.40413 3.34438
1.74601 0.845383 2.55465
1.51369 0.773609 2.57613
0.95213 -1.63242 3.61815
1.16988 0.603001 2.85783
-0.902765 -0.301512 3.14313
0.509778 -1.61984 3.63334
-0.388859 0.782165 1.90483
0.198302 -1.2297 3.57518
0.868481 0.447373 2.89483
0.187103 -1.27719 3.54768
1.25649 1.08756 2.72035
1.53331 -0.266732 2.94474
0.186461 0.427984 2.8898
-0.445987 -1.11763 3.45183
1.72668 0.438064 2.70271
1.33773 -2.86414 4.21764
-1.06286 0.553962 2.99191
0.998438 -2.13899 3.34234
0.852301 -0.219903 2.98981
-0.130546 1.19689 2.83933
-0.427071 0.898959 2.65707
1.20468 -1.82869 4.07923
0.66926 -1.05593 3.36643
-1.28906 -0.949503 3.20375
-0.749792 0.676347 2.06743
1.07641 -0.17666 2.83943
1.3395 0.484595 2.79744
-0.556669 0.734116 3.07007
-1.48316 -1.2068 3.17723
-0.0412179 0.355309 2.94109
-0.702303 -0.435027 3.22181
1.03466 0.995442 2.74562
1.57823 -1.26464 3.40257
1.19705 0.975794 2.58883
1.46964 0.28797 2.74517
0.868287 -0.355927 3.00868
0.163845 0.83746 1.77761
-0.101527 0.957716 2.55827
1.44267 1.00601 2.58403
2.72195 0.887604 2.82048
0.964146 0.375107 2.89591
0.888519 -1.75749 4.15984
-1.27445 -0.356132 3.1706
0.0843583 1.14884 2.27794
1.37076 -1.79873 4.22331
0.663352 -1.17014 3.31856
-0.745608 -0.250468 3.05746
-0.688678 0.687041 1.96447
1.97047 -1.09272 3.37502
0.579868 0.484441 2.93735
1.35952 0.958365 2.60725
0.599773 -0.222236 2.92853
-0.611208 0.759243 1.86665
2.05499 0.28547 2.89373
1.38432 0.48743 3.0495
-0.938001 -1.08457 3.51164
1.02653 1.17185 2.48958
0.408346 1.31432 2.90851
-1.29305 -0.181898 3.12582
0.014165 -0.109054 0.6899
0.860698 -0.96905 3.22164
0.715646 0.532247 2.92211
0.948284 1.14915 2.38335
-0.568872 -0.134739 3.11714
-0.409925 0.895206 1.91591
0.0795698 1.22338 2.70213
0.864298 -1.6282 3.62194
-1.07239 -0.982802 3.4637
0.747001 0.517385 2.9386
-0.958801 0.408416 2.94952
0.161036 1.5106 2.75288
0.208303 -1.29956 3.58031
0.348439 1.09087 2.92054
-0.199201 -0.374311 3.10942
0.750875 0.335792 2.90626
1.48742 -1.60463 3.95427
-0.627002 -1.16693 3.36451
-0.0763404 0.916668 2.37899
1.12103 -0.320349 2.8943
0.136758 1.27562 2.32274
-0.962377 -1.12543 3.36832
0.823925 1.18109 2.45992
-1.22517 -0.302613 3.1612
-0.223725 -1.09416 3.41285
-0.0434846 0.437431 2.95098
-0.290218 -0.0220302 1.49888
-0.398413 0.771284 1.92177
1.56761 -2.25832 3.99582
-0.211159 0.96907 2.89987
1.3212 -2.3465 3.98368
0.472944 -0.543099 3.15518
0.289446 -1.557 3.74514
-0.156004 0.256742 2.94971
0.0454907 0.539182 1.34517
1.49872 -0.461132 2.83776
0.322529 0.945425 3.03155
0.51702 -0.185312 0.369579
0.995678 -1.52539 3.76912
-0.801109 0.231671 2.98481
0.797747 -0.43845 3.04987
0.00894515 0.572697 1.30083
-0.360596 0.740499 2.01194
2.28627 0.13815 2.97532
0.977536 -1.39792 3.54883
1.1561 -1.6359 3.54064
0.137918 0.302447 2.87759
1.15244 -0.388412 2.8616
-1.2529 -0.354956 3.93368
0.905431 0.932602 2.80848
-0.0823533 0.636782 3.02546
0.401984 -1.305 3.4742
1.81263 0.27603 2.7715
2.06649 0.600486 2.65346
1.28091 -1.59951 3.63615
2.00933 0.37252 2.76192
1.5168 0.146963 2.86714
1.09015 -1.76356 3.79159
1.39538 0.779196 2.63395
-0.00800061 -0.664459 3.23774
1.05834 -1.57542 3.56655
-0.327233 -1.09386 3.49564
0.610225 0.0943246 2.86632
-1.27778 -0.64144 3.31891
1.42264 -1.92563 3.76444
0.0447607 0.82403 3.05165
0.419211 -1.4906 3.52046
1.65238 0.598006 2.64635
3.00522 -0.891297 3.17234
-1.40148 -0.603882 3.3053
1.92326 0.292854 2.8469
-0.879256 0.196622 3.03982
-0.293716 1.40985 2.92508
0.59284 -1.55975 3.63661
-0.54747 0.671654 2.15701
1.28416 -2.42957 3.47841
0.422187 -1.60848 3.61667
0.555035 0.162782 2.84863
2.09095 0.285446 2.75534
1.20137 0.816998 2.72857
-1.13676 -0.646782 3.28527
2.29498 -1.16712 3.27322
1.58644 0.119621 2.73104
1.26291 -1.66972 3.49696
1.2055 -1.57569 3.63775
1.18312 -1.63614 3.59432
1.239 -0.560293 3.03291
-0.250222 0.845972 3.01881
0.357963 -1.45957 3.56317
-0.404846 0.982995 2.96066
2.09158 -1.05229 3.40331
1.69794 -0.501659 2.81355
0.77247 1.43122 2.84664
1.487 0.1935 2.77979
-0.286993 -1.41166 3.53474
2.26263 0.24428 2.75094
0.127161 0.515605 2.7536
-0.691174 0.664553 2.0312
2.11128 -0.433985 2.80747
1.49825 0.106542 2.82108
0.864294 -2.20949 3.53925
-0.356824 0.749813 3.03875
0.13279 -0.788399 3.23842
2.40607 -1.55688 4.43329
-0.89133 0.0443609 3.07497
0.834758 0.683895 2.88963
-0.230226 -0.778211 3.33853
-0.983246 -1.10319 3.40953
1.11005 -0.0104953 2.80082
0.750229 -1.8022 3.56609
0.53418 -0.711062 3.24266
0.0854871 0.814164 3.04972
2.34284 -1.26674 3.25013
-0.867735 -0.309055 3.11476
1.4585 0.0982497 2.934
-0.899855 0.775997 2.67336
0.925987 -2.67742 3.71628
-0.45976 0.793836 3.09151
1.54656 -0.605436 2.86885
-0.84806 -0.315926 3.11038
1.79607 0.071234 2.8296
0.0319647 -1.65139 3.61087
1.92112 -0.0468314 2.64182
-0.427601 0.247401 2.94624
-0.215713 -0.941868 3.41773
-0.164915 0.910843 1.95835
-0.0277274 -0.108007 2.99652
-0.00891873 0.827615 3.736
-0.708851 0.552018 3.04097
0.244832 0.581196 2.93643
2.52761 -0.348985 3.32797
-0.327558 -0.868031 3.39744
1.40106 -0.0659881 2.833
-0.888242 0.0210821 3.47337
0.380565 -0.830683 3.31616
1.76801 1.04687 2.55561
-0.911227 -0.0279815 3.1016
1.81805 -0.748594 3.03964
1.80052 0.892385 2.53769
1.00902 1.59809 2.95885
1.50832 -2.21175 3.4738
0.804701 0.644095 2.90837
1.16181 -0.241359 2.86368
-0.763078 -0.666088 3.26942
1.4419 0.792106 2.56034
-0.732385 0.687928 1.97572
-0.422863 -1.16719 3.59446
1.47235 0.460635 2.76992
-0.688166 0.757374 1.8391
0.392314 -0.211969 3.04709
-1.03732 -1.02005 3.26772
-0.566217 0.476633 3.05196
-0.859754 -0.45716 3.17901
0.889143 -2.08114 3.66938
-0.703945 0.594591 3.18995
-0.651965 -0.190479 3.11562
1.03451 1.14902 2.52085
-0.873048 0.225118 3.04006
1.44771 1.15463 2.59903
0.993702 -2.24999 3.43903
0.503303 -1.00822 3.37613
0.246248 -1.00017 3.5124
-0.467409 0.83472 1.89963
0.827937 -0.140715 2.94345
0.764706 0.505568 2.94924
0.315758 -1.68569 3.59004
0.764039 -1.63589 3.74938
2.08032 0.208106 2.87622
0.0903136 -0.0652098 2.95086
-1.2583 -0.839177 3.17731
0.949082 0.642236 2.9106
1.479 -0.743467 2.89846
-0.986417 0.235092 2.99431
0.321128 -1.91594 3.60162
1.89074 0.776404 2.9598
-0.946124 -0.0285783 3.08275
0.146857 -1.65755 3.59161
1.69297 0.577801 2.67202
-1.07126 0.04377 3.01083
-0.488793 0.714141 1.98687
-0.943131 -0.790824 3.35021
2.54185 -0.388288 2.96083
0.196308 0.759903 3.0705
-1.01782 0.365174 3.02774
0.503855 0.00604774 2.94446
-1.4064 -0.757761 3.2587
-0.0979728 0.950685 2.03509
0.299606 0.727811 3.03784
1.67875 0.773233 2.67993
-0.946581 -0.0718949 3.09866
-0.106224 -1.41982 3.54996
0.0113534 1.22462 2.80178
-0.0571867 0.521226 2.99214
0.74959 -1.60278 2.1883
0.862319 -0.180982 2.98206
-0.767779 0.158477 3.05743
-1.49506 -0.99237 3.26894
1.72522 0.758463 2.58501
-0.892453 0.197821 3.62211
1.05054 -0.15044 2.85412
-0.190165 -0.956244 3.38051
0.361123 0.578816 2.9943
1.09822 1.08978 2.51272
1.92335 -0.550966 2.91894
-0.116721 -0.12212 3.0693
1.72428 0.508951 2.65064
0.379108 1.21944 2.92078
0.395408 -0.901485 3.26956
0.214035 0.414389 2.90115
0.584948 -2.04909 3.56997
0.378424 -1.26597 3.58494
-0.16939 -0.351788 3.10707
1.36446 1.03385 2.61016
-0.677483 -0.101577 2.15955
0.509863 -1.70787 3.82071
-0.890572 0.403001 2.94838
-0.473656 -1.20939 3.55497
0.56577 1.37946 2.86599
1.35117 1.00572 2.60142
-0.049027 -0.3068 3.08963
0.327296 1.48954 2.70041
-0.855197 -1.07911 3.34765
1.0357 0.470489 2.90966
1.91208 -2.6198 4.51859
0.580511 -0.276062 2.97145
-0.308641 0.798527 1.88363
-0.205559 1.13752 2.95333
-0.463907 0.47386 3.03676
-1.18067 -1.01658 3.30085
1.41387 0.718516 2.6173
-0.830122 -0.238388 3.14412
0.396098 1.13101 2.8665
-0.798872 0.691624 1.95947
-2.09127 -0.767686 4.60077
1.59632 -1.90776 4.29725
1.11345 0.258649 2.79808
0.0827789 0.76343 1.54832
-1.14981 -0.469419 3.13971
-0.533933 0.695571 2.04281
0.642791 -1.48197 3.72914
-0.00839739 -1.42575 3.6864
1.067 0.235086 2.86746
-0.238028 -1.212 3.51964
-0.68296 -0.43312 3.25616
1.01456 -2.18697 4.09927
0.417212 1.03229 2.87553
2.43446 0.834369 2.8975
1.06693 -1.29799 3.38729
2.9183 -1.11035 3.12001
-1.33036 0.3759 3.00307
1.66827 -0.369309 2.75926
1.51156 -2.25447 4.50365
1.47741 0.932538 2.5934
-1.53469 -1.23503 3.33275
2.30202 1.02914 2.98031
0.784042 0.288899 2.90722
1.81452 -1.90716 4.18862
1.08624 -0.975014 3.30211
0.957411 0.569569 2.91367
1.19008 1.21016 2.58792
-0.174515 -0.139665 3.06757
0.15849 -0.928525 3.32261
-0.487183 0.567308 3.05942
0.741759 1.37978 2.84468
-0.83943 -0.110553 3.10588
0.576069 1.26522 2.874
-0.918793 0.775648 2.79802
1.57274 0.738043 2.57952
0.227596 0.659841 3.12385
-0.785666 -0.566659 3.23781
1.47088 0.754756 2.54817
0.856667 -0.0899553 2.90929
-0.483368 0.806728 2.42395
-1.21793 -0.872987 3.3448
1.78579 -0.211635 2.75819
0.619399 1.33804 2.8647
1.30968 -0.284169 2.81254
0.491468 1.13326 2.89463
-0.869949 0.424278 3.47745
0.261589 -1.21612 3.57998
0.720286 0.457617 2.91828
0.460601 -0.107666 0.239351
0.795312 -0.262092 2.97968
-0.314733 0.784313 1.94953
-0.322947 0.430447 3.01122
-1.46691 -1.05409 3.19644
0.387852 -1.06104 3.41193
1.2483 0.488639 2.81748
1.77319 0.317655 2.79853
0.616501 -1.90466 4.50911
1.78962 -0.218062 2.76534
-0.568366 0.853002 1.88067
0.139544 1.41607 2.66845
-1.42098 -0.965616 3.21573
-0.913704 0.512405 2.96231
-1.13787 -0.00468734 3.68743
-0.492534 -0.177808 3.0875
-0.413423 0.899507 2.65593
-0.676912 -0.101997 2.15947
-1.27258 -1.25058 3.31785
1.85887 -1.87944 4.32384
-0.96134 0.0383446 3.09987
-0.81383 -0.430461 3.2235
-0.789813 -1.25765 3.46655
2.72881 -0.131425 3.75073
0.681621 0.30056 2.88823
0.244519 1.3857 2.79563
-0.400807 0.731203 1.99746
0.13675 1.08437 2.90847
1.83002 -0.361834 2.83389
2.51539 -0.942174 3.15643
0.693813 0.369367 2.89278
1.2458 -2.35107 4.28215
1.54376 0.943774 2.47698
-1.06224 -0.358512 3.23832
1.13268 0.329203 2.85534
1.66514 -1.12756 3.11728
0.449173 -0.582863 3.16841
0.877675 0.896264 2.88242
2.18929 0.345361 2.62241
-0.181056 -1.46342 3.37539
-0.414517 0.219561 3.05848
1.10554 -2.40513 3.87258
0.432522 -0.537183 3.15717
0.21898 0.865311 2.98684
-0.0960856 0.461409 1.42334
0.245504 0.735601 3.03958
1.33457 -1.50851 3.57809
0.571738 0.163946 2.83505
1.45198 -2.46695 3.99862
1.27604 -1.80511 3.78955
-0.515998 -1.46085 3.65783
0.30379 0.27206 2.89233
1.38266 -2.05699 3.49452
2.1507 0.262254 2.64257
1.54442 0.905618 2.60096
-0.484171 -0.488011 3.14845
-0.804516 -1.32339 3.43592
0.932672 0.246321 2.87241
2.11829 -0.19293 2.9406
0.351945 -0.457741 3.07924
0.413767 0.972609 2.96768
2.30874 0.544626 2.68843
2.26672 -1.11628 3.29721
1.05728 -1.30464 3.50178
-0.479851 0.384149 3.01174
1.35942 -0.361821 2.85778
-0.483812 0.751168 1.93168
-0.329123 -1.23863 3.49743
-0.929901 0.362805 2.94105
2.48951 -0.144738 3.56592
0.697367 1.02893 2.84601
0.173432 -0.347687 3.04389
0.116839 1.44739 2.67305
-0.710766 0.726115 1.81526
-0.955603 0.0294125 3.09134
1.41056 -1.09627 3.17409
-0.538562 -0.31448 3.13372
0.876217 1.13764 2.46379
-0.591703 -0.971825 3.46357
-0.41535 0.427288 3.02391
2.68993 -0.159001 3.73851
0.0144912 0.958699 2.96188
0.818852 -0.521832 3.0817
1.3017 -2.4562 3.98277
-1.30299 0.281076 3.02212
-0.85835 -1.44419 3.52778
1.89904 0.417632 2.64712
-0.794791 -0.483731 3.0778
0.121818 0.951432 3.05054
2.67624 -2.00483 3.65051
-1.2536 -1.33489 3.37454
1.59022 -1.8039 4.2835
-1.20164 0.232711 2.97583
3.09073 -1.00001 3.11666
-0.712252 -0.475282 3.26078
1.72855 0.279907 2.75536
2.10231 -0.147231 2.94096
-1.22386 -1.29099 3.36285
-0.617105 0.695417 1.95001
1.95637 0.0604292 3.01518
-0.231641 0.554703 2.99358
1.04643 -2.23405 3.85678
-0.578082 -1.29314 3.43615
-1.03526 0.305048 3.00146
-0.27901 0.749125 2.11718
1.94617 0.491737 2.63572
0.956844 -0.405259 3.0089
1.24262 -1.657 3.56793
1.30303 0.122993 2.78806
1.16971 -1.57959 3.54348
-0.132903 -0.666549 3.2716
-0.690388 -1.55283 3.25848
0.582657 0.8382 2.94067
1.70878 -1.88753 3.6229
0.778818 0.0935035 2.88948
-0.929195 -1.50556 3.40404
1.03672 -1.76435 3.56386
1.07325 -0.597567 3.03315
0.35204 0.809767 2.99938
2.02935 0.473667 2.61956
-0.634492 1.13515 2.85884
1.50396 0.79567 2.58911
3.17581 -1.11154 3.245
2.16988 -0.0361332 2.92006
-0.621411 0.171051 3.04063
-0.316993 1.41548 2.94107
-1.39685 -0.591242 3.20202
0.566142 -1.44119 3.58042
-2.30699 -2.44226 5.48962
-0.352461 -0.853292 3.3478
0.593594 -0.0380859 2.90725
-0.337918 0.770355 3.19209
0.0208356 -1.36871 3.53553
-1.02366 0.107335 3.06342
-1.34986 -0.809769 3.19532
-0.724389 0.00846236 3.05903
0.521734 -2.0723 3.57414
2.14383 1.00579 3.04584
-1.00256 0.681248 2.9059
1.9929 0.383734 2.86414
0.106202 0.600508 2.99053
0.516621 -0.78377 3.22711
-0.582692 -0.920903 3.35924
0.354447 0.0720437 2.91826
-0.41478 -0.180689 2.994
0.238851 -0.744528 3.27244
0.69394 0.763561 2.94192
0.0454329 1.32001 2.85232
0.450199 -1.85457 3.58414
1.19923 0.0115904 2.79085
0.857457 0.724635 2.91331
0.833488 -0.681607 3.14923
-0.233683 1.00447 2.74478
-0.314431 0.723018 3.0066
1.79902 -0.566465 2.85169
0.105473 -1.51707 3.56923
0.100512 -0.791717 3.27423
0.342047 0.0172084 2.94266
-0.279432 0.568599 1.83388
2.15643 0.224626 2.99776
0.405265 0.708346 3.03144
-1.11805 -1.03136 3.33893
1.2671 -2.57863 3.61436
1.0387 -0.725632 3.09433
1.69818 -0.0114084 3.10886
-0.0529179 -0.697572 3.27921
1.01022 0.072953 2.81464
-1.10335 -0.103897 3.14015
1.92653 -0.170323 2.89279
2.43339 -1.89203 3.32841
0.166704 0.80151 3.01141
1.37875 0.194669 2.01439
1.55541 0.694801 2.61812
-0.844097 -1.59814 3.44969
0.471948 -1.53616 3.58259
1.85861 -0.283234 2.72602
0.88048 0.0485209 2.89088
-0.99668 -0.685964 3.31314
0.0717221 0.201168 2.76814
1.48076 0.569674 2.66168
0.716962 -0.917666 3.27619
0.608883 -0.121526 2.95412
2.64844 -0.319927 2.93199
0.575185 -1.77194 3.72997
-0.940773 -0.886402 3.36133
1.39728 0.5252 2.696
-0.995265 0.262812 3.054
-0.581955 -0.0832805 3.09298
1.76888 -1.05341 2.99298
1.20424 1.24161 2.72863
-0.926184 0.0142993 3.61757
0.095216 0.65765 2.99603
0.257664 1.63302 2.79039
-0.420148 0.706684 3.6495
1.27081 -0.0586383 2.79474
-0.97316 -1.35311 3.41087
0.570726 -0.84556 3.32222
-0.0551108 0.00663549 0.839365
-0.0477864 -0.250439 3.06267
-0.56364 0.777648 1.84839
1.22478 1.07896 2.57585
0.692381 -1.12426 3.42201
-0.819362 0.521573 3.05848
0.590476 -1.75224 3.65196
-0.664903 -0.23946 3.14353
0.299289 1.14858 2.93385
0.849196 -2.14323 3.44354
0.644793 0.443533 2.89816
1.24587 -1.01649 3.19879
1.88884 -1.8662 3.41727
-0.914603 0.624577 3.23344
0.935781 -1.86296 4.35196
-0.194142 -0.191932 3.05733
1.27913 1.20423 2.69268
0.911964 -1.79104 4.19446
-0.855185 -1.0302 3.42976
-0.0142969 -0.0959905 0.798338
0.462611 -0.990912 3.41929
0.918392 0.509348 2.88365
1.44761 -0.153677 2.77385
0.000739425 1.23032 2.72951
-0.178555 1.14972 2.96055
-1.16069 -1.1756 3.26927
0.983697 -1.90974 3.93373
-1.00723 0.395383 2.91775
-1.3304 -0.39815 3.1872
0.0576879 1.0947 2.93104
0.4412 -1.24908 3.5283
0.586072 -1.68963 4.16109
-1.38763 0.370538 3.00213
-1.1045 -0.216036 3.12058
-0.54373 0.734232 1.95064
0.291647 -0.358875 3.07399
0.890061 1.0542 2.75391
0.0716967 0.615939 1.32756
0.897674 0.410405 2.90366
0.993472 1.03869 2.48172
-1.35598 -0.326762 3.16853
0.0337631 1.13528 2.41431
-0.0412679 -1.19382 3.46966
1.33886 -0.22088 2.80864
-0.483744 0.824693 1.89043
1.89362 0.297343 2.82022
1.61868 0.672014 2.57343
1.15637 -1.05978 3.32301
-0.331578 0.529705 3.05562
-0.0282067 -0.192906 3.05767
0.726129 1.1403 2.81683
1.14993 1.24295 2.72779
0.822298 -0.997811 3.25163
1.25596 0.456734 2.82968
0.793598 0.148039 2.87021
1.35602 0.880391 2.60187
0.634001 -0.151783 2.96201
0.340555 1.39996 2.85324
1.75892 -0.898849 3.02171
-0.0440549 0.660722 3.21301
-0.908507 0.251085 3.40227
-0.441287 -0.103708 3.05173
0.486464 1.28136 2.88457
0.583374 -1.5076 3.60549
-1.4067 -0.903221 3.23041
1.47229 0.498531 2.69656
0.803582 -2.24732 3.58263
-1.50475 -1.18762 3.29819
-0.80847 0.438791 3.01068
-0.0740264 -0.0340229 1.01377
1.04768 -0.34276 2.9183
1.04211 -1.95669 3.81303
-0.472112 0.747648 1.89724
0.0217205 -1.16609 3.42697
1.61398 0.33114 2.67227
0.644578 1.07226 2.90223
0.19354 -0.318877 3.04379
0.0664792 1.39647 2.49519
0.411972 -1.1694 3.55647
1.815 -2.43313 4.14286
1.03691 -0.257822 2.87593
-0.499542 0.448601 2.98826
0.10044 1.31632 2.64882
0.133845 1.12206 2.88132
1.45836 -1.49706 3.71416
0.3767 0.995743 2.99397
0.253521 -0.492877 3.11311
-1.51718 -0.232451 4.42751
1.33269 0.244955 2.79108
1.01173 -1.41632 3.46098
-1.12169 -0.616011 3.31003
0.0149559 0.610138 1.52841
1.30145 -0.442353 2.88253
1.00935 0.914209 2.78353
1.07949 -1.36539 3.48193
0.114042 0.24354 2.89141
-1.21528 0.0664761 3.52293
-1.18319 -0.438917 3.20612
0.860784 0.327446 2.89955
2.06288 0.307505 3.18789
0.534118 -1.35288 3.57668
0.0115855 1.05201 2.91467
2.09501 0.451336 2.63018
3.1206 -1.04742 3.1102
1.19644 -1.88538 4.07878
-0.996521 -1.26538 3.48144
0.699995 0.980314 2.8475
1.78686 -1.88145 3.93393
2.18311 -0.121925 3.17922
1.60727 -0.362792 2.75621
-1.37809 0.325444 2.95922
1.72243 0.163525 2.74575
-1.27042 -1.42184 3.16121
-0.591009 0.323798 3.15038
1.4715 0.786262 2.60278
0.0717088 -0.628178 3.18995
-0.486912 -1.49098 3.47915
1.52474 -1.90486 3.44553
-1.17535 0.145745 2.95695
1.68767 -0.538632 2.78956
2.13229 0.209407 2.89431
0.156808 0.832004 2.99537
1.25443 -1.58025 3.73967
0.706202 -1.44641 3.57353
-0.0837136 0.926191 3.03331
-0.0249317 -0.546313 3.16608
1.93778 -0.214816 2.88887
0.643627 -1.60569 3.67602
1.73175 0.202174 2.74677
2.10397 0.336225 2.64591
2.66007 -0.765584 3.10068
-0.324894 -1.04327 3.47911
1.47686 0.4106 2.70047
0.321172 1.33213 2.90479
1.05298 -2.34911 3.31007
0.994779 -0.311408 2.91982
-0.638768 0.757717 1.86741
1.53765 -1.13807 3.25099
0.228182 -1.13136 3.50406
-0.20215 0.785191 1.96111
1.00036 -1.4875 3.68323
0.905989 -0.257454 2.98011
1.74264 0.453195 2.70006
-1.03093 0.454822 3.04756
-0.256894 -1.05919 3.35604
2.04311 0.0682473 3.14707
-0.883192 0.563884 3.08191
1.37497 -0.220905 2.82032
0.0974073 1.36034 2.62329
-0.567785 0.835244 1.87882
-0.525952 0.486432 3.018
-0.0837154 -0.0325549 1.02671
-0.489941 -1.08907 3.56818
1.07695 1.13435 2.69648
0.630207 -0.109858 0.374258
1.74746 -0.211795 2.80768
-0.354539 -1.31898 3.49879
0.245648 1.03749 2.98828
1.44968 -3.07377 4.6672
1.42118 -0.393646 2.83776
0.070856 0.610833 1.40337
-0.20535 0.310656 2.98237
2.73575 -0.468674 3.85185
0.196786 1.48422 2.64501
1.23266 1.05099 2.7373
0.033532 -0.37178 3.09605
1.46201 0.37997 2.92287
0.266433 -1.29169 3.53686
1.40732 0.979301 2.62125
1.23605 -0.345921 2.84924
2.23046 -1.79521 4.34892
0.057259 0.933164 1.87593
-0.986813 0.36266 2.96189
-0.866822 -1.1946 3.40977
-0.9402 -0.577934 3.15033
2.07576 0.4231 2.63677
-0.0970262 0.202639 2.93927
3.01511 -1.24262 3.09888
-1.00141 -1.42265 3.30924
1.24634 -2.35877 3.91525
1.2623 0.875032 2.7456
-0.307066 0.904221 3.0656
1.0125 -1.58471 3.746
2.44059 1.08278 2.91808
1.72651 0.146063 2.73837
-0.178559 0.594945 3.0181
0.334451 -0.528927 3.14446
-1.22024 0.339857 3.68178
-0.601513 -1.63086 3.42236
-0.153802 0.280053 2.94848
0.915545 -1.55804 3.81947
2.43923 1.10903 2.8632
1.19611 -1.79509 3.53406
1.03582 -0.464112 2.93395
-0.0701095 1.00647 2.99885
2.32817 0.619669 2.75649
0.535678 -1.46234 3.73245
-0.317954 0.255161 2.9992
0.968663 -1.667 3.69383
2.3181 -0.2185 2.93174
-0.208175 -0.461085 3.1633
-0.728359 0.676287 1.98476
1.26778 -2.19476 3.74372
-0.00303123 0.761473 2.99727
0.277283 -2.01415 3.59885
-0.671642 0.0672246 3.05244
-0.985403 -0.573509 3.30399
2.78793 -0.800434 3.13664
-0.667539 -0.733017 3.40544
-0.410613 -0.928145 3.39969
-0.112716 1.35311 2.90413
1.22912 1.28356 2.7179
-0.822781 0.668905 2.25702
0.448427 -0.649174 3.14325
-0.554006 0.12971 2.99382
0.40527 -1.61296 3.55028
-0.899337 -0.668075 3.40298
2.43284 -1.88942 3.43093
1.31879 0.733804 2.69198
-0.402817 -0.958024 3.4284
-0.508302 -1.55867 3.50559
0.46197 0.0910617 2.87021
1.19368 0.894708 2.75025
-1.34141 -0.561384 3.2301
2.18857 0.964096 3.04347
1.91759 -0.490977 2.797
-1.75037 -1.50448 3.52941
1.47315 0.237015 2.85068
2.41976 -1.28319 3.7773
0.476621 -0.512664 3.14003
-0.413754 0.684936 2.10552
0.0875241 0.695948 1.45821
2.94855 -1.16903 3.11295
2.54336 -0.786966 3.70921
-2.22352 -1.91726 4.62604
-1.12509 0.233411 3.05333
-0.836245 0.320761 2.96648
2.3831 -1.3015 3.2578
-0.998941 -1.37561 3.46272
0.363933 1.04238 2.98562
2.32476 0.964036 2.93273
1.58486 -0.439221 2.86738
1.87377 -1.95821 4.1019
-0.755642 -1.31873 3.50478
-1.32937 0.309546 3.01652
-0.707714 0.69414 1.97161
1.09217 -2.2021 3.70496
-0.0285763 -0.430813 3.16692
2.1022 0.356075 2.62912
0.876392 -1.69812 3.68166
1.03504 -1.53042 3.53736
2.08665 -0.156943 2.92043
1.24432 -0.626543 2.97972
0.563593 -1.44206 3.5858
0.787993 -1.69121 3.64394
-1.37872 0.118659 3.08407
1.27243 -2.48142 3.47806
-0.566742 0.821726 2.95681
2.77271 -0.707089 3.1432
2.21513 0.273475 2.63975
1.28314 1.02835 2.7134
1.29893 -0.571781 2.85278
-0.665245 0.643281 2.07408
2.10432 -0.00977185 2.92968
1.18228 -1.7197 3.78445
-0.201851 0.189972 2.97973
0.496573 -0.593429 3.20781
1.05923 0.797883 2.81112
1.27965 1.23868 2.63157
1.67245 0.114302 2.76629
-0.0800245 -1.56893 3.63691
-0.0611742 0.677411 2.98007
1.97673 -2.25078 3.5901
1.14784 -0.0421581 2.80048
0.0867054 1.28038 2.76926
-0.546253 0.000752693 3.06851
-0.371419 -1.37915 3.52906
1.39922 -0.747713 2.92761
-0.915681 0.674446 2.93904
2.26489 0.937399 3.2062
0.903597 -2.65656 3.72869
-0.552777 0.594554 3.0555
0.877067 -0.767027 3.15096
1.42889 0.0482898 2.8748
-0.54747 -0.769532 3.30272
-0.867252 -0.562938 3.17998
-1.05582 0.408364 4.04579
-0.314026 0.786338 3.03612
0.804192 -1.52652 3.71895
-0.925233 0.0377364 3.08
2.78528 -0.507755 2.89683
-1.10725 0.230313 3.03184
-1.00851 0.775297 2.99947
0.0453424 -0.702806 3.23466
0.177862 -1.7498 3.59394
1.83627 -0.166818 2.87553
-0.0865688 -0.95386 3.37892
0.314537 -1.72296 3.62573
-0.195039 -0.142273 3.04675
0.0701305 1.2372 2.78096
1.3959 1.04072 2.63422
0.952451 0.537606 2.89319
-1.02215 0.369487 3.03135
0.251666 1.30438 2.91584
1.82176 0.885538 2.54455
-0.548962 0.728403 3.71008
-1.16353 -0.109106 3.12657
-0.495696 0.63709 3.07105
1.49324 -0.82324 2.84436
-0.279306 -1.0761 3.48743
-0.274025 -0.0802266 3.05043
-0.307297 0.495759 3.29046
1.64801 -0.793064 2.89587
1.20005 0.538571 2.80936
-1.25618 -0.910625 3.26698
-0.00555211 -0.0489876 0.66401
-1.30012 -0.111687 3.1075
1.7841 0.497027 2.6579
0.623163 -1.39991 3.54635
0.199995 0.563991 2.9273
-0.801463 0.4177 3.0484
-0.650363 0.703271 2.20442
1.44199 1.03254 2.67193
0.583557 -0.0772766 2.92428
0.503002 1.2583 2.89336
-0.593238 0.67998 3.09169
0.266815 -0.889373 3.31689
2.03266 0.206566 2.82596
-1.26544 -0.0421404 3.08051
1.13386 1.23298 2.60381
1.03399 -0.840156 3.2761
0.593302 0.610989 2.97051
0.718796 -2.42968 3.61176
-1.28927 -0.287711 3.19929
-0.745702 0.752392 1.79274
-0.720501 -1.11883 3.42454
-0.277824 0.488575 2.99252
0.52162 -1.74725 3.61994
-0.20984 -0.227953 3.09325
0.430344 1.13781 2.90979
1.56918 -2.05835 3.43491
-3.40985 1.10839 7.05097
0.603032 -1.07777 3.38735
-0.774323 -1.05643 3.48412
-0.832949 0.751186 4.00005
0.965327 -1.4526 3.51826
0.984591 0.529878 2.90461
0.652595 -0.19784 2.94444
1.10155 -2.27675 3.77568
-0.854701 0.227351 3.03533
-0.32226 0.800773 2.09879
0.0552551 0.515549 2.95337
1.1499 -0.973938 3.28759
0.507676 1.35348 2.88988
-0.30506 0.898205 1.93697
-0.730589 -0.156718 3.12266
0.851268 -1.35029 3.66262
1.05871 -2.00871 3.74433
-0.985182 -0.392723 3.15349
-0.268641 -1.12416 3.49381
-0.0686458 0.343123 2.94784
0.0471884 1.35724 2.64194
2.09499 -0.990424 3.60951
-0.762932 0.706307 1.89747
1.74929 -0.351121 2.73247
1.61288 1.00729 2.53237
2.50311 0.700273 2.7952
1.55482 0.366956 2.51135
2.28872 -1.26662 3.56154
-1.06231 -1.09054 3.10158
-0.671716 0.733013 1.92055
0.392448 -0.310843 3.07285
-0.253613 0.36626 2.94928
0.492851 -1.28691 3.68499
0.149947 -0.547925 3.14407
2.33319 -0.155122 3.02099
-0.236236 0.238825 2.96697
-0.736645 -1.45796 3.52486
-0.551327 -1.55977 4.82543
1.67921 0.853867 2.54614
1.36129 0.822533 2.63864
2.54376 -0.602487 3.0909
-0.92822 -1.39539 3.48539
0.28287 1.37746 2.90642
-0.0497828 0.211461 2.92779
0.876261 -0.503828 3.0302
1.5536 -1.757 4.07629
0.976894 -1.37894 3.49969
-0.685478 -1.35064 3.46463
-0.794763 0.32562 3.00606
2.35445 -0.213784 2.90533
1.12938 -0.428148 2.88476
0.67154 0.992023 2.86007
2.28079 0.630687 2.7609
-0.129002 -1.33755 3.57168
0.0873266 0.262023 2.87863
2.38332 0.898159 2.93454
0.692368 -2.45338 3.99674
-0.722109 -0.434487 3.1676
0.610493 0.974602 2.8903
1.05661 -1.78162 3.7264
-1.3923 -1.14101 3.16723
0.062654 0.40999 2.91119
1.15189 -0.349117 2.87018
-0.784899 0.730852 1.8483
0.59924 -1.21808 3.52106
1.35472 -1.99467 3.98545
0.26447 0.349583 2.88717
-1.06981 -0.130854 2.95957
-0.827717 0.716452 1.85854
1.06718 -0.312756 2.86588
0.189265 1.15614 2.95261
0.0795434 1.31176 2.44144
1.3449 0.419596 2.80011
1.04417 1.00284 2.47845
-0.455898 -0.300651 3.10943
-0.996196 -0.0125981 3.10599
-0.652718 -1.11454 3.39485
0.299939 -1.86263 3.63211
0.387788 -1.42494 3.54455
1.32963 -0.468156 2.8479
-0.491105 0.701573 2.02319
1.21848 0.265759 2.83891
1.05649 -1.61098 3.72129
0.548389 -1.50087 3.6621
-1.38019 -0.494313 3.24437
0.619864 0.95397 2.92002
0.0596662 0.941967 1.95725
1.6498 -2.62714 4.05402
-0.952135 -1.38858 3.56705
0.647764 0.218323 2.89501
-0.598652 0.337331 2.99247
1.58711 -1.90642 3.42363
1.40038 -1.30467 3.36069
0.0586549 1.04649 2.91937
2.3384 0.24636 2.74557
-0.623934 -0.447893 3.18989
0.615869 0.275736 2.89872
2.81819 -1.41037 3.11332
0.459677 -1.28243 3.48619
1.21969 -1.73112 4.00893
-0.79603 0.684459 1.88429
0.561713 -0.385947 3.04408
1.1104 -1.6615 3.6136
-0.0694101 -1.58 3.53295
-0.523046 0.159251 2.9913
-0.279952 -1.08179 3.48392
0.847594 -2.33659 3.69184
-1.44068 -0.614741 3.04716
0.772533 0.849115 2.86641
1.1081 -1.64526 3.58432
0.851031 0.111174 2.8773
-0.80886 -1.44977 3.35503
1.59761 -2.13512 3.43244
1.47417 -2.26901 3.83318
0.374582 -1.74562 3.63813
-0.544012 -0.575043 3.10464
0.347079 0.839678 2.97136
2.01132 -0.778622 3.26074
0.668542 -1.62601 3.61994
-0.45206 0.678813 2.10565
1.93292 -0.963425 3.25295
1.30294 0.187684 2.79303
1.8127 0.302355 2.81987
1.25972 -0.527586 2.92283
0.776167 -2.08282 3.65019
0.78132 -1.71833 4.0414
1.31115 0.656446 2.72334
2.19894 -0.0893662 3.02882
2.22899 -0.185545 3.5906
-0.276957 0.0282017 3.02503
0.416701 -0.810512 3.31227
-0.230133 0.721319 3.10562
-0.578261 -0.602274 3.31053
-0.0769246 1.09075 2.9607
0.53439 -2.3323 3.7072
0.705707 -0.0117059 2.9121
-0.796976 -0.798116 3.44644
1.92403 -0.815576 3.11214
-1.05035 0.222208 3.06046
0.897373 0.093929 2.87721
1.67685 -0.768059 2.55868
2.60756 -1.00372 3.1391
1.03884 -0.666324 3.0512
-0.0936415 0.811653 3.07431
0.00558359 -1.36538 3.36231
-0.252934 0.0589963 3.04307
-0.807357 -1.60305 3.44705
1.84011 -0.511731 2.75392
1.64299 0.698164 2.66214
-0.912791 -0.690918 3.31697
-0.196368 0.768722 2.10857
2.50336 -0.420307 2.99541
1.71747 -2.20931 4.67151
-0.554867 0.31076 3.05621
-0.935795 0.0182341 3.08657
1.43852 -1.75108 3.97115
0.463461 -0.418003 3.05962
0.102176 1.24749 2.43893
-1.05064 -1.25213 3.29652
1.13141 -1.88868 4.08907
0.968253 -0.372663 2.98851
-0.346634 0.766223 1.98102
1.34626 -1.21255 3.26048
0.573166 0.363318 2.91826
1.31592 -2.44861 4.03543
0.699523 -0.358023 3.01582
1.44445 0.975505 2.63061
1.49429 -1.21144 3.3609
0.499324 0.32076 2.83697
2.50831 0.310539 2.64993
2.7353 -1.04493 3.12437
0.78843 -1.71313 3.91551
1.15949 0.193952 2.79201
2.24595 0.154206 2.98367
0.165922 -0.585743 3.17052
-0.362012 0.918267 2.7804
-0.0680336 -1.93194 4.27724
-0.177478 -1.50669 3.62968
0.936911 0.146215 2.82061
2.34038 -0.0907766 2.98781
1.5751 -0.485682 2.76853
1.0619 0.828752 2.8197
1.41567 -1.4119 3.38965
1.39139 0.268095 2.78952
1.2363 -1.48336 3.50436
2.17494 0.288167 2.6412
1.21532 -1.56565 3.4798
0.650165 -0.501485 3.11614
0.592847 -1.56153 3.64692
-0.33161 0.726409 2.06491
-1.45773 -1.23005 3.06677
-1.37964 0.282463 3.08954
-0.012607 1.32289 2.89441
1.44582 -2.30909 3.85011
-0.730122 -0.47648 3.20599
0.375213 0.958955 2.97865
1.76384 -2.05902 3.40155
0.636236 1.58357 2.86109
0.133316 0.771404 3.03107
-2.48476 -1.26761 5.22427
-0.100307 1.32773 2.89586
0.436661 0.0483225 2.89163
0.845489 -1.85839 3.60651
1.38558 -1.87473 3.67059
-0.513952 0.767913 3.03684
-0.288603 -0.709198 3.24842
-0.672379 -0.992737 3.56958
-0.165988 0.0227141 3.00418
1.19455 1.25587 2.72019
1.05316 -0.640552 3.03626
-0.499786 0.799854 2.76914
0.125519 -1.73693 3.59048
-0.0872168 -1.69275 3.63665
1.72611 0.109501 2.73741
1.83879 -0.314893 2.71317
1.15828 -2.77988 3.55433
1.55176 -0.580682 2.84997
-0.501827 0.819167 3.00729
0.636378 -1.56209 3.58116
-0.444144 0.0873327 3.0254
0.695348 -1.74145 3.88721
0.714929 -1.58855 3.76076
2.60036 -1.18613 3.11132
0.403026 -0.863094 3.26163
-0.998346 0.78664 2.84642
-0.829224 0.704887 3.05935
-0.827102 -0.0677327 3.11335
-0.126238 -1.51499 3.57105
0.0432106 -0.824072 3.28634
0.551358 0.607298 2.93371
2.04288 -0.347219 3.05779
-0.5606 -0.0431745 3.08157
1.26821 -1.79193 3.70402
1.82872 -0.167168 2.8616
-2.15819 -1.1022 4.39083
-0.283758 0.883733 2.43393
-0.00602701 -0.0492949 0.664786
-0.30451 0.952959 2.74774
0.130075 -0.00942357 2.92439
-0.86007 0.239095 3.26685
-0.870859 0.30036 3.0398
-1.13198 0.724386 2.94486
-3.14285 -3.24878 6.92852
0.73215 1.46757 2.8484
1.06395 0.744157 2.79174
1.45577 -0.615577 2.9206
-1.18518 0.119018 3.13882
-0.101769 -1.69848 3.5255
0.61983 -1.46852 3.57314
1.72673 -1.98478 3.61216
1.23654 -1.81433 3.52273
2.18235 0.319718 2.63301
1.12133 -2.26598 3.82582
1.2106 0.785737 2.7067
-0.180476 -0.629929 3.27067
2.0605 0.538996 3.07315
-0.0721158 0.172499 2.95138
-0.879473 -1.52634 3.42641
1.2011 -0.574032 3.00561
1.41166 0.754577 2.60912
2.113 -0.0452895 2.93205
0.204174 -1.51905 3.52846
-0.229017 0.128618 2.99515
-0.216828 1.15673 2.95841
1.38254 -2.63784 3.56092
0.285319 -0.0356888 2.94484
-0.231867 -0.00699376 3.05103
0.0123476 1.16675 2.86829
-1.20274 0.113137 3.09134
1.43927 -0.76496 2.90375
0.132556 0.699649 3.02603
2.30715 -1.52273 4.20705
1.15282 -0.760261 3.10986
-1.16223 0.670174 2.89067
2.58669 -0.794601 3.19373
1.84469 -0.5787 2.84334
0.320697 -0.776871 3.3056
1.78332 0.0594246 2.76887
-0.24391 -0.844926 3.33506
2.75293 -0.867521 3.00319
-1.00428 0.79265 2.91933
1.53139 -1.47457 3.4343
1.64143 -0.827721 2.7296
1.61119 0.0261582 2.67378
-1.33561 -0.718932 3.27628
2.63714 -0.29119 2.97735
1.71726 0.700536 2.71444
-0.301477 -1.51188 3.53861
0.233306 1.24302 2.93896
-0.946423 -0.193822 3.10838
-1.19936 0.534979 2.76319
1.19248 1.25729 2.72285
1.27267 1.14238 2.67673
-0.0511227 0.00206129 0.836382
-1.01839 -0.158023 3.15434
0.284256 -0.984856 3.39438
1.86285 0.998359 2.54569
1.0569 1.18115 2.41435
-0.0631563 -0.109161 3.02556
0.203815 -0.911398 3.29039
1.18146 1.04617 2.5539
-0.711208 0.636835 2.99344
-0.888911 -0.00586057 3.07757
-1.20111 -0.0739962 3.10071
-1.07136 0.590061 2.90579
1.31005 -0.829178 3.03712
-0.917876 0.466833 2.96074
1.57944 -2.29856 3.42786
0.348057 1.44933 2.79095
-0.738232 -1.16403 3.41774
1.6031 -0.297401 2.73645
0.808557 1.08774 2.78149
1.46737 0.372612 2.72137
-1.04235 -1.07057 3.32585
1.19942 -2.28245 3.17318
-0.30082 -0.272344 3.07553
-0.0924804 0.832476 2.11994
1.23553 -1.85029 3.56435
-0.141712 1.17389 2.84552
0.00221668 -1.05801 3.40593
-1.09348 0.532945 2.93606
0.572173 -1.74647 4.27137
-0.501626 -0.24207 3.10155
-0.458283 0.873202 1.89729
-1.15525 -0.248218 2.96859
0.18091 -1.08206 3.61926
-1.71161 0.622165 3.63977
1.30261 -2.72307 4.01561
-1.04449 -0.197159 3.11275
-0.136412 0.84262 2.00492
0.386548 0.465909 2.91491
-0.491747 0.690012 3.53249
1.24928 -0.267928 2.85814
1.33391 -1.71218 3.52712
-0.156334 0.839289 1.99258
-1.11054 -1.09282 3.32988
-1.31312 -1.03599 3.25759
-0.85818 -0.345321 3.60078
0.734632 1.09272 2.81959
1.54899 -0.238175 2.84516
1.37661 -1.60767 3.4429
-1.10344 0.460743 2.92463
0.801773 -1.05245 3.41726
-0.954982 0.557577 2.95485
1.13674 -2.24957 3.60934
-1.35381 -0.207174 3.08635
-0.607946 0.841751 1.87088
0.356026 -0.0667735 0.179623
1.36293 0.485286 2.80495
0.611463 1.45113 2.87734
1.1779 -0.939285 3.21991
0.651 -1.55248 3.89937
-0.86314 -0.175305 3.15018
0.919762 0.992332 2.78611
0.132179 1.33031 2.88447
0.701102 1.31357 2.44146
1.03273 0.326498 2.85204
-0.0172135 1.07931 2.36594
-1.05577 -0.40638 3.16848
1.57333 -1.49785 3.62591
0.631859 -1.28506 3.48415
1.96253 0.508662 2.64209
-1.35572 -0.38201 3.17953
0.294356 1.14775 2.99225
-1.37073 -1.16416 3.25189
1.77195 0.391144 2.78999
-0.267649 0.775308 2.01052
0.501386 -0.319935 3.03307
2.13262 -2.47059 4.16838
2.64931 0.641449 2.72403
0.389079 -1.21449 3.5226
1.48277 0.323681 2.73811
-0.00771569 -1.51845 3.64619
-0.778755 0.254787 3.04455
2.14676 -1.08802 3.52573
1.50403 -0.491446 2.72645
-0.694507 0.66973 2.04262
1.29928 -2.15602 3.81979
0.7904 -1.71231 4.13595
-0.745326 0.214735 2.96657
1.31578 -1.7209 3.72193
0.758372 -0.511317 3.06566
-0.769362 0.64648 2.0337
-0.330335 0.307167 2.98521
1.40923 -1.67936 3.55657
1.41269 -1.50591 3.73099
2.04834 0.279572 2.77289
1.16016 -1.69291 3.52194
0.910566 -0.453294 3.02751
-1.05306 0.137261 3.32683
-0.00723289 1.0152 2.92692
0.44237 -1.3879 3.62084
0.830055 0.260969 2.85364
1.8782 0.675516 2.64674
1.07416 -1.54286 3.49175
-1.0288 -0.438146 3.17518
1.58002 -2.03673 3.43174
1.66535 0.873305 2.5619
-0.187665 0.583902 3.00977
1.59738 -0.0483189 2.78116
1.71925 -0.159305 2.83077
1.63741 0.737251 2.67028
1.00876 -1.57269 3.61691
0.0398911 0.102792 2.95484
2.00071 -1.35376 3.51637
-1.4031 -0.674426 3.15296
2.05513 -1.04418 3.22816
0.482287 0.60875 2.93386
2.60228 -0.656911 3.45706
0.561656 0.859156 2.9332
0.139319 -0.630716 3.20968
0.621793 0.14494 2.84299
-0.502393 -0.793193 3.32526
2.42105 -1.97629 3.56492
-1.04761 -1.5518 3.44299
1.26323 -1.98904 4.11623
0.971284 -0.573011 3.04026
0.715 0.811376 2.90211
1.89034 -0.067178 2.90558
0.46792 -1.61213 3.75026
-0.736127 0.132724 3.00699
-0.278682 0.971916 2.38086
1.98757 0.365997 2.86637
0.288927 -0.519906 3.10384
-0.0767301 0.481252 1.47176
0.161916 0.259807 2.90112
-0.186052 -1.4502 3.58013
0.870392 0.945644 2.85345
1.26441 -2.39896 3.97609
-1.34522 -0.497317 3.22934
-0.198105 0.962321 2.9926
2.66214 0.871705 2.8345
0.116276 -1.37366 3.48705
-1.38794 0.255317 3.01369
1.91631 -2.19341 3.79264
0.153998 0.889455 3.03967
-0.508981 0.339895 3.04533
-0.328476 -1.34882 3.5488
-0.434071 0.644034 3.06802
-1.43299 -0.458204 3.19718
-0.342576 0.746526 2.00972
2.08496 0.49554 2.60383
-0.457155 -1.31141 3.56059
0.321089 0.279826 2.86759
2.00141 -0.459088 2.78445
0.957784 -2.68509 3.36014
-0.503017 -0.412351 3.28778
1.29181 0.966492 2.73394
1.59477 -1.53846 3.71272
1.26432 -2.28958 3.4661
-0.280476 -1.63233 3.63736
1.43561 -0.580208 2.84303
0.930202 -1.55906 3.61234
-0.864807 -0.323186 3.17403
0.934867 0.127785 2.8638
-0.73178 -0.323426 3.12169
-0.362415 0.86487 3.07067
1.99243 0.305547 2.7741
0.801883 -1.46447 3.56743
-0.692726 0.958431 2.94597
0.621298 -0.589415 3.1509
0.945998 0.880035 2.84877
1.89437 -1.06208 3.23673
0.0331465 -1.53156 3.54493
1.64337 0.170426 2.68551
-0.96476 -0.564779 3.15285
-0.798739 0.638245 2.10681
1.7067 -1.95749 3.57117
-0.290676 -1.48155 3.55485
-0.30658 0.158614 2.99301
1.17054 0.00122083 2.772
1.51067 -0.993258 3.29106
1.35172 1.17702 2.64006
1.24411 -0.753365 2.98921
-0.208878 0.74348 3.07068
0.811249 -1.77528 3.58647
-1.19387 -0.768047 3.28022
-0.0358054 0.702974 3.07258
-0.276481 1.04846 2.86695
1.9794 0.369834 2.92595
0.155331 -0.0190385 2.92616
0.970017 -1.44207 3.50436
-0.739553 0.0917208 3.0842
-0.303264 0.658029 3.06755
2.56583 -0.88018 3.25406
-0.723058 0.822406 2.95751
0.99733 -1.72178 3.6769
-0.433473 -0.727761 3.28797
1.62329 0.601115 2.54735
-1.18258 0.0693749 2.98249
0.492968 -0.681206 3.21038
1.57404 0.361044 2.71309
0.39627 0.764524 2.98405
0.379684 -1.92646 3.59966
1.29833 -0.871192 3.05253
1.93091 -1.16453 3.34274
0.982588 0.554283 2.93264
2.71337 -0.458552 2.99968
-0.546798 -1.61757 3.44876
-0.462809 0.717303 1.93727
1.40937 -0.136994 2.74303
-0.890324 -0.571179 3.17738
1.89551 0.414679 2.64136
2.18933 0.147279 2.88592
1.16038 -0.0955205 2.74239
0.832523 0.628818 2.90543
0.978643 -0.906545 3.31454
1.24108 1.1158 2.50133
-0.2607 -1.14886 3.47256
-0.0357885 -0.0563586 3.01076
-0.669666 0.620994 2.99429
0.416294 1.27505 2.88491
1.74223 -0.735056 2.76298
0.24581 0.201769 2.93834
1.03919 -1.54376 3.56762
1.75693 -0.441289 2.7482
0.608835 0.901014 2.93639
-1.39357 -0.632391 3.33365
-1.20995 -1.41337 3.36826
1.59006 -2.11568 3.42564
-0.408308 -1.59065 3.42856
1.39469 0.148906 2.82867
-0.134342 -0.553327 3.15768
0.643326 -1.59566 3.64856
-0.4542 0.876377 2.90144
-1.08899 -1.32682 3.30135
-0.845584 -0.503112 3.19896
0.896759 -1.78335 3.64982
-0.893618 -0.510732 3.15432
-0.351763 -1.06809 3.49393
1.58845 0.569387 2.68349
-0.00129073 0.231094 2.9281
1.38839 -2.24793 3.78085
2.34196 0.121969 2.95861
-0.309023 0.744246 2.19631
1.5163 0.585306 2.70008
1.2155 0.707574 2.75823
1.69244 -0.879928 2.97556
2.22692 -1.08156 3.3451
1.39781 -0.714295 2.97944
0.789594 0.0426314 2.85343
-0.150418 0.912714 3.04052
-0.702227 -0.734085 3.32008
1.1428 0.708325 2.83562
0.647571 -1.46049 3.56133
-0.806614 0.018407 3.12849
0.813313 -1.84221 3.57907
-1.22277 -0.714807 3.39058
1.74325 0.0917942 2.73732
-0.192192 -1.52558 3.48933
2.28775 -0.153207 3.12558
1.24365 -2.68419 3.63288
-1.2191 0.831896 2.82223
-0.251343 0.812189 3.0419
1.82927 -0.533561 2.79117
-1.18534 -1.561 3.4518
0.923433 -1.72309 3.55587
-0.284437 0.0991686 2.9675
0.99703 -0.604745 3.02561
1.13509 -2.10124 4.8335
-0.521255 -0.959013 3.54633
2.58667 -1.5181 3.18987
-0.0171778 -0.0625915 2.9997
-0.486442 0.675319 3.11689
-0.261925 0.452971 3.04587
-0.331273 0.645628 3.1032
1.18813 -0.81733 3.11095
0.603647 -1.46996 3.56186
-1.17994 0.0101946 3.09088
1.04765 -0.0470354 2.83994
1.74759 0.986223 2.53273
1.71366 -0.157784 2.8201
-1.60794 -0.83297 3.34436
1.2752 0.642899 2.77642
-0.143667 0.0526216 1.0631
-1.04972 -0.00816858 3.05202
1.93826 0.432564 2.709
1.84371 0.50023 2.63451
-1.11627 0.264945 3.05382
-0.363537 -0.242893 3.07324
-0.832425 -0.634575 3.22765
-0.0155579 1.22639 2.64658
1.55495 0.704261 2.62265
-1.34772 -1.00967 3.16885
0.671698 0.507465 2.93433
0.957948 1.11653 2.75656
0.0262898 -0.207389 3.04815
1.01706 1.20966 2.7414
0.141124 0.465411 2.90092
1.1213 -2.46299 3.39073
-1.286 -1.05581 3.40002
-0.952449 -0.172129 3.10786
-0.592925 0.620282 3.12571
1.09469 -0.156884 2.80517
0.424338 1.46945 2.84125
0.507489 -1.83042 3.63028
0.977224 -0.958224 3.25388
-0.128956 -0.930154 3.40747
0.296024 1.23393 2.91698
0.887153 -0.130418 2.89737
0.021324 0.567357 3.02495
2.01319 -1.01028 3.40843
1.85735 -0.556908 2.75296
-0.365008 -0.856562 3.3807
0.600768 -1.65737 3.85318
0.442901 -0.031375 2.93046
-1.04907 -0.0416193 3.11339
-0.73069 -0.624027 3.2872
-0.749517 0.719222 3.00594
-0.145625 -0.797524 3.3235
2.43338 -0.349777 3.05526
1.07989 0.640237 2.90355
-0.758294 0.069991 3.09357
1.89559 0.142146 2.74216
-1.13768 -0.787706 3.34771
2.57749 -0.440462 2.95201
-0.77722 0.799162 3.00818
1.51853 0.103283 2.83864
-0.320521 0.0181273 2.97335
-1.01899 0.783415 2.83075
0.930619 0.710827 2.87622
1.10441 -0.680137 3.00765
0.701295 -1.48068 3.55139
2.57974 -0.480538 3.39254
-0.577734 -0.204064 3.14747
-0.654658 0.793302 1.86477
0.167493 -1.25703 3.5201
-1.82991 -1.1823 3.78325
0.195078 0.529423 2.90073
0.879429 1.16281 2.76564
1.91512 0.423449 2.7464
1.5184 -0.153851 2.80261
-0.595437 0.827256 1.87271
-0.468968 0.940703 3.05206
-0.828912 0.558004 4.08983
-0.991027 -0.974201 3.35144
0.886436 0.241923 1.36439
-1.0417 0.789633 2.85292
-0.400836 -0.123044 3.03451
1.33638 -1.78948 3.52235
-0.594362 0.626333 3.04745
0.266306 -0.947446 3.38943
1.03898 -1.63823 3.57708
-2.66445 -0.26506 5.76574
-0.484459 -0.879588 3.37491
1.38605 -0.78322 2.86486
-1.21517 0.590349 2.90006
1.0693 -2.2732 3.67377
0.128896 0.424264 2.90823
1.48782 -1.14619 3.24232
-0.837582 -0.341472 3.1977
0.428041 1.50621 2.80213
-0.661927 0.745041 1.84559
1.41315 -1.14771 3.38333
-0.0974523 0.406772 2.95939
1.13602 -2.23685 3.54346
0.78885 1.07302 2.815
-1.07366 -0.285375 3.14982
-1.25228 -0.337797 3.18168
-0.509058 -1.1432 3.602
0.709058 1.27319 2.40842
1.38909 -0.229355 2.74159
1.69393 0.471504 2.85783
-1.01634 -0.270262 2.95009
0.349685 1.1801 2.92496
2.33088 0.299998 3.40103
0.96041 0.959908 2.75861
2.45307 -0.391627 3.49323
-0.981527 -0.461624 3.09843
-0.141538 0.293626 2.96809
-0.538357 -1.35948 3.47391
0.822528 0.942386 2.8327
2.37654 0.464663 2.59385
-0.449211 -0.445984 3.27331
0.119932 1.4193 2.54877
0.705149 1.26406 2.38638
1.12002 -1.32032 3.37749
-0.898196 0.290462 3.00438
1.63452 -1.90133 3.81283
0.359502 -0.397105 3.10409
0.661765 1.05823 2.89074
-1.145 -1.22162 3.3547
2.31961 0.0147964 2.8932
0.4555 0.34941 2.85775
-0.650034 0.719997 1.92824
0.358971 -0.365901 3.12049
0.11376 -1.27639 3.56553
1.71426 -0.144402 2.82424
1.53726 0.296701 2.68161
-1.17796 0.0707562 3.4497
2.58877 -1.07766 3.18445
0.158161 1.03837 2.96704
0.966693 -0.4376 2.99958
0.996309 -2.79397 3.60403
-1.14966 0.352317 2.99076
0.705105 -1.3838 3.59288
-0.479905 0.715394 1.98404
0.00962844 1.13174 2.31639
1.48699 -0.381082 2.77751
0.768714 1.21402 2.4232
0.509992 -1.34515 3.61787
-0.401176 0.300998 2.97053
1.85705 0.507438 2.6507
1.94334 0.450877 3.17279
0.646294 -0.360995 2.95071
-0.361401 0.764057 1.94932
-0.0447284 0.538021 1.37143
0.107938 -1.26998 3.56292
-1.2358 0.430225 2.99415
1.55392 -2.26954 4.22796
1.57473 0.983655 2.55912
-0.264181 -0.326429 3.124
1.3726 -1.17764 3.32823
2.63194 0.690525 2.76086
0.176053 0.35077 2.92266
1.05105 0.216971 2.85846
-1.04141 -1.38258 3.27542
-0.0149509 0.560813 1.28744
-0.377589 0.708805 2.11913
1.49395 -0.530888 2.86855
0.60998 -1.5149 3.71069
-0.994488 0.160584 3.44561
0.621235 0.186991 2.85589
2.94536 -0.934655 3.15813
-0.572862 -0.536183 3.22483
-0.588185 0.654605 2.05026
1.24179 -1.47061 3.64996
2.03376 0.349441 2.65812
0.78152 -2.37057 3.70247
1.5678 -0.440749 2.75164
1.75669 -1.96801 3.40694
0.97876 0.246628 2.87762
2.07514 0.246443 2.89339
2.22849 0.471431 2.60251
1.62433 -1.95276 3.43048
-0.250898 0.906655 2.58451
0.820781 -1.62472 3.55049
0.862831 -1.68879 3.64322
1.28295 -0.667877 2.89082
1.37745 0.741548 2.70966
0.561245 -1.45448 3.57966
1.71207 0.0889262 2.76223
-1.1771 0.737237 2.73776
1.34647 -0.645196 2.98039
-0.666929 0.79171 2.97624
2.28822 -0.152743 2.96178
1.63818 0.0311989 2.80743
3.03058 -0.813664 3.01526
0.734265 -0.633901 3.12225
0.755306 -2.14304 3.55372
1.03832 0.144169 2.79903
1.43724 -1.66761 3.62669
2.3137 -1.87729 3.59003
-0.829811 0.632459 2.08632
0.656554 0.826144 2.96262
1.33118 -0.567616 2.88847
2.40288 -0.938051 3.82592
-0.981328 -0.288833 3.13071
-0.58045 0.115844 3.02677
1.19942 -1.68899 3.82639
-0.277238 1.08585 2.45641
1.95869 0.38115 2.93086
0.86295 -0.835816 3.22111
-1.16591 -0.0155882 3.0874
0.54156 -1.44234 3.55962
-0.0704454 -0.0607309 3.00517
1.32276 0.626521 2.71661
0.166835 -1.68747 3.5828
2.57385 -1.05192 3.10725
-0.183124 -0.785601 3.30435
1.45451 0.611146 2.73462
0.74098 -1.88569 3.97005
2.72986 -1.09485 3.1262
0.983096 -0.77807 3.23295
1.9038 0.375675 2.67774
-0.973407 0.160986 3.08982
1.59112 -1.47878 3.38759
1.6085 0.00668733 2.75606
2.70367 -0.350125 2.91977
0.051342 0.730055 3.06353
1.6382 0.49493 2.7074
-0.248979 -1.14738 3.50673
-0.760495 0.626127 2.15697
-0.21021 -1.68183 3.60839
-1.3247 0.139514 3.08831
-0.486514 1.38187 2.96069
1.14766 -1.72232 3.66861
1.63386 -0.600141 2.84391
1.17104 -1.66694 3.53276
2.21883 0.250019 2.76597
0.217687 -1.68865 3.69467
2.2708 -0.878213 3.27108
-0.478482 0.679734 2.12436
-0.208938 -0.624856 3.19442
2.85163 -0.534746 3.01369
-1.05933 0.217397 3.02874
1.1434 -1.49493 3.36526
0.920421 -0.554311 3.00674
-1.1393 0.745894 2.45969
0.851307 -1.95596 3.55677
-1.16404 -1.40434 3.32469
-0.705166 0.16643 2.97667
1.86463 0.995941 2.54951
1.08216 -0.77636 3.10277
-0.863332 -1.264 4.49538
0.900208 0.0119298 2.8832
2.26552 -0.372336 3.30957
1.46891 -0.0427668 2.78805
0.860366 1.31663 2.80839
1.25039 0.68149 2.78512
-0.589155 -0.760348 3.21479
-0.251984 1.08073 2.45388
2.09489 0.271089 2.85182
1.7746 -0.93151 3.09203
1.13092 0.671113 2.86192
0.0131153 0.0924657 2.9506
1.55737 -1.38211 3.19939
2.52965 -1.40919 3.19876
0.789736 -0.712347 3.1637
1.08815 0.72808 2.78874
-0.482883 0.120687 3.00979
0.94865 0.0455405 2.88366
-0.525982 0.78032 2.26796
0.489559 0.742221 2.91527
1.64912 -0.624547 2.82139
-0.301971 -1.34807 3.54204
-0.717909 0.0730625 3.18436
1.53277 -1.45001 3.34487
-0.373687 0.579534 3.06908
1.82676 1.03905 2.55017
1.08214 1.25151 2.46656
1.34265 -0.126204 2.69091
-0.0471997 1.07 2.40805
-0.416224 -0.929171 3.40862
1.37195 -0.890485 3.07772
1.87603 0.079411 2.72603
1.89182 0.464082 2.68169
-0.315024 0.673999 3.08352
1.65475 -2.07534 3.42068
-0.509824 -0.107016 3.10433
1.39602 -0.829187 3.00136
-0.0620573 0.607548 3.0732
1.7372 -0.0567762 2.77601
1.20991 -1.4481 3.44192
-0.070668 -0.859802 3.33791
1.45296 0.545063 2.67074
1.02367 -1.1085 3.30633
0.55152 0.455397 2.91656
0.492875 1.22698 2.89059
1.24362 -0.944407 3.1523
0.724325 -0.271297 3.0229
0.974579 1.09932 2.73404
-1.11743 0.263715 3.76755
1.45379 0.403575 2.79517
-1.14221 -1.03321 3.30316
0.978266 -2.42712 3.23007
-0.697877 -0.243337 3.07898
0.694802 1.11307 2.86442
0.88845 -2.54423 3.89362
-1.10546 -0.088628 3.12752
-0.58753 -1.10777 3.61083
1.29669 0.499433 2.79788
1.20612 -1.56381 3.48144
-0.763096 -0.209186 3.08858
-0.158386 1.14996 2.95625
-0.124169 -0.993251 3.36776
-0.769785 0.526621 3.04543
-1.43871 -0.171181 3.088
-0.443713 0.899866 1.87767
-0.11485 0.758514 2.99853
2.21775 -1.01061 3.29027
-0.360981 0.843172 1.92765
1.29563 -0.708403 2.9662
1.08161 0.040831 2.79217
2.04292 -0.0380555 2.92283
-0.576376 0.757641 3.05237
-1.35773 -0.725996 3.21653
0.53033 -1.46081 3.56504
1.70164 -2.54454 3.72004
-0.041783 0.0274847 2.97116
2.10315 -0.0365743 2.92772
1.47948 -1.00523 3.12053
-1.41057 0.136623 3.05333
1.94812 0.712646 2.569
2.39935 -1.14482 3.19572
-0.718663 -0.686995 3.28325
-0.66917 0.857397 2.89341
0.579056 -1.69635 3.57935
-1.10123 0.112347 3.13147
-0.443625 -1.60905 3.56746
0.270646 -0.0857754 0.144047
-0.316777 -0.664005 3.26449
0.645431 -0.636455 3.1852
1.4825 0.708935 2.62741
0.0951334 -1.57857 3.55508
1.10404 -0.834369 3.07793
-0.170601 0.645596 2.96903
1.86053 0.0955089 2.71171
0.946032 -0.0750237 2.90771
2.72271 -0.831388 3.02138
-1.28941 -0.824192 3.18784
0.765856 0.587942 2.93451
0.661827 -1.66119 3.5957
-1.47618 -1.58449 3.36436
1.45633 -0.0546753 2.83069
1.5268 0.377351 2.27681
1.79454 0.957757 2.52724
0.288244 0.779339 3.03238
-0.861552 0.713455 2.97693
-0.939194 0.32717 3.04738
-1.00502 -0.00448218 3.07337
2.62247 -0.128169 3.10348
1.17755 -0.758356 3.06773
1.36126 1.00509 2.54019
-1.09396 -0.249879 3.14157
-0.548552 0.819918 1.88862
0.792432 -1.06815 3.34668
1.67622 0.448065 2.59266
1.59585 -0.902846 2.94085
0.677939 -2.28093 3.73811
0.962085 -0.198238 2.91752
-0.716879 0.781934 1.86342
-0.125541 0.684598 1.64051
-0.544403 -1.06297 3.43899
-0.378448 0.493356 2.99441
-0.488524 -0.995533 3.36422
0.0900321 0.578606 2.9965
-0.180346 -1.15807 3.5136
-1.46778 -0.167418 3.0931
0.831088 1.30892 2.39688
-0.17142 1.16707 2.95566
-0.983951 -0.917942 3.30818
0.501958 0.509501 2.86396
-0.646819 -0.135603 3.08682
-0.653145 0.857668 1.86069
0.525269 1.56872 2.83296
1.19959 -2.55795 3.45607
1.38595 -1.20869 3.31292
1.27588 0.855785 2.66135
0.265694 1.3941 2.73614
0.321024 -0.360548 3.08469
1.56955 -2.80767 4.16478
