ply
format ascii 1.0
element vertex 1837
property float x
property float y
property float z
end_header
1.51406 -0.50012 2.72168
-0.694507 0.66973 2.04262
0.7904 -1.71231 4.13595
-0.754679 0.216914 2.9665
1.31578 -1.7209 3.72193
0.760611 -0.514749 3.06843
-0.769362 0.64648 2.0337
-0.328889 0.313804 2.98133
1.40923 -1.67936 3.55657
1.40572 -1.51618 3.73717
2.06477 0.267975 2.7557
0.916706 -0.462981 3.02473
-0.0050438 1.03359 2.93236
0.43544 -1.39942 3.63339
0.836195 0.271322 2.87433
1.8782 0.675516 2.64674
-1.03086 -0.438148 3.17508
1.66535 0.873305 2.5619
1.64407 0.738888 2.66695
1.01046 -1.58659 3.62313
0.0425114 0.103586 2.994
-1.4031 -0.674426 3.15296
0.496008 0.629163 2.94309
0.573533 0.882455 2.93916
0.136607 -0.640548 3.21886
0.63387 0.158103 2.87514
-1.04761 -1.5518 3.44299
1.25973 -2.00789 4.11903
0.982472 -0.584444 3.03689
0.731471 0.830675 2.89461
0.473139 -1.63307 3.76756
-0.734981 0.137653 3.01735
-0.278682 0.971916 2.38086
0.289082 -0.522657 3.11807
-0.0767301 0.481252 1.47176
0.167524 0.270697 2.9135
-0.186052 -1.4502 3.58013
0.882942 0.969059 2.84936
-1.34522 -0.497317 3.22934
-0.194758 0.972813 2.98345
2.66214 0.871705 2.8345
0.105028 -1.38881 3.49693
-1.38794 0.255317 3.01369
-0.517554 0.349449 3.02397
-0.328476 -1.34882 3.5488
-1.43299 -0.458204 3.19718
-0.342576 0.746526 2.00972
2.09329 0.490499 2.59751
-0.457155 -1.31141 3.56059
0.329897 0.295422 2.89949
2.01041 -0.458433 2.77761
-0.51204 -0.412669 3.27255
1.2959 0.970178 2.7279
-0.280476 -1.63233 3.63736
1.4406 -0.587487 2.83727
-0.88636 -0.318388 3.16332
0.945544 0.126365 2.8769
-0.3689 0.877689 3.06294
2.0083 0.30088 2.76607
-0.692726 0.958431 2.94597
0.628498 -0.597745 3.15446
0.96791 0.899275 2.84899
0.0331465 -1.53156 3.54493
1.65165 0.184209 2.6847
-0.96476 -0.564779 3.15285
-0.798739 0.638245 2.10681
-0.290676 -1.48155 3.55485
-0.307916 0.167788 2.98259
1.18695 0.00905042 2.7715
1.52706 -1.00614 3.28198
1.25339 -0.759834 2.99673
-0.22616 0.764261 3.06293
-1.19387 -0.768047 3.28022
-0.024222 0.72409 3.05507
-0.276481 1.04846 2.86695
0.161006 -0.0156498 2.94975
-0.7574 0.102345 3.05604
-0.723058 0.822406 2.95751
0.996854 -1.73594 3.68281
-0.457572 -0.733575 3.2921
1.62329 0.601115 2.54735
-1.19012 0.0685395 2.97234
0.494789 -0.688097 3.21371
0.403032 0.789394 2.9942
1.29673 -0.883478 3.04767
0.994656 0.571452 2.9196
-0.546798 -1.61757 3.44876
-0.462809 0.717303 1.93727
1.42363 -0.131509 2.74081
1.91713 0.435678 2.63319
1.17807 -0.0857151 2.753
0.846409 0.648878 2.89834
0.972888 -0.91312 3.31635
-0.035728 -0.0504603 3.02224
-0.669666 0.620994 2.99429
0.427612 1.29098 2.87596
1.74223 -0.735056 2.76298
0.255607 0.208359 2.95432
1.04484 -1.56226 3.5739
1.77025 -0.439912 2.73738
0.61726 0.92589 2.93761
-1.39357 -0.632391 3.33365
-1.20995 -1.41337 3.36826
-0.408308 -1.59065 3.42856
1.40988 0.155059 2.82364
-0.14158 -0.552815 3.15545
-0.4542 0.876377 2.90144
-1.08899 -1.32682 3.30135
-0.845584 -0.503112 3.19896
0.896759 -1.78335 3.64982
-0.890486 -0.509549 3.16284
-0.00374262 0.240652 2.94354
2.35756 0.10845 2.94784
-0.309023 0.744246 2.19631
1.22844 0.730047 2.75404
1.40405 -0.721096 2.97217
0.800994 0.053136 2.87502
-0.156949 0.934904 3.03042
-0.720024 -0.736287 3.31556
1.15174 0.718331 2.82097
0.647571 -1.46049 3.56133
-0.822412 0.0287976 3.0984
-1.22277 -0.714807 3.39058
1.75527 0.106567 2.72625
-1.2191 0.831896 2.82223
-0.267157 0.827689 3.03042
1.82927 -0.533561 2.79117
-1.18534 -1.561 3.4518
-0.294061 0.106002 2.96739
0.999337 -0.614762 3.01959
1.13086 -2.10516 4.83989
-0.529787 -0.951955 3.54826
-0.0207695 -0.0666018 3.01228
-0.498351 0.688218 3.10027
-0.339532 0.643792 3.09702
1.1945 -0.820342 3.11104
-1.17994 0.0101946 3.09088
1.06728 -0.0463899 2.85581
1.74759 0.986223 2.53273
-1.60794 -0.83297 3.34436
1.29023 0.658735 2.75881
-1.04972 -0.00816858 3.05202
1.86535 0.516366 2.62863
-0.37517 -0.240466 3.06489
-0.0155579 1.22639 2.64658
-1.34772 -1.00967 3.16885
0.690701 0.518745 2.9394
0.973987 1.14534 2.7624
0.0192569 -0.204133 3.05026
1.021 1.21022 2.74201
0.14792 0.481694 2.9163
-1.286 -1.05581 3.40002
-0.592925 0.620282 3.12571
1.10914 -0.155437 2.80992
0.976884 -0.969314 3.2531
-0.136994 -0.940764 3.41077
0.305068 1.25224 2.90809
0.901548 -0.124671 2.91474
0.0225704 0.577334 3.03725
1.87022 -0.559786 2.74733
-0.385223 -0.854349 3.3789
0.454026 -0.0209824 2.96235
-1.04965 -0.0402972 3.11146
-0.749517 0.719222 3.00594
-0.147778 -0.808298 3.32369
1.08966 0.650502 2.88285
-0.765082 0.0744003 3.08768
1.89559 0.142146 2.74216
-1.13768 -0.787706 3.34771
-0.77722 0.799162 3.00818
-0.328409 0.0239802 2.97778
-1.01899 0.783415 2.83075
0.942503 0.724054 2.86562
1.11146 -0.689354 3.00509
-0.58946 -0.203694 3.12207
-0.654658 0.793302 1.86477
-1.82991 -1.1823 3.78325
0.198545 0.545964 2.90836
0.899039 1.19137 2.7721
1.53109 -0.159679 2.79929
-0.595437 0.827256 1.87271
-0.991027 -0.974201 3.35144
0.886436 0.241923 1.36439
-1.0417 0.789633 2.85292
-0.409787 -0.118813 3.02594
-0.581066 0.629526 3.05981
0.271124 -0.95983 3.39547
-2.66445 -0.26506 5.76574
1.39087 -0.79366 2.8604
-1.21517 0.590349 2.90006
0.13854 0.444616 2.92719
1.49308 -1.15822 3.23848
-0.837582 -0.341472 3.1977
-0.661927 0.745041 1.84559
1.40999 -1.1567 3.37893
-0.0952077 0.422204 2.96578
0.806547 1.09781 2.81657
-1.07366 -0.285375 3.14982
-0.536855 -1.14277 3.60344
1.40175 -0.229487 2.73942
1.69393 0.471504 2.85783
0.351943 1.1998 2.91119
0.981251 0.986115 2.76341
-0.998786 -0.462707 3.09405
-0.139723 0.310361 2.98012
-0.538357 -1.35948 3.47391
0.834318 0.966019 2.82854
2.37654 0.464663 2.59385
-0.455561 -0.448664 3.26367
0.119932 1.4193 2.54877
1.11826 -1.33344 3.38431
-0.898196 0.290462 3.00438
0.364429 -0.399976 3.11226
0.676 1.0842 2.8875
-1.145 -1.22162 3.3547
2.33364 -0.000106338 2.87774
0.46695 0.364068 2.87294
-0.650034 0.719997 1.92824
0.366986 -0.37008 3.12706
0.11376 -1.27639 3.56553
1.72533 -0.150152 2.82062
1.55428 0.294032 2.66828
0.164015 1.06554 2.95306
0.971721 -0.440505 2.99792
-1.14966 0.352317 2.99076
0.700174 -1.40203 3.60331
-0.479905 0.715394 1.98404
0.00962844 1.13174 2.31639
1.49856 -0.381947 2.77378
0.507592 -1.35861 3.62455
-0.413756 0.308078 2.96218
1.87643 0.531624 2.63204
0.649474 -0.363472 2.95767
-0.361401 0.764057 1.94932
-0.0447284 0.538021 1.37143
0.094657 -1.28311 3.57513
-1.2358 0.430225 2.99415
1.57473 0.983655 2.55912
-0.263676 -0.330258 3.13201
1.36665 -1.19116 3.32981
2.63194 0.690525 2.76086
0.185945 0.36314 2.92367
1.06806 0.225005 2.8746
-1.04141 -1.38258 3.27542
-0.0149509 0.560813 1.28744
-0.377589 0.708805 2.11913
1.50747 -0.53596 2.86661
0.617726 -1.53074 3.71436
0.637401 0.196081 2.88593
-0.580083 -0.531981 3.23198
-0.588185 0.654605 2.05026
1.23612 -1.48498 3.65648
2.0489 0.351905 2.6441
1.57149 -0.447093 2.74773
0.996915 0.261282 2.89039
2.22849 0.471431 2.60251
-0.250898 0.906655 2.58451
1.28787 -0.674658 2.89307
1.38767 0.741296 2.70072
0.55534 -1.4609 3.59357
1.71207 0.0889262 2.76223
-1.1771 0.737237 2.73776
1.35532 -0.653598 2.97306
-0.666929 0.79171 2.97624
1.65063 0.0408795 2.80232
0.737032 -0.641858 3.12351
1.056 0.150761 2.82021
1.43724 -1.66761 3.62669
-0.829811 0.632459 2.08632
0.672516 0.845233 2.95669
1.3436 -0.569769 2.88422
2.39885 -0.953887 3.83426
-0.582548 0.126282 3.01957
1.20953 -1.68776 3.83065
-0.277238 1.08585 2.45641
0.869092 -0.84717 3.2241
-1.16591 -0.0155882 3.0874
0.510706 -1.46138 3.58185
-0.07251 -0.0527885 3.0206
1.33868 0.640701 2.70147
-0.192107 -0.795808 3.30244
1.45961 0.604465 2.7255
0.74098 -1.88569 3.97005
0.994032 -0.782452 3.23222
1.9038 0.375675 2.67774
1.59215 -1.47936 3.39746
1.62966 0.00931501 2.74922
0.0520903 0.754479 3.0459
-0.760495 0.626127 2.15697
-0.21021 -1.68183 3.60839
-1.3247 0.139514 3.08831
-0.486514 1.38187 2.96069
1.64406 -0.605388 2.83875
2.227 0.232151 2.74778
0.205112 -1.67541 3.70433
-0.478482 0.679734 2.12436
-0.214979 -0.618974 3.20342
-1.05933 0.217397 3.02874
1.1434 -1.49493 3.36526
0.926903 -0.557705 3.00779
-1.1393 0.745894 2.45969
-1.16404 -1.40434 3.32469
-0.713366 0.16863 2.97641
1.86463 0.995941 2.54951
1.08294 -0.782913 3.10104
-0.864382 -1.26664 4.49831
0.908178 0.0154702 2.88948
1.48721 -0.0338542 2.78421
1.26022 0.69471 2.76667
-0.582405 -0.759347 3.22633
-0.251984 1.08073 2.45388
1.14054 0.677739 2.83657
0.0174825 0.0939904 2.97009
1.56844 -1.37761 3.19725
0.795195 -0.722437 3.16805
1.11046 0.760265 2.79553
0.957262 0.0510603 2.88407
-0.525982 0.78032 2.26796
0.496966 0.762962 2.92006
1.65986 -0.630902 2.81573
-0.381378 0.594874 3.05913
1.82676 1.03905 2.55017
1.35508 -0.126963 2.69332
-0.0471997 1.07 2.40805
1.37067 -0.899691 3.07858
1.88794 0.0758708 2.70439
-0.317914 0.671598 3.07537
-0.526871 -0.089661 3.08425
1.40094 -0.840462 3.00036
1.7372 -0.0567762 2.77601
-0.0822904 -0.868558 3.34413
1.45934 0.560194 2.66511
1.02363 -1.12306 3.30324
0.566223 0.473028 2.91859
0.499625 1.24821 2.87794
0.733416 -0.280307 3.02799
0.996971 1.13094 2.74253
1.46473 0.41679 2.78585
-1.14221 -1.03321 3.30316
-0.708635 -0.243093 3.07116
0.714696 1.14146 2.85744
-0.581906 -1.10922 3.62156
1.3142 0.513144 2.77899
-0.779294 -0.204878 3.07248
-0.150276 -0.990195 3.37436
-0.769785 0.526621 3.04543
-1.43871 -0.171181 3.088
-0.443713 0.899866 1.87767
-0.115506 0.778686 2.9919
-0.360981 0.843172 1.92765
1.30054 -0.720729 2.96525
1.09038 0.0485939 2.80216
-0.575653 0.757718 3.05287
-1.35773 -0.725996 3.21653
0.524445 -1.46247 3.58014
-0.0395781 0.0245402 2.96901
-1.41057 0.136623 3.05333
1.94812 0.712646 2.569
-0.725184 -0.685313 3.29082
-0.66917 0.857397 2.89341
-1.1116 0.112698 3.12218
-0.443625 -1.60905 3.56746
0.270646 -0.0857754 0.144047
0.640584 -0.646245 3.18686
1.49683 0.723057 2.61679
1.10445 -0.848378 3.07953
-0.174561 0.660272 2.96063
1.87139 0.105081 2.70844
0.962021 -0.0780004 2.89388
-1.28941 -0.824192 3.18784
0.778455 0.60621 2.92538
-1.47618 -1.58449 3.36436
1.47363 -0.0555806 2.82872
1.5268 0.377351 2.27681
1.79454 0.957757 2.52724
-0.861552 0.713455 2.97693
-1.00502 -0.00448218 3.07337
1.1789 -0.76788 3.06417
-1.09396 -0.249879 3.14157
-0.548552 0.819918 1.88862
0.785415 -1.08301 3.34871
1.67809 0.449906 2.5894
0.970918 -0.202583 2.91579
-0.716879 0.781934 1.86342
-0.125541 0.684598 1.64051
-0.544403 -1.06297 3.43899
-0.384079 0.491465 2.98086
-0.488524 -0.995533 3.36422
0.0950578 0.595136 3.00205
-1.46778 -0.167418 3.0931
-0.983951 -0.917942 3.30818
0.510065 0.528928 2.88049
-0.66366 -0.130265 3.05967
-0.653145 0.857668 1.86069
1.3791 -1.22282 3.31556
0.259149 1.39344 2.73518
0.328485 -0.366811 3.09028
1.28148 0.356764 2.82871
-0.540035 0.74827 1.9445
0.0510235 -0.323151 3.06452
-0.315016 0.790245 1.968
0.270281 1.51785 2.78952
-0.545171 0.456236 2.99405
-1.52238 -1.14864 3.26503
0.998227 1.11041 2.83602
0.12401 -0.281772 3.05795
1.8198 0.386663 2.76711
0.537305 -1.18192 3.53072
-0.24573 -0.20751 3.08948
-0.262611 0.869326 1.95665
0.446225 -1.06477 3.43339
0.373195 1.32977 2.89574
-0.858306 0.594701 3.16789
-0.283234 0.921988 1.9355
1.755 0.725498 2.58713
-0.423476 -0.166758 3.09289
0.277497 0.510917 2.93008
0.204859 -1.04261 3.54831
-0.1975 0.641103 3.09263
-0.543036 -0.136256 3.08959
-1.3227 -0.922027 3.26124
-0.474667 -0.958213 3.53337
-0.0693376 -0.0850263 3.01563
-0.120662 0.595122 3.00276
0.722219 -1.22393 3.47938
1.73151 0.420771 2.696
0.96033 -0.319349 2.89756
1.48352 1.02877 2.52998
0.482194 0.401338 2.89311
1.36234 -1.14331 3.33357
1.12475 -0.27723 2.8348
0.100011 1.11334 2.90417
1.1848 1.11599 2.6909
2.48459 0.371275 2.60301
1.53998 0.419523 2.69769
0.980998 -0.244804 2.92271
0.203591 -1.11046 3.46255
0.881035 -0.481284 3.0543
-0.0544094 1.05227 2.98891
1.5414 0.273996 2.70553
-1.07499 -1.30943 3.3488
2.50909 0.0284602 2.93324
0.24433 1.52259 2.7303
-0.940271 -0.463246 3.27822
-0.0469982 1.01144 2.95982
-1.44797 -1.19888 3.08482
1.72103 0.252223 2.6809
-1.12941 -0.421153 3.25361
0.0791 0.36307 2.91523
1.52148 -1.3127 3.42178
0.2778 1.11844 2.98142
-0.00549808 0.530909 1.21694
1.61899 -1.18788 3.20538
-1.48035 -0.385226 3.21888
-0.758138 0.70642 1.89606
0.0289735 0.582558 1.46442
0.181816 0.334874 2.91836
0.573648 -1.56786 3.61178
-1.2695 0.222942 3.02592
-1.4303 -0.605547 3.1667
1.57127 0.810376 2.58709
0.506051 -1.57745 3.75221
-1.1059 0.171329 2.92567
2.43949 0.653367 2.78886
1.50208 -0.563127 3.04744
1.40039 0.802007 2.68761
-0.49019 1.44518 2.95956
0.977379 0.931001 2.84397
0.593384 0.229787 2.88957
0.0547835 -0.523297 3.17782
2.15778 -0.711492 3.22244
-1.35806 -1.32646 3.25689
0.626258 0.226784 2.91006
-1.18207 -1.36405 3.22739
0.188438 0.960019 2.99584
0.67376 -0.572138 3.11749
-0.413194 -1.46965 3.59166
-0.817738 0.206167 2.97199
-1.27442 -0.541749 3.25634
-0.261588 0.935682 3.04011
0.022995 0.710353 1.80127
0.116269 0.993934 2.96258
2.49773 0.818581 2.88013
-1.03163 -1.62978 3.45937
0.435311 0.262008 2.87646
-1.06118 -0.485758 3.09076
2.26849 0.0231153 2.96571
0.315762 -1.46762 3.65334
-1.12888 0.77059 2.76615
-1.08073 -0.765955 3.33729
-0.225149 0.0914602 3.03347
0.056574 1.31679 2.88024
-0.0389394 -0.69463 3.25394
-0.412033 1.31602 2.95314
-0.0357239 0.767979 2.99034
-0.717226 0.0608471 3.04792
0.373738 -0.643298 3.15585
-0.107638 0.168572 3.01195
-0.33942 -1.59384 3.52051
-0.17619 0.880372 3.03203
0.0836555 0.696043 3.34888
-0.743605 0.861899 2.93904
-1.03317 -1.46144 3.30643
1.40631 0.104491 2.85178
1.43843 -0.576868 2.93404
-0.298409 0.858929 1.9311
-0.838886 -0.995208 3.80012
-0.958014 0.699852 2.944
-0.144539 -0.0528486 3.02203
1.51094 -0.681115 2.66972
-0.97405 0.728643 3.25019
0.307962 -0.0177264 2.96808
-0.212204 1.01318 2.76517
1.81343 0.347518 2.65603
0.700303 0.729672 2.94687
-1.20406 0.0249272 3.09143
1.51559 0.406715 2.27159
1.45362 -0.717151 2.92911
0.43046 -0.206272 2.99186
-0.129502 0.942663 2.14989
0.3451 1.26454 2.91083
-0.437689 -1.08764 3.51403
-0.987684 0.55402 2.96334
1.32648 -0.167463 2.79193
-0.633037 0.807645 1.86557
1.69799 1.11181 2.56109
-1.10889 -0.967978 3.26557
-0.347162 0.514614 2.99651
-0.592558 -0.983396 3.43431
-1.12846 0.606026 2.8669
-1.03534 -0.132677 3.16647
1.7134 -0.794403 2.8063
1.56191 0.520171 2.68225
-0.732751 -0.085009 3.04217
0.681453 -0.799719 3.18373
1.04509 0.0121774 2.8737
2.54044 0.0172401 3.78568
0.928112 -0.0238558 2.88122
-0.313735 0.759031 3.09093
0.223117 -0.777105 3.28539
1.02641 0.681942 2.87555
1.85746 -1.40646 3.26873
-1.38592 -0.723442 3.14278
-0.869566 0.766737 2.65009
-0.348124 0.0452738 2.97737
1.34081 0.701317 2.71
-1.38726 -0.173111 3.08305
1.36187 -0.935236 3.05566
-0.390823 0.578702 2.99896
1.89362 0.587861 2.61398
1.54573 -0.136413 2.74402
-0.547124 0.855084 1.88399
1.88109 0.363951 2.64158
-1.43748 -0.910697 3.17817
0.604335 0.537131 2.92087
0.866602 -0.0973593 2.95466
1.3875 0.591791 2.69824
-0.102692 -0.908365 3.34531
0.774174 1.26134 2.82581
0.639994 -0.0607443 2.93589
-1.40452 -0.824811 3.13209
1.73149 0.560059 2.70681
1.15665 -1.15635 3.37513
1.74932 0.449847 2.74466
0.0777547 -0.28966 3.06044
-0.451032 0.775919 1.86275
-0.692055 0.459631 3.07994
0.105412 -1.14872 3.55629
0.000273956 0.844452 2.09144
0.470638 -0.256787 2.97728
1.59024 -0.999495 3.12684
1.66215 -0.207248 2.72211
0.615068 0.502525 2.919
-0.691954 0.71162 1.91368
1.3309 -0.411674 2.7465
0.961748 1.007 2.78039
1.2949 -1.36068 3.43944
1.39876 0.310978 2.78613
-0.0477358 0.943565 2.15424
-0.251288 -0.413284 3.17003
0.521106 1.01882 2.91616
-0.246052 -0.223231 1.32496
0.335611 -1.3122 3.49657
0.248105 0.295056 2.91779
1.54816 0.359818 2.63344
1.27296 -0.362679 2.85844
0.699278 -1.2802 3.5003
1.18687 1.05509 2.7108
-0.0243912 0.504992 1.3187
-0.613632 -1.19125 3.45441
1.81468 -0.33841 2.81502
1.33931 1.00851 2.67305
2.26994 0.30012 2.51302
1.22523 0.353908 2.84802
0.778187 -0.893437 3.21468
1.55443 -0.0965697 2.83954
1.93199 0.000323432 2.73698
0.0883337 0.650701 3.12951
1.0345 -1.74637 3.68705
1.2529 -0.0638908 2.77772
1.65201 1.14291 2.56437
0.369349 0.710474 3.02791
-0.469456 -0.873644 3.36287
0.780816 -0.0256263 2.90956
-1.2318 0.657128 2.88305
0.232815 -0.825271 3.31199
1.31789 0.491116 2.84388
1.24235 -0.241109 2.77633
-0.262005 0.878341 1.97248
-1.22837 -1.05677 3.3061
-1.27342 -1.01478 3.30419
-0.383125 0.779096 2.02934
0.831581 1.15404 2.79714
1.54862 -0.214391 2.86984
-0.455814 0.491367 3.00942
-0.658069 -1.00808 3.43078
-0.898634 0.596521 2.99914
0.0662539 -0.165383 3.02755
0.276402 0.543948 2.93284
-0.284253 -0.945586 3.35596
-0.607955 0.872411 1.88271
0.507573 -0.13274 2.9459
0.894939 1.05087 2.78025
-0.636205 0.372719 3.01628
-0.0711537 1.11836 2.80604
-1.00594 -0.371999 3.14344
-1.15787 -1.21301 3.34447
1.60816 -0.317826 2.83771
-0.474812 0.756778 1.87749
1.129 -1.20948 3.41631
0.597625 0.441774 2.90962
-0.76635 0.7273 1.85147
-0.497193 -0.292062 3.10035
0.800819 0.403166 2.91874
1.00566 -1.19432 3.50291
-0.885631 0.161274 3.0576
1.46727 -0.481411 2.80337
-0.0470314 0.623768 1.34467
-0.57678 0.279626 2.99643
-0.443523 -1.43816 3.52562
1.07744 0.940877 2.76135
1.35552 0.880045 2.6891
0.954702 -1.52957 3.77618
-0.314831 0.242179 3.00799
-0.0315225 0.573543 1.30044
1.2551 -0.474032 2.93677
-1.41191 -1.22748 3.1667
-1.09426 0.348625 2.94983
0.399698 -0.441123 3.08949
-0.695664 0.720306 1.93799
2.31092 0.0389549 2.95419
-0.173589 -1.32678 3.58473
0.996892 0.28542 2.91403
-0.00829934 0.543384 1.289
1.05446 -0.392096 2.9171
0.176477 1.02026 2.91804
0.739276 -1.16194 3.27438
0.986659 0.438222 2.89555
0.0292119 -0.332704 3.08182
-0.519729 0.419853 3.00216
0.372178 -1.1895 3.54171
1.00972 1.07611 2.77215
-0.994195 -0.292343 3.13421
0.212611 1.19741 2.89354
-0.067436 -0.139358 0.845426
-0.842414 0.499781 3.0222
-1.3126 -0.258394 3.14438
1.55116 1.02826 2.54164
-0.956675 -1.02368 3.1619
2.59366 0.936353 2.86923
-0.2386 -0.487786 3.18843
1.34726 0.946939 2.68356
0.593509 0.291356 2.88935
-0.869439 -1.40572 3.53442
-1.30651 -0.452151 3.15984
-0.0404019 1.00821 2.282
1.46774 0.878399 2.57004
0.391896 -1.3744 3.5603
0.864317 0.258384 2.8693
1.66153 0.334752 2.67061
0.896407 -1.32083 3.48409
-0.185149 0.790448 2.06965
-0.0174167 0.533292 1.24476
0.237449 -0.401419 3.09763
-1.07447 0.352164 3.02482
1.25984 -1.23817 3.35195
1.11016 1.00046 2.74502
1.5938 -0.358806 2.82403
0.651741 -0.456962 0.857854
-0.967213 -1.48667 3.41114
-1.33858 -0.644854 3.37301
2.26017 0.211767 2.74701
0.394334 0.15933 2.91252
-0.394693 0.891236 3.02405
-0.478522 -1.60469 3.41447
2.2468 0.509373 2.64531
-0.50522 1.40404 2.96384
-1.44955 -0.579636 3.18469
-0.852529 0.668017 2.01882
0.81463 -1.52044 3.5739
-0.827997 0.235476 2.99207
-1.00049 -0.544175 3.21812
1.66574 0.805869 2.55097
0.800141 -1.56074 3.79123
1.23587 0.182629 2.79293
-0.0346905 0.0487141 2.95518
-0.229832 1.06848 2.45275
0.988003 0.755273 2.88329
1.67805 -0.713332 2.85621
0.981186 -0.731515 3.14758
0.030417 0.746319 3.04521
2.00484 1.07237 2.6972
0.678522 0.0141455 2.9113
0.758143 0.116697 2.86494
-0.298996 0.874403 3.02937
1.82284 0.715667 2.57448
0.87296 -0.679438 3.12858
0.608082 -1.7764 3.9082
0.275085 0.0859579 2.9562
1.05363 -0.636096 3.06517
2.49155 0.012347 3.76018
0.762225 0.79861 2.9101
0.706667 -0.73356 3.16411
1.18718 0.748032 2.76744
-0.0473524 1.10933 2.91756
1.06492 0.0767908 2.79715
1.38653 0.684249 2.66088
1.47305 -0.634222 2.84973
-0.276345 -1.08088 3.44239
1.13657 0.0308193 2.84257
-0.607975 -1.57219 3.46118
-0.669083 0.152446 2.98511
2.06529 1.16269 2.80725
-1.37156 -0.647619 3.16487
-0.109762 0.911358 3.10504
-0.255339 0.119716 3.00193
-0.678103 -1.54497 3.51879
2.11356 1.06307 2.76681
0.237058 -0.62649 3.21784
1.63647 0.740053 2.61057
1.11481 -0.812846 3.06435
0.786752 -0.0642583 2.90268
0.576498 -1.76778 3.73156
-0.265333 0.684899 3.16709
1.9161 0.640373 2.6129
-1.4296 -0.0233483 3.08517
-0.904012 -1.61898 3.41758
0.112341 0.739883 3.04521
1.91833 -0.164655 2.72025
0.809077 -0.805516 3.18172
1.25099 0.00661916 2.76489
0.339902 0.707076 3.0313
-0.403382 -0.787284 3.3214
1.2824 0.51283 2.81657
0.172839 -0.22592 3.03069
-0.278069 0.909576 1.96615
0.0510291 -1.06026 3.41114
-0.621361 -1.01015 3.40918
-0.447503 0.756806 2.22485
-0.684305 0.801805 1.86578
0.99172 -0.176169 2.92519
0.828236 0.500765 2.96637
-0.548847 -0.956776 3.32685
1.04578 0.593097 2.88876
-0.384556 -0.143752 3.09471
0.44429 0.558709 2.91311
1.21724 -0.886627 3.14993
0.665703 1.24623 2.84162
0.408384 -0.098036 2.96465
-1.02841 -1.2102 3.50716
-0.372456 -0.344723 3.13226
-1.31516 0.420547 2.95399
-0.393525 0.7593 1.94391
1.66207 -0.281202 2.62012
0.0589575 -0.222159 0.902777
1.15842 1.11476 2.70704
0.294456 -1.20615 3.54627
0.358648 0.463526 2.87872
1.13499 -0.254937 2.82553
0.392495 1.13732 2.87026
-0.583592 0.442266 2.98536
0.449508 -1.15415 3.52774
1.26223 -0.172235 2.77404
-0.422397 0.723903 1.96896
0.299245 1.30399 2.90624
-0.934778 -0.983624 3.37952
1.12298 0.55175 2.8425
-0.685026 0.856499 1.8654
-0.800129 -0.14004 3.09453
-0.550309 0.551377 3.04465
1.83382 0.659763 2.60057
-0.751386 -0.957721 3.36782
-0.564042 -0.0977168 3.09937
-0.866891 -0.904667 3.30068
-0.1179 0.694551 3.12167
-0.191329 -0.891169 3.42913
-0.321485 -0.055662 3.05441
1.38409 0.559569 2.75148
-1.42953 -1.08678 3.20487
0.0379226 0.483484 3.00327
0.81901 -0.302285 2.98319
0.621238 1.19321 2.88622
1.4146 0.409934 2.76804
-0.396384 -1.18888 3.69903
-0.332881 -0.26229 3.10772
1.42155 1.05539 2.63417
-0.369231 0.850351 2.41277
0.096968 0.504978 2.96664
1.29172 -0.208883 2.80512
0.693241 -1.09025 3.41173
-0.906564 -0.462125 3.20296
0.101796 1.18688 2.15406
0.814974 1.02932 2.83908
0.193565 -1.42106 3.64835
1.65999 0.292279 2.7289
-0.304163 -0.417346 3.18027
-0.251903 -0.0312492 1.42534
1.12185 0.978945 2.78367
0.688962 -1.36805 3.62119
0.906708 0.288427 2.85841
1.52513 0.364004 2.69837
1.64925 -1.21145 3.21826
1.53187 0.987237 2.52426
0.0625903 0.539621 1.29819
1.22771 -0.372872 2.92213
0.00518712 0.362863 2.95755
1.67248 -1.10337 3.06596
-0.808091 0.706946 1.87053
-0.712744 -0.348291 3.12781
2.47637 0.933195 2.90135
-0.730823 -1.47699 3.49445
1.0914 -0.543113 2.91428
2.08543 0.524066 2.60089
-1.36514 -1.29866 3.10457
-0.26269 0.188781 2.97298
1.64718 -0.502285 2.82599
-0.659709 0.644836 2.08339
0.12673 0.596058 1.33913
2.01568 0.456516 2.62241
0.740406 0.968439 2.88262
0.251796 0.26731 2.93248
-0.0333664 -0.503888 3.18861
0.965059 0.928723 2.86396
-0.585545 -1.395 3.49305
1.51119 0.202487 2.70725
1.11549 -1.1065 3.35774
-0.504341 0.519183 3.0028
-0.0722325 -0.252574 3.08475
-0.317597 0.863958 1.94197
1.18808 0.453683 2.82641
-0.738012 -1.06217 3.45737
-1.13586 -0.220573 3.16095
1.55199 1.03375 2.47217
-1.51935 -0.956563 3.17289
1.65528 0.537772 2.76008
1.2458 1.16457 2.69695
-0.236033 -0.174523 3.07793
-1.12992 -0.915115 3.20844
-0.0201354 0.552504 3.02624
0.310666 -0.137042 2.96727
-0.515678 0.853849 1.88441
0.875006 1.06245 2.8239
-1.101 0.378381 2.99407
-0.157722 -0.0882766 1.11634
1.16912 0.987095 2.71025
-0.48089 -0.374229 3.09858
0.972756 0.325395 2.91365
0.0673098 -1.31827 3.63481
-1.13705 -0.361335 3.26694
1.54825 1.00426 2.49317
2.64484 0.925798 2.85866
-1.25913 -1.15913 3.33459
0.748117 0.445952 2.91732
0.253221 1.12702 2.95517
0.44447 -0.286498 2.99958
0.1423 1.26 2.3709
1.32022 0.385041 2.79336
-0.605225 -1.17757 3.50872
-1.21071 -1.32634 3.24308
1.53109 0.238857 2.59003
0.525778 -0.304431 0.580315
1.30344 0.928486 2.73432
1.30231 -0.507843 2.9046
-0.67524 -1.39184 3.51354
-0.613213 0.227578 2.93472
0.991832 -0.486305 3.00429
-0.46678 0.687049 2.08122
1.85932 -1.89948 3.62123
0.723717 -1.39657 3.56069
0.692615 -0.451964 3.08881
-0.0230244 -1.34285 3.57844
0.766426 -1.81142 3.81853
1.50106 0.274507 2.7569
0.0409081 0.59611 1.30592
-0.189327 -0.41277 3.14264
-0.545804 0.699421 2.00116
-1.46123 -0.69239 3.19233
-0.641878 0.852603 2.98504
-0.501492 1.35557 2.96346
-0.122247 0.128613 3.00085
0.065121 0.820085 3.03816
-0.714078 -0.680136 3.40531
2.27624 0.6755 2.76214
-0.993491 0.10572 3.22786
0.077715 -1.58355 3.48226
0.742314 -0.608598 3.11195
0.189191 0.930299 3.02455
0.635602 -1.65807 3.72866
1.53232 0.181473 2.80253
-0.178626 1.11824 2.87394
-0.722192 -0.568761 3.20893
1.58915 0.760408 2.57555
-1.34595 -1.40376 3.32542
-1.03971 0.167355 3.00203
0.724543 -1.66185 3.64741
0.997658 -0.472351 2.93492
-0.0294643 0.588081 1.53196
1.073 0.287843 2.89167
-0.69272 0.706165 1.97822
1.06797 -1.36208 3.33641
-1.08548 -1.27427 3.3397
1.23409 0.254536 2.81646
1.51342 0.876826 2.60022
0.0306028 0.847401 1.81288
0.0790765 -0.444869 3.12389
-1.48341 -1.23678 3.29133
1.07822 0.350722 2.87184
-1.3311 -0.431946 3.24046
-0.231642 0.776785 2.03586
0.0279747 0.550356 1.32358
-0.918322 -1.23047 3.44299
-1.36019 0.343717 2.99125
-0.0225437 0.5224 1.45055
1.48391 -0.361972 2.82031
-0.42152 0.736629 1.99578
1.22327 0.822931 2.75868
2.26959 0.733599 2.841
-0.410706 0.156677 2.99343
-0.747096 -0.623352 3.28987
0.110095 -1.63548 3.69311
2.22414 0.52121 2.64665
-0.709643 0.662478 2.00633
1.46063 -0.558316 3.00861
-0.347355 0.237625 3.0619
-0.182243 -1.53107 3.61491
-0.427997 -0.537438 3.24226
1.34963 0.835149 2.70123
0.227896 -1.45901 3.55014
-0.892605 0.196104 2.97444
-0.215433 1.34467 2.92538
-0.247113 1.01584 2.23591
0.490852 0.0427939 2.91676
-1.08595 -0.788754 3.40039
-0.611246 0.760512 2.95351
-0.563683 -1.03217 3.58958
-1.07296 0.748982 2.97518
-1.41462 0.0209041 3.16808
1.38734 -0.700585 2.98678
0.387538 0.114909 2.92607
1.4676 0.330083 2.1891
0.563964 0.822954 2.93186
-0.86417 -0.699766 3.23477
0.135154 -1.57767 3.47372
-0.820014 0.090362 3.06086
1.90617 1.12678 2.94506
-1.06975 0.787777 2.8377
0.181542 -0.656289 3.20908
1.2757 0.568695 2.77081
1.84249 0.320645 2.68443
-0.356995 -0.0920382 3.07443
0.0146493 -1.7142 3.68333
-0.979695 -0.898246 3.35091
1.67293 -1.06705 2.94595
-0.64882 -0.0677487 3.07901
1.75826 0.658095 2.79535
1.47735 -0.801215 2.94352
-0.676463 -0.0227262 3.07861
-1.05359 0.661263 2.97496
-1.20345 0.238155 3.00156
-1.18662 -0.794738 3.20053
0.0177677 0.716998 3.24393
0.0351453 1.26545 2.85567
-0.461459 -0.0618814 3.07954
-0.386022 0.866366 2.36069
0.118882 -0.873706 3.33967
-1.45425 -0.0286193 3.08773
-1.2 0.729524 2.91628
-1.23605 -0.789088 3.15122
1.43084 -0.00364245 2.7867
-0.692451 0.698128 3.02572
1.76118 0.93223 2.53133
-0.0887549 -0.789583 3.32669
1.71195 0.48365 2.64187
0.336089 -0.225448 3.03949
-0.377161 0.846988 1.91256
-0.964632 -1.05092 3.41319
1.30341 -0.948913 3.09618
0.458164 0.486802 2.88171
-0.135685 0.992415 2.64358
1.14923 -0.172259 2.76985
-0.354958 0.869008 2.45738
1.84576 -0.861109 2.91416
-1.02252 0.611674 2.97352
0.980159 -0.146212 2.89798
-0.758999 -1.0156 3.6301
0.375576 0.552949 2.93389
0.473441 -0.10777 2.96932
0.914431 1.23643 2.7647
-0.553087 0.745637 1.90837
0.91295 0.388372 2.92251
0.46898 -0.338852 3.04561
1.22088 -1.17413 3.28839
1.57679 -0.302931 2.95593
1.65141 1.04779 2.53525
1.11607 -1.19438 3.46689
1.10875 0.460005 2.86576
1.31879 1.05092 2.63333
-1.42535 -0.270369 3.11291
-0.250564 0.449275 2.99342
0.597988 -1.10688 3.37267
-0.250982 -0.0318208 1.42345
0.407668 -1.42652 3.54251
1.16909 0.269278 2.80048
0.0668075 1.01228 1.96242
-0.799785 0.692975 1.96871
1.18675 -0.470374 2.86923
-0.19994 -1.38213 3.58117
-0.675259 0.258765 2.9993
-0.366517 0.720926 2.09565
0.0996569 1.1924 2.25617
0.734956 -0.449749 3.0131
-0.0124228 1.35421 2.88957
0.0771868 -1.33983 3.5613
0.446972 0.344487 2.87775
0.701376 -0.41206 3.04063
-0.4521 0.741319 1.95256
-0.0941293 -1.26067 3.48388
0.0935625 0.567184 1.35337
-0.969687 0.328258 2.96013
-0.230326 -0.382196 3.14856
1.49904 0.932207 2.57428
0.864831 -1.16824 3.38244
-1.50975 -0.321261 3.22292
0.450139 0.426781 2.8928
-0.294192 0.781421 1.96586
1.08209 -0.25545 2.83498
-0.696444 0.684897 1.9361
-1.35136 -1.06488 3.2319
-0.41958 0.513485 3.01408
-0.741434 -0.217179 3.08461
1.08866 1.09551 2.69529
0.908842 0.458329 2.92118
0.412407 -1.07394 3.40531
1.5067 -0.430555 2.81162
1.154 0.295378 2.81
-0.939162 0.0765781 3.07625
-0.599709 0.697547 1.94523
-0.432809 -1.35123 3.50055
-0.883432 -1.27527 3.42718
-0.0334129 0.291998 2.92831
-0.660605 0.693995 1.95878
0.190576 1.36949 2.73519
-0.582051 -0.431161 3.24582
-0.73031 -1.25291 3.47492
-0.92874 0.407329 2.95729
-1.09574 -0.37046 3.02538
0.392505 1.09764 2.87499
0.0779516 0.555337 1.35788
-1.06255 -1.18445 3.34904
1.67497 0.322145 2.69549
0.0529072 0.702491 1.39889
-0.610361 0.723529 1.91001
-0.773365 -0.358298 3.18403
0.881842 -1.50675 3.46435
0.881226 -0.569501 3.04822
2.45898 0.73057 2.85844
0.292008 0.181339 2.93164
0.289355 0.924213 3.0387
1.88907 -0.21457 2.78445
0.815141 0.964706 2.87514
1.02398 -0.522419 2.98849
0.199122 -1.69552 3.59895
-1.53939 -1.38462 3.31474
1.13461 0.245567 2.81537
-0.174033 -0.500989 3.18406
1.10019 0.883021 2.7567
0.0360423 -1.43669 3.56214
0.351247 0.207784 2.89444
0.929971 -0.723182 3.1175
1.53915 0.0742788 2.96355
-0.458653 1.05522 2.85706
2.03416 0.520375 2.60933
-0.520589 0.801678 3.00664
1.35885 0.687757 2.67126
-0.141342 1.38762 2.9068
0.281585 0.0394178 2.95402
1.09505 -0.669999 3.01726
0.197439 0.144692 2.96321
-0.566744 -1.56219 3.4349
1.38666 -1.36069 3.26025
0.963573 0.838252 2.87095
-1.35197 -0.665363 3.21196
-0.21857 -1.58627 3.59227
0.238804 0.114404 2.95728
-1.23651 -0.650299 3.34766
2.26224 1.06865 3.01923
-0.391288 0.858166 3.07539
0.468233 1.06341 2.87302
-1.24393 -0.418707 3.1647
1.47351 0.340286 2.85661
0.957995 -1.50298 3.92714
-0.160615 -0.0882845 1.12193
-0.225691 0.764304 2.06991
0.175145 -0.375106 3.07861
0.876463 0.316151 2.90095
0.916344 -1.33227 3.57191
-0.0133113 0.444747 2.96426
1.34321 -0.326161 2.76506
-0.397674 -1.24289 3.55193
0.472922 1.12775 2.86722
0.125502 1.37447 2.83147
-0.403081 -1.19173 3.53128
1.11248 1.0353 2.6702
-1.12973 -0.303664 3.18932
0.752972 0.39511 2.91228
0.198381 1.43777 2.58273
-0.0803072 0.265122 2.95487
0.873442 -1.49133 3.59174
-1.16299 -0.562089 3.34225
0.445278 0.989256 2.94748
-0.805568 -1.39003 3.47951
0.227603 0.223561 2.92731
0.0338585 0.522646 1.31094
-1.16686 -0.513 3.24705
0.381456 0.946781 2.95107
-0.401082 -1.36658 3.55193
2.30768 0.46142 2.60452
0.653036 -0.456363 3.07047
-1.35385 0.304563 2.95481
0.0336594 0.557763 1.23163
1.46688 0.904268 2.57657
0.395595 0.831184 2.98051
0.128013 -0.699098 3.23794
0.989711 0.100884 2.8527
-0.00360776 1.36779 2.88465
0.5562 -0.659855 3.21512
0.440003 0.800452 2.95475
1.13844 -1.74868 3.78828
1.8741 -0.668274 3.00497
-0.469675 0.0813539 2.97869
-0.44196 -0.630711 3.32192
1.15082 0.1746 2.78609
-1.21103 -1.42293 3.22923
1.74381 0.06946 3.29644
0.882284 0.895491 2.90763
1.69082 0.777797 2.62916
-1.11351 -1.41868 3.32504
-0.259082 0.154776 2.96293
-0.666724 0.790878 2.97337
-0.480136 -0.593326 3.31362
-1.24765 0.0180588 3.12593
-0.339161 -0.840254 3.39146
0.897869 0.705085 2.88809
1.71755 -0.0407952 2.70559
-1.41879 -0.77238 3.19803
-0.534709 0.70782 3.08223
-0.785016 -1.26193 4.36702
1.54789 0.0507781 2.37198
0.601883 0.77412 2.99917
-0.602304 0.0502535 3.04325
1.10068 -1.66706 3.51532
0.0374918 1.2097 2.87022
-0.0877467 -0.743299 3.25963
-0.574065 0.823939 2.73082
2.09537 0.263109 2.64527
1.12764 0.133558 2.80896
-0.509997 -0.625517 3.28167
0.258375 0.853557 3.05774
-0.804274 -1.55566 3.52023
-0.940098 -1.62989 3.44006
1.68136 0.090302 2.75953
0.552059 -0.583961 3.18452
-0.564111 0.68391 2.09054
2.23326 0.564305 2.69785
0.271204 -1.54909 3.63214
-1.00371 0.239867 3.01805
-0.155854 1.06075 2.98088
-1.22206 -0.560087 3.29915
1.1966 0.847028 2.7502
-0.0802747 -1.47771 3.6043
-1.42676 0.199966 3.08526
-0.349772 1.29917 2.94866
2.13884 1.06557 2.93458
0.193136 -0.785707 3.29249
1.63707 0.0279262 2.70499
-1.13093 0.781941 2.96833
-0.595525 0.0118894 3.05449
-0.691887 0.725765 2.9626
-1.18682 -0.725379 3.18959
-0.358847 0.982415 2.70355
1.62407 -0.663374 2.92282
1.55784 0.0670855 2.698
0.673892 -1.85168 4.02056
1.96877 0.113469 2.61518
-1.25399 -0.678596 3.31223
0.080069 0.807031 3.02094
1.60909 -0.149316 2.78632
1.43265 -0.867674 2.91885
1.07028 0.585432 2.87161
1.93226 0.545423 2.62813
1.14354 -0.0970811 2.76143
0.390166 1.29937 2.91099
-0.0650901 -0.914604 3.33946
-0.647599 0.592873 3.10085
1.88897 -1.02722 2.90698
1.60932 0.615736 2.63927
-0.724293 -0.0583957 3.06843
1.52875 -0.792397 2.94359
0.866842 0.629451 2.90438
-1.38956 -0.022546 3.11351
1.51465 -0.751927 2.91615
1.18839 -1.28592 3.38686
-2.54676 -1.9648 5.52484
0.642932 0.497102 2.90836
0.618699 -0.263548 2.95511
-0.790044 0.735677 2.37372
-0.0960694 0.481383 2.96983
0.481159 -1.09057 3.45164
-0.411878 0.772542 1.87237
0.4872 -0.216335 2.97881
1.4767 -0.886608 2.87416
0.0894734 -0.178557 3.02082
-1.28686 0.532451 2.87086
0.154065 1.28367 2.89582
-1.09533 -1.01986 3.2439
0.451564 0.51581 2.89397
-0.293193 -0.223834 3.11443
-0.611645 0.896036 1.86309
-0.128728 -1.01986 3.45723
1.13384 0.48088 2.87996
0.936034 -0.19392 2.9103
-0.232859 0.814696 1.92897
-0.0442961 -0.973606 3.35848
1.79809 -0.151574 2.80707
-1.33571 0.566818 2.89898
1.0609 1.23179 2.73701
-0.756424 0.7275 1.87359
1.10255 -0.361074 2.8892
-0.753038 0.40207 2.98004
-0.380018 -1.29632 3.55666
0.627404 1.07298 2.88855
0.0910616 -0.34921 3.09613
-1.23118 0.374537 2.99753
0.507993 -1.28064 3.6117
0.923848 -0.295051 2.94926
1.36608 1.07383 2.61392
-0.936468 0.0353734 3.08412
-1.03941 -1.12605 3.35592
-0.89464 0.478543 2.95742
0.842504 -0.276453 2.9943
1.63044 1.00126 2.49048
-0.299991 1.03031 2.8438
0.271385 0.424939 2.89654
0.0246818 -1.12491 3.43584
1.63132 0.259212 2.63582
1.35733 -1.41357 3.43438
-0.0513549 0.543199 1.31693
-1.24316 -0.51912 3.25903
-0.483358 0.708318 2.00791
0.354594 -1.32453 3.37257
1.30851 0.245857 2.806
-1.03961 -0.456131 3.10287
-0.512979 0.695874 2.03742
-1.1226 -1.25301 3.33821
2.16665 0.424292 2.61747
0.79917 -0.422211 3.0236
2.40538 1.01723 2.9253
1.45124 0.29075 2.77301
1.59319 0.93996 2.58217
0.046358 0.884522 3.058
-1.4203 -0.653552 3.11978
0.343507 0.146912 2.94928
0.0867221 1.34717 2.87981
1.14733 -1.66788 3.58538
2.23163 0.605834 2.72297
0.337821 0.846276 3.03132
-0.49225 -0.643614 3.33713
0.179745 0.107505 2.947
1.49051 -1.61079 3.54077
1.52226 -0.529405 2.78872
-1.32521 0.24053 3.06117
1.29611 -1.56686 3.60462
0.0470405 1.30302 2.88093
0.299038 0.964439 3.0064
1.43118 0.811823 2.65553
0.924613 -1.52556 3.63214
1.00668 0.164017 2.8292
-0.362595 1.41212 2.93686
0.363192 -0.539337 3.14675
1.55519 -0.442831 2.85539
0.0827876 0.312279 2.90895
-0.0209377 0.930456 2.26333
1.28632 -1.40733 3.52442
0.42446 1.03668 2.89976
-0.187904 1.05609 2.77586
0.568369 -1.34951 3.53692
1.23692 0.946718 2.72891
0.193833 0.281443 2.91001
-1.32449 -0.426874 3.16585
2.21372 -0.807065 3.33741
1.04844 -1.19025 3.22624
1.64465 0.362434 2.68126
0.613563 -0.378528 3.03189
0.0306437 1.09127 2.8787
-0.0973879 -1.34371 3.80246
2.17262 0.89064 2.92686
0.22821 0.350702 2.9258
0.155206 1.08282 2.93616
-1.18231 -0.352828 3.12717
-0.0612198 0.908308 3.02315
1.67178 0.615086 2.63127
-0.963697 0.189632 3.04189
0.820006 -0.573571 3.0973
0.846731 -1.5071 3.45877
2.20491 0.380678 2.60932
-0.600288 0.665586 1.9832
0.962415 -0.536728 3.00638
0.144363 0.262439 2.92711
0.125714 -1.52381 3.68945
1.12438 -0.472224 2.92073
1.51764 0.842196 2.6078
1.47613 -1.40267 3.36812
1.40227 0.201436 2.83582
2.38949 0.165591 2.8424
-1.38691 -0.786558 3.32934
-0.237162 1.31917 2.93399
-1.46054 0.0835233 3.20479
0.299803 0.771701 2.92084
-0.0742749 1.34839 2.89815
-0.957952 0.0432359 3.04365
-0.494953 0.787768 3.07618
0.257358 -0.715061 3.28459
0.795129 -1.73298 3.76316
0.996107 0.125149 2.84284
-0.560171 0.914472 2.86524
1.15476 -0.626322 2.94567
-0.441347 0.862232 3.01238
0.702663 0.100843 2.88585
0.151879 -1.59773 3.60884
-0.160817 0.527174 1.46593
1.47163 -0.573844 2.81746
-0.836321 0.845511 2.93985
1.12745 -0.106893 2.78153
-0.207717 0.639337 2.99001
1.19811 -1.69098 3.66388
1.24385 -0.887892 3.13172
0.374537 -0.063877 2.93877
-1.02443 -0.873367 3.34811
0.463602 0.589179 2.94006
1.53444 0.262272 2.30669
0.594632 0.72271 2.98502
-0.740349 -0.0378996 3.08824
1.26013 -1.67912 3.53826
0.550319 0.00317705 2.95588
1.77136 0.79508 2.58066
-0.943948 -0.987872 3.80054
1.26821 0.634416 2.76886
-0.556436 -0.852835 3.47422
1.75851 0.907162 2.54349
0.043832 -1.49986 3.64694
-0.273882 0.263492 2.97835
0.245983 1.00034 3.00914
0.894128 -0.537791 3.03946
-1.19915 -1.35146 3.4139
-0.869336 0.229103 3.01951
-0.677653 -0.50551 3.25196
0.699769 0.939085 2.9092
0.626101 -0.401086 0.777847
0.0628568 1.00703 2.92728
2.24075 0.180214 2.85928
-0.96651 0.304425 3.01314
0.126516 -1.71044 3.62312
-0.0613901 -0.474623 3.19125
2.27922 0.802996 2.88092
-1.03966 -1.29573 3.38423
1.15343 -0.671327 2.99255
0.714567 0.823595 2.95601
-1.01154 -0.686596 3.33626
-0.893621 0.119007 3.04437
-0.843293 0.829985 3.05153
0.911423 -0.66094 3.15947
2.39149 0.743055 2.85826
0.517187 0.0750106 2.8947
1.23226 -1.60504 3.486
1.01505 -1.60815 3.61111
0.0350618 0.173231 2.93565
2.23447 1.03488 3.07859
1.54845 -0.569611 2.77041
-0.382736 0.900076 2.98026
-0.899308 0.151441 2.98334
-0.352644 -1.4632 3.42671
0.0625861 1.32381 2.8847
-1.14762 -0.597559 3.34151
0.177467 0.875847 3.00807
0.420245 -0.834185 3.29662
1.03456 -0.0359828 2.87902
1.59427 0.0463106 2.41192
0.889119 0.661694 2.87779
-0.518315 0.916026 2.87685
-0.0485927 1.11677 2.43854
-0.877039 0.768556 2.95347
-1.35356 -0.795949 3.30382
-0.10712 0.0465863 2.99439
0.484731 0.718058 2.98394
0.567263 -0.750709 3.22784
-0.189746 0.00877554 3.0365
-0.318966 0.66182 1.67571
0.499246 -0.176646 2.98246
1.52609 1.09894 2.5637
0.250839 -1.04235 3.4887
-0.161547 0.546163 2.85719
1.72415 0.920038 2.53333
-0.29247 -0.141003 3.02702
-0.167099 0.878306 2.01452
-1.29082 -0.936824 3.25934
1.63629 0.502055 2.79497
0.547169 -0.921961 3.30981
1.40975 -0.110445 2.71335
-1.30289 0.618041 2.80575
-0.669704 -0.915773 3.45078
1.58119 0.532986 2.63604
1.27171 -0.0709394 2.75217
0.287491 -0.804366 3.3518
0.0274296 0.0397038 2.94822
0.44628 0.748325 2.95449
0.914836 -0.737013 3.16181
1.746 0.000938911 2.74405
1.00747 0.704899 2.87929
2.32085 1.01318 3.15279
1.512 -0.0325874 2.21669
0.693217 -0.692951 3.16874
-0.937551 0.083664 2.95926
1.96578 -0.000749657 2.62206
-0.491885 0.803772 3.03305
-1.13307 -0.148107 3.1015
0.758547 -0.968695 3.29753
1.70609 0.914772 2.5432
0.406346 0.566023 2.78793
0.753451 1.23544 2.82788
1.54835 -0.881175 2.80403
-1.47177 -0.104986 3.20357
-2.80831 1.13414 5.80529
-0.852832 -1.64652 3.45334
0.113778 -0.928402 3.34791
-0.909192 -0.0592617 3.0917
0.992103 -0.884561 3.29116
1.25227 0.647299 2.79428
-1.99913 -1.05163 4.04714
0.0532653 0.711404 3.21791
-0.347034 0.906233 2.60468
-0.299773 -0.0306603 3.06349
1.08396 -1.13573 3.42208
1.70026 0.457083 2.64536
-0.153145 -0.261551 3.06697
-0.370783 0.760643 2.17196
0.470083 0.455723 2.88601
-0.161602 -1.06931 3.45899
1.01218 -0.226225 2.89275
-0.190871 0.8113 1.96998
-0.61316 0.878672 1.86664
1.21223 0.499506 2.79528
0.434248 -0.179461 2.99414
1.50119 -0.982347 3.20179
0.205449 1.39155 2.66349
1.30764 -0.388089 2.78498
1.47214 0.985833 2.6338
-0.262384 -1.32246 3.49269
0.696255 0.349188 2.91164
1.39396 -0.353744 2.81869
-0.532851 0.713465 1.95112
1.45337 -1.26808 3.37446
0.185351 0.311229 2.91132
-0.510027 0.438041 2.96464
1.67467 -0.325629 2.70166
-0.207877 -1.22114 3.48116
-0.362835 0.77134 1.91824
0.0560785 0.68346 1.41155
-0.130802 -1.16827 3.45815
0.324132 0.385149 2.90425
-0.187045 0.792989 2.0354
-0.633841 -0.302408 3.07521
2.52401 -1.75722 3.5457
1.70809 -0.362429 2.67833
0.728153 1.08013 2.85174
-1.32993 -1.215 3.30863
-1.34219 0.39804 2.93293
0.558581 1.07119 2.91434
-0.445693 -0.361115 3.2211
-0.113247 -1.32248 3.72279
1.71434 0.327839 2.71842
1.37956 0.435714 2.78699
0.584274 -0.322179 3.00997
-1.15063 -1.12829 3.27064
0.270826 1.19056 2.9525
-0.0217702 0.963539 2.29977
0.573413 -1.17043 3.51743
0.0566559 1.11001 2.8471
-0.186292 -0.26531 3.06772
-1.0465 0.424016 2.8659
1.05502 -1.40927 3.446
1.7759 0.270482 2.78033
-1.22649 -0.379259 3.19348
0.459244 -0.521306 3.18928
1.57472 0.895392 2.56463
-1.3385 -1.28067 3.27191
0.513591 0.245529 2.80524
1.4451 -0.443779 2.80493
1.57674 0.847479 2.53267
-1.14198 -0.591481 3.31255
-0.15244 0.901821 2.4534
2.51429 1.02088 2.85914
-1.33553 0.338641 3.03043
-0.133096 -0.436294 3.15103
1.99768 -0.500716 2.78202
-0.81805 -1.27034 3.36777
0.640167 0.861484 2.95329
-0.069419 -1.70414 3.60473
0.616972 -0.670271 3.17788
-0.647696 0.136746 2.99547
2.04876 0.583043 2.6617
-0.0445689 -1.67795 3.66283
1.24439 -0.607246 2.9971
2.04983 0.250697 2.66069
-0.867396 0.824219 2.87292
0.867098 -1.72715 3.83212
-1.47654 0.124126 3.22625
-1.41107 0.228334 2.98102
-0.4155 -1.47666 3.42654
-1.18711 -0.613309 3.3322
1.30492 0.861982 2.68186
-0.376637 1.06704 2.87906
1.75187 -1.57246 3.68514
-1.29576 0.188305 3.04769
0.749049 -1.5816 3.62345
0.75057 -0.543775 3.09575
-0.777618 0.670276 2.17089
1.50251 0.0231059 2.87475
0.314983 -0.813418 3.34922
1.52303 0.664187 2.59771
-1.42728 0.00016425 3.07337
-0.913754 -0.77377 3.32641
1.53962 0.638019 2.64031
-0.348055 0.696871 2.19072
1.51271 -1.4538 3.36069
1.67487 0.70538 2.62574
1.27798 0.0520607 2.78282
1.89952 -0.290732 2.70948
0.0112133 -0.716209 3.22763
-0.921264 -0.625966 3.22534
1.13533 0.839306 2.75296
1.10372 -1.63409 3.6154
1.69345 0.153032 2.76276
2.09173 0.208039 2.86944
2.27602 0.846421 2.91158
0.331213 -0.578814 3.14656
-0.0476719 0.885847 3.07543
-1.34151 0.154134 3.06427
-0.616568 -1.48724 3.4722
0.763733 0.949281 2.86051
-0.654164 -0.573875 3.33602
1.15981 -1.5981 3.7645
-0.0434492 0.258993 2.93774
1.79811 -1.90321 3.9686
0.742589 -0.507263 3.10375
0.780871 0.917018 2.88937
0.698218 -1.50374 3.57524
-1.24142 -1.3056 3.23616
1.46932 0.202715 2.8123
2.34281 0.766567 2.87409
-0.0211154 -0.756006 3.26046
0.731078 0.0618416 2.90282
0.242588 0.638412 2.99945
1.16757 0.737675 2.77173
-0.081646 0.0311496 2.96448
0.771206 -0.699916 3.17635
-0.183071 0.756574 3.03753
1.35715 -1.69859 3.62953
1.92152 -0.325363 2.72267
1.15241 -0.645057 2.99883
-0.177204 0.108285 3.00635
0.252604 0.782365 3.57391
-0.169936 0.841021 3.08096
-0.187038 -0.104154 3.04777
0.412926 -0.927009 3.31973
1.64006 0.239111 2.72695
1.13268 0.611218 2.87374
1.74073 -0.50437 2.767
1.21006 -0.0868464 2.76669
1.15593 0.56858 2.81947
0.599662 -0.892854 3.29794
0.751197 -0.0386824 2.90747
0.767058 -0.00601354 2.9239
0.256188 -0.845809 3.29483
-0.508598 0.720642 3.06397
-0.0174934 0.654764 3.05735
-0.355882 -0.821423 3.41464
0.0619895 0.730719 3.14408
1.5365 1.14723 2.56485
1.16299 -1.03271 3.22131
0.891317 0.518003 2.90123
-1.02914 -0.236158 3.16062
-0.647712 0.830512 1.85623
1.70556 0.46111 2.73951
0.931365 -0.999239 3.22926
1.05528 1.12967 2.72171
-1.18417 -0.194534 3.10732
-0.381037 0.762095 2.06359
-0.378838 -0.986962 3.43189
1.6643 0.515942 2.72434
0.695325 -0.152581 2.97302
1.23194 -0.657323 2.95326
-1.23187 0.113213 3.02226
-0.298814 1.03096 2.96473
0.859468 0.810682 2.92855
-0.135241 0.788258 2.96918
-1.12987 -1.56156 3.3845
1.98058 0.731688 2.73244
1.68635 0.0539669 2.69792
-1.33902 -0.684826 3.28819
1.71359 0.147521 2.72396
-0.533737 -1.55085 3.49246
1.26717 -2.0082 4.32766
0.00834403 0.942398 3.11961
-0.912392 -0.630967 3.2957
-1.51587 -1.3737 3.1454
-1.09732 0.149953 3.0293
1.04025 -0.562391 2.95875
0.973014 -1.40292 3.5357
-1.15179 0.822378 2.76707
1.33228 -0.758395 2.91935
-0.420544 0.69725 3.07115
1.40418 -0.0474015 2.80652
-0.676783 0.719221 2.25802
1.6281 -0.918029 2.91921
-0.595409 0.760351 2.99765
1.01454 0.0265778 2.86101
1.83081 -0.718928 2.86724
1.13393 -1.98327 4.13191
0.338874 0.737939 3.04401
-0.121092 0.951232 2.03463
-1.42642 -0.730469 3.12907
0.222645 -0.0023647 2.99661
1.10073 0.541978 2.86414
-1.09966 -0.192273 3.13162
1.84997 -0.158837 2.72253
1.2397 1.21603 2.72411
-0.304883 -0.994193 3.29703
0.18048 -1.01924 3.50715
1.76553 0.883561 2.55044
0.218592 1.33441 2.89277
0.746482 -0.153232 2.96601
-0.429697 0.542435 3.03334
-0.0152826 -0.918626 3.33528
-0.218166 -0.105003 3.02609
0.7513 0.626621 2.9379
0.334307 0.598877 2.97482
0.0669851 -0.87605 3.29906
1.10459 -0.0741473 2.8143
0.57654 1.13303 2.87003
-0.126134 0.430597 2.97388
-0.795718 -0.311708 3.17861
-0.844635 -1.14354 3.39904
0.400659 -0.272447 3.0979
1.41843 1.0769 2.54014
-1.27084 -1.06687 3.27616
-0.208319 0.497716 2.94747
1.46891 1.04993 2.54137
-1.23332 -0.228035 3.13098
-0.954325 0.481918 2.97312
0.295757 -1.09802 3.48895
1.76884 0.857282 2.55119
-0.652308 -0.154814 3.05557
-1.071 -0.953616 3.34243
0.908876 0.575874 2.91525
0.771313 -0.114617 2.91645
-0.33422 0.763739 2.0732
0.851123 -1.63002 3.80174
0.833842 -0.921211 3.25796
0.476357 0.55068 2.90607
-0.300131 -0.889367 3.38818
-0.416385 -0.0703524 3.01448
0.458752 0.661369 2.97428
1.00656 -0.848565 3.27236
-1.26646 0.625776 2.87128
-0.189497 -0.0375485 3.03277
0.825353 1.23425 2.79172
-0.105079 -1.12829 3.45029
0.150626 -0.270431 3.03254
-0.322224 0.475651 3.02361
0.998737 1.0994 2.71764
0.287402 -0.219908 3.01784
-0.635246 0.852292 1.86649
-0.563519 -1.06371 3.39644
1.65225 0.51621 2.80705
1.41492 -0.185296 2.71197
0.649687 1.18057 2.84643
1.5208 -0.944444 3.02917
-0.589857 0.51281 3.02745
0.0727114 1.22096 2.38503
1.10052 -0.412239 2.92807
-0.39067 0.744753 1.99181
-0.619226 -1.28202 3.40956
-1.25765 0.369735 2.97885
-1.21094 -0.397319 3.21537
1.24009 0.992915 2.71773
-0.0759481 -1.28266 3.52515
-0.384481 0.315848 2.9887
0.944215 0.416851 2.91268
0.916241 -1.2601 3.47349
0.904208 -0.346929 2.98544
-0.0106972 0.58643 1.27934
-0.791739 0.724279 1.81225
-0.341632 0.388198 2.97173
1.45638 -1.13522 3.21378
0.0160173 0.979387 2.14771
0.354897 -0.325987 3.14795
1.14295 1.03883 2.7005
-0.990569 -1.41516 3.37849
0.0304513 -0.551312 3.17486
2.35796 0.859503 2.93661
-0.527077 0.221971 3.00307
-0.300159 0.885006 2.78705
1.95468 -0.507743 2.79468
-0.105431 1.0164 2.99628
0.574286 -0.511746 3.15577
2.09345 0.318727 2.73886
-0.30668 -1.38611 3.45042
-1.09983 0.297048 2.96837
-0.381629 -0.472937 3.22381
1.27397 0.926544 2.76849
-0.623735 -1.3343 3.43393
-0.521634 0.266488 3.04729
-1.27887 -1.3069 3.21711
1.38217 -0.490364 2.85373
2.41104 -0.136709 3.04521
1.60738 0.233848 2.80306
1.41475 0.88362 2.66171
0.191953 1.35164 2.90288
0.112521 1.04357 2.95214
0.124337 -0.462544 3.10907
1.84199 -0.43341 2.72224
-1.18474 0.327168 2.98267
1.40723 -1.34891 3.32305
0.219166 1.04151 3.03032
-1.06954 -0.434863 3.15442
-0.531064 -1.30438 3.4362
-0.103793 0.284415 2.96187
-0.492673 -0.67436 3.26392
0.877642 0.845634 2.90665
-0.944875 -0.367989 3.1766
0.25096 -1.64456 3.59253
-0.97428 0.139631 3.00337
-0.269298 -0.635 3.23371
0.816757 0.799415 2.90347
2.55719 0.108629 2.92421
1.58222 0.0828597 2.73897
-1.4382 -1.4373 3.18643
-0.507108 0.215136 2.99359
-0.518926 -1.47975 3.36903
0.0930641 0.961474 3.03064
1.06107 -0.57035 2.96307
-0.22217 1.11054 2.95751
-0.342065 0.175813 3.00901
-1.50522 -1.38454 3.3085
0.495861 -1.51859 3.59788
-0.681502 -0.569175 3.32985
0.994647 0.862356 2.85752
0.634779 -0.794002 3.20706
-0.270796 0.920094 2.4051
0.802404 -0.0227879 2.89069
1.61695 0.637549 2.64524
2.27781 -1.51847 4.20853
1.32847 -1.40176 3.07655
-1.27801 0.786317 2.89602
-0.279022 -0.786497 3.33876
0.130051 0.062424 2.93088
1.49159 0.657382 2.6017
1.4503 -0.681731 2.99045
0.453521 0.0220206 2.92066
1.27482 -1.8762 3.86566
1.73851 0.545917 2.7538
0.77947 -0.164749 2.97133
-1.04646 -0.646473 3.33748
1.37281 -0.896928 3.00397
-0.362264 0.914314 2.63936
-0.264628 -0.941775 3.4306
0.543754 1.26234 2.8715
-0.277414 -0.113282 3.01347
0.653141 0.560686 2.94289
0.832317 -0.891521 3.26612
-1.33177 -0.078308 3.13209
0.592017 0.671512 2.98797
1.09748 0.607944 2.86367
1.33421 1.15415 2.63935
1.23248 -0.814004 3.1114
-0.252574 -0.0491304 3.07281
-0.300748 0.0714969 3.00763
-0.890995 -0.783536 3.38398
1.49464 0.691041 2.59792
-0.785823 0.0269609 3.10539
0.15821 0.771753 3.07703
0.35157 -0.723418 3.24792
-1.10897 -0.605024 3.30562
1.83211 -0.493762 2.74123
-0.222212 0.854398 3.13619
0.588566 0.0998621 2.91357
1.82155 -2.35519 4.99907
-1.12491 -0.697337 3.34899
0.921008 -1.7306 3.70979
1.09046 -0.111242 2.82398
-0.0515423 1.13726 2.62315
1.39726 -0.857573 2.97623
-0.155129 0.649007 3.07596
0.0248403 -0.068834 3.00602
1.37322 -1.55522 3.36669
0.334803 -0.891638 3.31641
-0.534832 0.610664 3.10936
0.886011 -0.825049 3.17479
-0.788742 -0.0146363 3.10064
1.13559 1.1821 2.71905
1.18018 -0.0517994 2.77135
0.803971 -1.68529 3.45602
-0.83746 0.751874 3.10987
-1.28083 -0.798533 3.29133
1.77802 0.98298 2.53545
0.435252 0.656078 2.95914
-0.890026 -1.07931 3.4523
