ply
format ascii 1.0
element vertex 1834
property float x
property float y
property float z
end_header
2.4575 -1.50509 4.26599
-0.664536 -0.776022 3.3272
-0.376632 0.843114 1.91827
0.905853 0.788828 2.87654
1.26057 -0.694826 2.99734
-0.556062 0.0906544 3.00312
0.943348 -0.668022 3.05566
1.18385 0.718857 2.75569
-0.596363 0.844044 2.53766
0.660475 0.0447717 2.92465
1.89669 0.418317 2.6437
0.631847 0.612873 2.97913
0.939625 -0.129105 2.91335
-0.287772 -1.68781 3.6282
0.63355 -0.946435 3.29725
1.12013 -0.908182 3.27444
1.21868 -1.5361 3.61279
-0.636368 -0.0860847 3.05872
-0.589103 0.583407 3.02217
-0.130178 -0.863185 3.36892
1.45695 -0.0573246 2.85953
0.775498 0.690045 2.93447
0.88094 1.22391 2.78419
0.779855 -0.800658 3.18817
-0.64218 0.672594 3.06268
1.58435 1.11986 2.5596
1.08914 -0.0240276 2.8261
-0.0282675 0.0822149 2.97086
0.122787 -0.737448 3.25274
-0.360771 0.860219 1.917
-0.497219 0.051911 3.00297
0.908106 0.751841 2.87788
0.189125 -0.691668 3.20301
0.698256 -1.5935 3.62755
2.62564 0.00197761 3.80643
1.16422 0.806773 2.80446
0.57201 0.112296 2.88231
0.400793 -0.637462 3.13487
0.214314 0.833171 3.0679
0.310312 -1.64845 3.63224
-0.0588765 0.717652 3.26097
0.917634 -1.60345 3.69698
0.217545 -0.0955407 3.00097
0.498353 -0.906371 3.30293
0.0599366 -0.0443383 2.99867
1.58705 0.518216 2.43786
-0.550013 -0.924879 3.52865
-0.963436 0.611797 2.91668
-0.58033 -0.813448 3.26105
0.595318 0.016249 2.91652
1.81959 0.59608 2.63664
0.332488 -0.023986 2.9624
-0.517272 -1.61351 3.43218
-0.637948 0.716709 2.94701
1.48474 -0.706937 2.87903
1.89199 0.0012618 2.74327
0.233722 0.71344 3.03893
0.116358 -1.04287 3.39115
1.08189 -0.199607 2.83074
0.75197 0.505474 2.9269
-0.048357 1.19588 2.60632
0.706902 1.23813 2.84366
0.0303065 -0.164003 3.00728
-1.05025 -0.985063 3.35539
-0.961573 0.590419 2.93923
-0.918013 -0.129748 3.12501
-0.0484796 1.08297 2.68395
-0.329329 -0.948135 3.38702
-0.895722 0.550559 2.95224
0.44829 0.397807 2.88761
-1.06695 -0.378658 3.22026
1.21131 1.06552 2.72972
1.55406 -1.20413 3.24148
0.196685 1.10167 2.94665
1.00469 -1.21067 3.3992
0.126032 -0.335498 3.06708
-0.956211 0.378242 2.94497
0.792807 -1.12918 3.32151
-0.691088 0.491008 3.09618
-0.721198 -0.289495 3.10986
-0.0919941 0.972183 2.25828
0.584617 1.19756 2.90008
-0.399305 0.455124 3.01232
0.368824 -1.11997 3.48535
-0.0726216 -0.134257 0.863315
-0.532344 0.763131 1.88562
0.647078 -0.24736 2.98305
-0.576123 -0.344315 3.06985
-0.229081 0.796596 1.97492
1.69648 -1.09882 3.04733
1.52762 0.389706 2.67869
-0.504598 0.742512 1.90422
0.949865 -0.290759 2.92196
1.23641 0.383335 2.81789
0.0635307 -1.1525 3.40307
-0.341956 -1.17706 3.61147
0.31628 0.490912 2.88702
0.0771225 -0.262727 3.07278
-0.183757 0.892009 2.00249
-0.0438577 -0.0775401 0.952945
0.222162 0.468437 2.90721
-0.602775 -1.04566 3.41098
1.54953 -0.224826 2.93344
0.92361 1.13795 2.77557
-1.41417 -1.26026 3.23989
-0.412429 -0.459986 3.20004
2.5017 0.025692 2.91795
0.955324 0.289978 2.90567
0.0576109 1.14196 2.33179
1.15024 0.97607 2.78391
1.63418 0.95486 2.49931
0.879011 -0.407292 3.0023
0.0655452 0.541299 1.23229
0.80053 0.355728 2.94685
1.24297 -1.30101 3.39045
-0.478443 0.727034 1.96882
1.29799 -0.357227 2.84177
-0.0474969 0.32831 2.95433
0.372089 -1.28551 3.51595
0.271599 -0.644411 3.28452
2.42179 0.567796 2.75407
1.56843 0.174998 2.81374
-0.300375 -1.66145 3.7658
1.1202 0.875443 2.80966
0.915196 0.854058 2.89319
1.08763 -1.7581 3.72447
-0.0241909 0.533643 1.29635
-0.617086 0.161115 3.01347
-0.680414 -1.44286 3.40705
1.34764 -0.553646 2.93583
0.795297 0.263384 2.89223
-0.668185 -1.40167 3.44913
-1.07426 -0.694332 3.34408
1.70068 -0.485777 2.74749
1.15372 0.930313 2.74792
0.229115 -1.44224 3.58778
-1.19167 0.248799 3.1191
2.61606 0.917467 2.90245
0.824002 -0.493168 3.04609
1.62974 0.84007 2.56724
1.09178 -0.716583 3.07118
2.43619 -1.15265 4.09418
1.19284 0.0278335 2.81698
-1.16632 0.790816 2.98415
-0.989741 -0.534003 3.20352
2.20004 -1.50996 4.15162
-0.805786 0.854851 2.96734
-1.00512 -0.730992 3.42822
0.319559 0.117387 2.9376
-1.16702 0.838398 3.01831
-0.801142 -0.67579 3.36244
-1.30681 0.0965779 3.0419
-0.187508 -1.71942 3.74062
0.14201 0.573777 1.30999
0.805622 0.934107 2.8917
-0.354322 -0.591923 3.29381
0.484985 0.216044 2.88854
-0.928438 -1.46775 3.4404
-0.207021 -0.529656 3.17573
-0.922169 0.659169 2.08947
0.0988287 0.610626 1.49815
1.41499 -1.55272 3.68941
1.74926 0.177159 2.74889
-0.322195 -0.506315 3.21138
-0.685089 0.303215 3.05224
-0.750658 -1.39543 3.5068
1.58816 0.886866 2.53045
1.76245 -1.91198 3.67999
0.117026 -1.36788 3.49271
-0.83302 0.27721 2.97627
0.465886 0.980553 2.93435
-1.06855 -1.65082 3.48329
-1.38332 -0.464657 3.18769
-0.806615 0.120477 3.05472
2.13601 0.51717 2.60117
0.908302 -0.683222 3.08974
1.54775 0.740709 2.61771
0.604572 0.0750604 2.90839
-0.90727 -1.53963 3.37534
0.635049 0.809727 2.98686
0.800752 -0.648081 3.13794
-0.672887 0.88342 2.95039
2.17739 1.11469 2.89259
-0.12519 0.896213 3.06649
0.523819 0.136696 2.87139
0.124798 0.623375 2.99756
-0.0762796 -0.619134 3.20016
-1.13853 -1.40165 3.20178
0.544594 0.679522 2.95098
0.011209 1.24793 2.65232
0.710595 -0.047843 2.89233
0.732583 -0.863843 3.25842
-1.30294 0.637163 2.86804
1.9511 -0.0323651 2.98128
2.53078 0.219472 3.67073
0.105991 -0.831901 3.30791
-0.466642 -0.804364 3.37254
0.707102 0.0409364 2.92125
1.93481 0.213603 2.71671
1.03595 0.73805 2.82906
0.0635849 0.0241769 2.96362
1.6172 -1.07415 2.95417
-0.122014 0.717612 2.96416
0.387724 -0.743854 3.2328
-0.760963 -0.987776 3.33303
-0.790993 -0.171028 3.07114
-0.835754 -0.96579 3.4412
1.08608 0.524466 2.88281
-0.340917 0.851524 1.92855
1.78323 0.828047 2.55813
-0.514534 -0.143477 3.11499
-0.469996 0.618957 3.05616
0.0653101 -0.0973062 3.00011
0.637003 1.27893 2.86285
-0.768613 -0.981151 3.60929
-0.0225587 0.598942 3.06873
2.47135 0.829876 2.88181
0.399062 -1.64049 3.51545
-1.42506 -1.50169 3.26297
1.07568 0.139005 2.79473
0.771089 -0.643882 3.13977
1.34026 0.796511 2.68742
-0.962676 0.129683 3.06798
0.381862 -1.57777 3.59661
1.84619 -0.976919 3.22653
-0.555134 -0.630496 3.29796
-0.843541 0.669601 2.3312
1.14974 -1.61003 3.73247
-0.18902 0.238125 2.99047
-1.17261 -1.14863 3.3878
-0.908503 -0.561653 3.23125
1.5586 0.842815 2.59355
1.25883 -1.53037 3.64671
0.428091 0.187743 2.90478
-0.672926 0.889708 2.95045
-0.282153 -0.532907 3.18106
1.54481 0.804614 2.5888
-0.731751 0.740135 2.9933
2.69521 -1.27413 4.28834
-1.11724 0.0266377 3.06717
-1.11624 0.727734 3.03606
-0.179985 1.08846 2.8829
-0.582333 -0.777082 3.28718
1.5888 -0.697236 2.93193
-1.04018 0.78379 2.81556
1.12518 0.0776155 2.82261
1.55497 -0.0203716 2.78987
-0.207925 0.790223 3.06505
0.313521 -0.701761 3.22549
1.34173 0.0328953 2.7407
1.94781 0.643017 2.60363
0.355992 -0.972323 3.38306
-1.18397 0.612833 2.91705
1.87333 0.306199 2.67731
1.52736 -0.136624 2.78567
-0.371619 -0.927724 3.42085
-0.735932 0.606335 3.09671
0.181459 -0.0855548 3.01558
1.33601 1.20246 2.64947
1.65852 -0.772958 2.83973
0.142677 -0.0604161 2.97108
0.194594 -0.82722 3.32096
-0.916891 0.754175 2.58566
1.29635 0.606325 2.75443
0.253977 -0.0242919 2.97603
1.66279 -0.298324 2.92049
-0.514512 0.774606 1.85322
0.935177 -1.17475 3.44566
1.65197 0.461517 2.82239
0.442828 -0.249543 2.99569
1.6556 1.02704 2.53683
1.62246 0.392845 2.62832
-0.800662 -1.06283 3.35243
1.17336 -0.204003 2.78804
-0.563644 0.827969 1.88046
-0.116532 -1.07108 3.45873
0.350797 0.53153 2.90467
0.235195 -0.173047 3.013
0.0751563 1.28343 2.88089
-0.181237 -1.00013 3.3666
0.436968 0.494693 2.88653
-0.316411 -0.0877299 3.03956
1.6488 -1.06698 2.94957
1.24911 -0.844124 3.01728
0.192886 0.679219 3.07485
-0.63284 0.830894 2.52371
1.24373 -0.805444 3.00037
1.30825 -0.0616821 2.67189
0.87854 0.599943 2.91102
1.57074 -0.724677 2.81845
1.32122 0.00315777 2.72214
-0.824421 -0.0211227 3.09863
1.30835 0.678209 2.74376
1.80094 0.585986 2.64844
1.9014 0.284021 2.69494
0.746441 -0.762232 3.18263
0.199029 0.725093 3.125
-0.255288 0.912715 1.9714
1.10068 0.492617 2.8748
0.71654 -0.224216 2.99434
-1.30509 -1.00151 3.2345
-0.595701 -0.174825 3.13748
0.661616 1.27728 2.85671
0.389533 -1.02415 3.44603
1.53847 0.522095 2.68133
0.118667 0.169564 2.95772
0.119269 -0.133896 2.98733
-0.726687 0.586216 3.17504
-0.408542 -0.981821 3.46432
-0.946835 -0.38345 3.21741
-0.16997 0.398519 2.94243
-0.887332 -1.22726 3.43128
0.230639 1.12444 2.94384
-1.29747 -1.10322 3.16516
-0.0391962 -0.338058 3.09086
0.390762 1.08584 2.90463
-1.13864 0.381016 2.99083
1.38376 -1.25751 3.66883
0.120777 1.23924 2.43547
0.426364 0.4692 2.91295
-1.36744 -0.297174 3.08411
1.04024 1.12558 2.7357
-0.0492103 -0.145196 0.802113
0.378707 0.435909 2.91824
0.875288 -1.14886 3.50341
-1.3353 -0.265718 3.13737
0.975885 0.964434 2.83421
0.883769 1.10251 2.77078
-0.00655706 0.523508 1.44936
1.39508 0.250061 2.81484
-0.63415 -0.527426 3.36273
2.05891 0.889513 2.83768
-1.06373 -1.34244 3.40264
0.557176 -0.452143 3.08757
0.212625 1.07032 2.96933
-0.0547937 -1.39116 3.58498
-0.867773 0.339134 2.98462
-0.371274 -0.41668 3.19466
-0.584649 0.684455 1.94567
-0.016113 0.563016 1.22706
-1.37164 -1.24829 3.33704
1.27688 0.281071 2.81389
0.588138 1.00315 2.89021
0.0325462 0.68545 1.37016
0.2194 0.290209 2.91143
0.182123 -0.459111 3.09997
0.090226 1.31671 2.24038
-0.269189 -1.37444 3.56637
0.584157 -0.414398 3.0605
-0.56778 0.730849 1.92934
0.0330183 -1.30426 3.49146
-0.309224 0.353555 2.95078
-0.798313 -0.380431 3.13131
0.548788 1.04588 2.91992
0.0289813 0.597518 1.57873
-0.190069 -1.30863 3.60689
1.25688 0.301767 2.81129
-0.689607 -0.645104 3.353
1.42718 0.177824 2.78279
1.91108 0.206197 2.81492
-0.193379 -1.66701 3.75201
-0.433392 0.901844 2.88497
1.33015 -1.53813 3.53182
2.36677 0.814361 2.90407
0.559381 0.137511 2.88275
-1.41657 -0.63871 3.4619
1.56028 0.769913 2.59922
-0.923955 0.274327 2.96261
-0.783284 -1.46855 3.59958
-0.0389067 1.37039 2.89125
1.84074 -0.515836 2.92446
-0.635005 0.680572 2.01382
0.146718 -1.45908 3.62929
0.776399 0.213424 2.87531
1.79556 -0.28504 2.7147
-0.0825597 -0.504697 3.15721
-0.629268 0.67028 2.03385
1.69674 0.658551 2.56
0.630027 0.033938 2.93046
2.18277 1.0715 2.92314
-1.48262 -0.734469 3.15152
-0.981502 -1.33448 3.43825
-0.0190366 0.850876 3.06009
1.58381 -0.65694 2.95345
1.3101 0.0976006 2.77907
1.44066 -0.627481 2.94517
-0.569947 0.78199 2.94121
-0.525819 -1.58615 3.48079
1.65563 0.0637238 3.09978
1.36869 -1.55552 3.37256
-0.627194 -0.935747 3.37207
1.91306 0.0543196 2.64831
1.00805 -0.0978676 2.8915
0.691387 0.634843 2.97095
-0.966961 -1.58674 3.34174
0.334371 -0.865933 3.29752
0.700018 0.599257 2.95595
0.0172193 1.27783 2.88544
-0.384223 -0.0648946 3.0069
-0.437858 0.0100837 3.01127
-0.509208 0.719331 1.96062
-1.21033 -0.842061 3.38003
-1.00499 0.724173 2.89857
0.0812201 -0.0235036 2.99455
-0.0613968 -0.780135 3.29313
1.91376 0.182605 2.74631
-0.374944 0.693289 3.04889
1.27774 -0.647145 2.86748
-0.467056 -1.04632 3.52866
0.573867 0.0777059 2.90694
-0.67789 0.807047 2.96468
-0.991773 -0.604429 3.3182
2.23317 1.00823 2.98867
1.35408 -0.614898 2.87951
0.266884 0.905749 3.06966
-1.22349 -1.57321 3.42197
-0.491781 0.142441 2.99328
1.69348 -0.576278 2.82957
1.40172 0.747717 2.6753
-0.375692 0.113833 2.9619
-1.07352 -1.4722 3.33306
-0.790651 -0.0586982 3.05348
-0.915741 0.777072 2.80796
-0.0321178 -0.888855 3.37277
1.20722 0.64508 2.82647
1.56765 -0.756469 2.91219
-0.810882 0.667031 3.05274
1.99769 0.00947732 2.62402
1.68689 -0.0392515 2.69946
-0.709933 -0.790043 3.35394
0.147486 0.0393513 2.95418
1.06661 0.726989 2.82452
-0.805966 -0.869718 3.39413
0.100074 1.32366 2.88292
-0.145981 -0.743622 3.27294
0.982826 -0.000881813 2.85439
0.0669862 -1.67082 3.55727
1.17456 0.692673 2.81234
0.722723 -1.00097 3.30876
0.614647 -0.184513 2.98544
1.61101 0.467975 2.59417
1.75212 0.819039 2.56456
-0.714834 0.871725 1.86062
0.447178 -0.142656 2.96732
0.0549474 -0.96495 3.35175
1.64687 0.53925 2.66099
-0.774044 0.699434 2.29267
-1.38208 -0.0998756 3.11506
-1.0756 -0.899843 3.35527
0.145767 0.555231 2.93411
0.800099 0.42815 2.90318
-0.196528 -0.342235 3.12265
-0.270513 -1.24307 3.55523
1.13903 1.07229 2.7037
-0.16795 -1.09674 3.26806
1.06146 1.06038 2.76544
-6.29073e-05 -0.29056 3.06851
0.511315 0.391756 2.8872
-0.611745 -1.10655 3.39746
-0.0772587 0.511881 2.97403
1.38701 -0.257728 2.83644
0.198571 1.32052 2.7332
-0.383508 0.721932 2.10708
1.05748 0.459725 2.88224
1.12939 -1.0687 3.35722
-0.894076 0.811342 1.96059
0.0949807 -0.221364 3.0412
0.816001 0.710007 2.92556
0.233817 -0.0272101 3.00105
1.79214 -2.09618 4.54843
-1.40138 -0.804898 3.20753
1.64869 0.0102607 2.77794
-0.54838 0.685026 3.01603
0.784313 -1.44638 3.41362
1.07649 -0.754886 3.08195
-1.01514 -0.762205 3.35869
-0.721047 0.0910468 3.033
-0.947568 0.786848 2.83595
1.52809 -0.031583 2.25804
1.28453 0.71912 2.74604
-0.922717 0.748529 2.71925
-0.630929 0.0489653 3.05433
-0.807531 -0.728297 3.41938
1.4795 -0.86592 2.94899
1.9185 0.242156 2.69677
1.19568 0.576114 2.83049
-1.29193 -0.13847 3.10228
-0.323222 -1.66525 3.51527
0.307633 0.560634 2.92463
1.07862 -0.962838 3.42206
-0.40008 0.757412 2.07543
-1.33976 -0.0973123 3.22966
-0.266827 -0.868914 3.36596
-0.673634 -0.059258 3.05056
1.74601 0.845383 2.55465
1.18362 0.615774 2.84149
-0.903119 -0.300378 3.14562
-0.388859 0.782165 1.90483
0.198302 -1.2297 3.57518
0.876398 0.458483 2.88741
1.26006 1.08922 2.72216
1.5455 -0.270492 2.94117
0.189685 0.436862 2.91459
-0.470685 -1.12231 3.46613
-1.06286 0.553962 2.99191
0.862559 -0.221502 2.9903
-0.427071 0.898959 2.65707
0.657944 -1.06594 3.37581
-1.28906 -0.949503 3.20375
-0.749792 0.676347 2.06743
1.08217 -0.176902 2.83848
1.34947 0.487997 2.7914
-1.48316 -1.2068 3.17723
-0.0461648 0.365676 2.95999
-0.727039 -0.426775 3.21039
1.06343 1.02708 2.75208
1.56797 -1.27824 3.40481
1.4863 0.298349 2.74269
0.86909 -0.365339 3.00226
0.149108 0.839906 1.7776
-0.101527 0.957716 2.55827
1.44267 1.00601 2.58403
2.72195 0.887604 2.82048
0.975916 0.391054 2.89998
-1.27445 -0.356132 3.1706
0.0843583 1.14884 2.27794
0.651181 -1.17925 3.32216
-0.764119 -0.252116 3.04727
-0.688678 0.687041 1.96447
0.585394 0.497362 2.93913
0.605505 -0.221874 2.94672
-0.611208 0.759243 1.86665
1.39688 0.482451 3.04179
-0.938001 -1.08457 3.51164
0.419987 1.33224 2.89682
-1.29305 -0.181898 3.12582
0.860849 -0.979489 3.22587
0.720698 0.553568 2.91325
-0.576608 -0.137934 3.08753
-0.409925 0.895206 1.91591
-1.07239 -0.982802 3.4637
0.753165 0.530044 2.93643
-0.958801 0.408416 2.94952
0.208862 -1.30284 3.58045
0.353932 1.11269 2.90232
-0.204954 -0.373524 3.11519
0.760514 0.348063 2.91127
-0.627002 -1.16693 3.36451
-0.0763404 0.916668 2.37899
1.12705 -0.329263 2.90078
0.136758 1.27562 2.32274
-0.962377 -1.12543 3.36832
-1.22517 -0.302613 3.1612
-0.230528 -1.10343 3.40244
-0.0423474 0.448786 2.97012
-0.294396 -0.0213264 1.49698
-0.398413 0.771284 1.92177
-0.209206 0.969522 2.89562
0.482698 -0.542885 3.17079
0.283327 -1.55134 3.74948
-0.156822 0.266923 2.96727
0.0454907 0.539182 1.34517
1.51033 -0.46953 2.82921
0.326442 0.969603 3.01578
0.994594 -1.53961 3.76723
-0.801109 0.231671 2.98481
0.799757 -0.448714 3.04729
0.00894515 0.572697 1.30083
-0.360596 0.740499 2.01194
2.30997 0.121953 2.9549
0.969043 -1.40688 3.55362
0.133205 0.315716 2.90414
1.1657 -0.394518 2.87086
0.933153 0.972457 2.81362
0.37677 -1.32073 3.4945
1.81263 0.27603 2.7715
2.06765 0.600592 2.65524
2.0241 0.362317 2.7439
1.52762 0.140523 2.85098
1.08094 -1.75228 3.81391
1.40917 0.783525 2.64223
-0.0193812 -0.667137 3.24591
1.05465 -1.58009 3.56866
0.620792 0.10458 2.90131
-1.27778 -0.64144 3.31891
0.0373428 0.84677 3.02466
0.400732 -1.51286 3.54685
1.67512 0.614218 2.6293
-1.40148 -0.603882 3.3053
-0.879256 0.196622 3.03982
-0.293716 1.40985 2.92508
-0.54747 0.671654 2.15701
0.424204 -1.60874 3.62018
0.563882 0.171055 2.88488
2.10852 0.283076 2.74054
1.22664 0.843369 2.74099
-1.13676 -0.646782 3.28527
1.60036 0.125433 2.72309
1.26291 -1.66972 3.49696
1.21037 -1.58818 3.64792
1.24523 -0.569952 3.03013
-0.250148 0.864841 3.00931
0.344817 -1.48359 3.5767
-0.404846 0.982995 2.96066
1.69794 -0.501659 2.81355
1.50273 0.19412 2.76998
-0.286993 -1.41166 3.53474
2.26975 0.234901 2.74142
-0.691174 0.664553 2.0312
-0.361556 0.759932 3.02365
0.128761 -0.793846 3.25474
2.40291 -1.53419 4.44556
-0.89133 0.0443609 3.07497
0.850042 0.699586 2.87713
-0.24247 -0.773328 3.35542
-0.983246 -1.10319 3.40953
1.12302 -0.00539322 2.81232
0.532906 -0.715973 3.25053
0.0906688 0.844408 3.04201
1.47614 0.0942901 2.92613
-0.899855 0.775997 2.67336
-0.461699 0.811694 3.07172
1.54929 -0.614305 2.86569
1.79607 0.071234 2.8296
0.0319647 -1.65139 3.61087
1.94743 -0.0450872 2.63135
-0.229186 -0.939856 3.43329
-0.164915 0.910843 1.95835
-0.0344736 -0.104843 3.00578
-0.00891873 0.827615 3.736
0.2482 0.599527 2.93946
-0.352662 -0.883236 3.39275
1.41557 -0.0700867 2.83164
0.369908 -0.836219 3.31353
1.76801 1.04687 2.55561
-0.911227 -0.0279815 3.1016
1.80052 0.892385 2.53769
0.821943 0.663049 2.90278
1.17951 -0.251908 2.86833
-0.732385 0.687928 1.97572
-0.445953 -1.17152 3.59348
1.48573 0.47077 2.76247
-0.688166 0.757374 1.8391
0.402192 -0.221534 3.05166
-1.03732 -1.02005 3.26772
-0.59394 0.48391 3.00142
-0.703126 0.600605 3.18867
-0.668286 -0.184012 3.07959
1.44771 1.15463 2.59903
0.49907 -1.02039 3.38132
0.246861 -1.01616 3.51867
-0.467409 0.83472 1.89963
0.835572 -0.147171 2.942
0.776146 0.520232 2.93299
0.764039 -1.63589 3.74938
0.0953136 -0.0644461 2.97521
-1.2583 -0.839177 3.17731
0.959605 0.659696 2.89511
1.4791 -0.75618 2.89013
-0.986417 0.235092 2.99431
-0.946124 -0.0285783 3.08275
1.69297 0.577801 2.67202
-1.07126 0.04377 3.01083
-0.488793 0.714141 1.98687
-0.943131 -0.790824 3.35021
0.204039 0.780305 3.07609
0.513338 0.00468566 2.96505
-1.4064 -0.757761 3.2587
-0.0979728 0.950685 2.03509
0.302103 0.742571 3.03245
0.0113534 1.22462 2.80178
-0.0507039 0.537998 3.00046
0.870021 -0.189594 2.97953
-1.49506 -0.99237 3.26894
1.72622 0.757555 2.5847
1.05253 -0.148398 2.84585
-0.211156 -0.964373 3.38011
0.366396 0.596177 3.00354
-0.122763 -0.116023 3.08022
1.72882 0.510793 2.64974
0.38911 1.24211 2.90594
0.3903 -0.910611 3.27932
0.215948 0.426616 2.91616
0.365444 -1.28632 3.6038
-0.17175 -0.355269 3.12425
1.36446 1.03385 2.61016
-0.890572 0.403001 2.94838
-0.489533 -1.21963 3.57499
1.35117 1.00572 2.60142
-0.0569971 -0.305064 3.09123
0.329258 1.48408 2.70142
-0.855197 -1.07911 3.34765
1.04939 0.484322 2.90383
0.587387 -0.274083 2.98951
-0.308641 0.798527 1.88363
-0.477494 0.481997 3.01848
-1.18067 -1.01658 3.30085
-0.849227 -0.230358 3.13657
0.405896 1.15412 2.85471
-0.798872 0.691624 1.95947
-2.09127 -0.767686 4.60077
1.12739 0.268693 2.80732
0.0827789 0.76343 1.54832
-1.14981 -0.469419 3.13971
-0.533933 0.695571 2.04281
-0.0176422 -1.44357 3.70785
1.08246 0.246488 2.8801
-0.252173 -1.21945 3.52523
-0.701988 -0.430137 3.24242
0.430527 1.06046 2.8619
2.43446 0.834369 2.8975
1.05302 -1.30862 3.38915
-1.33036 0.3759 3.00307
1.68109 -0.370325 2.75571
1.47741 0.932538 2.5934
-1.53469 -1.23503 3.33275
2.30202 1.02914 2.98031
0.794846 0.305463 2.92209
1.08803 -0.978152 3.30873
0.964727 0.584179 2.90183
-0.16638 -0.14228 3.05915
0.147784 -0.934259 3.34733
-0.499588 0.580641 3.04098
-0.856701 -0.103291 3.087
0.591698 1.29039 2.86332
-0.918793 0.775648 2.79802
0.237348 0.669145 3.12648
0.870172 -0.0786407 2.94552
-0.483368 0.806728 2.42395
-1.21793 -0.872987 3.3448
1.32131 -0.286256 2.80647
0.507434 1.161 2.87902
0.259164 -1.2289 3.58391
0.730648 0.466687 2.91403
0.802304 -0.267358 2.98152
-0.314733 0.784313 1.94953
-0.330544 0.440794 2.99121
-1.46691 -1.05409 3.19644
0.371733 -1.08112 3.42176
1.26546 0.502801 2.80279
1.80081 -0.216166 2.74993
-0.568366 0.853002 1.88067
-1.42098 -0.965616 3.21573
-0.913704 0.512405 2.96231
-0.504628 -0.177628 3.07
-0.413423 0.899507 2.65593
-1.27258 -1.25058 3.31785
-0.96134 0.0383446 3.09987
-0.833939 -0.424783 3.21007
-0.789813 -1.25765 3.46655
0.694955 0.309346 2.90509
0.231886 1.37777 2.79976
-0.400807 0.731203 1.99746
0.137321 1.10856 2.90774
1.82717 -0.362106 2.84799
2.51539 -0.942174 3.15643
0.69849 0.385526 2.90391
1.54376 0.943774 2.47698
-1.06224 -0.358512 3.23832
1.15204 0.34206 2.86034
1.66514 -1.12756 3.11728
0.456375 -0.587087 3.16906
0.897265 0.921919 2.87933
2.19511 0.33689 2.61951
-0.181056 -1.46342 3.37539
-0.415309 0.224075 3.04564
0.436212 -0.542907 3.15881
0.229954 0.900087 2.97635
-0.0960856 0.461409 1.42334
1.33457 -1.50851 3.57809
0.584506 0.171776 2.87295
-0.515998 -1.46085 3.65783
0.308234 0.285413 2.92213
2.16205 0.254423 2.63474
1.54442 0.905618 2.60096
-0.511479 -0.491287 3.13627
-0.804516 -1.32339 3.43592
0.945703 0.256338 2.8909
0.352284 -0.459125 3.08711
0.427505 0.999516 2.97107
2.3105 0.540723 2.68922
1.03975 -1.31069 3.50086
-0.494652 0.39643 2.98542
1.36827 -0.368402 2.8477
-0.483812 0.751168 1.93168
-0.329123 -1.23863 3.49743
-0.929901 0.362805 2.94105
0.713709 1.0576 2.8457
0.174797 -0.350646 3.0643
-0.710766 0.726115 1.81526
-0.955603 0.0294125 3.09134
1.40638 -1.11134 3.17864
-0.555092 -0.310516 3.1052
-0.60067 -0.970712 3.47483
-0.427028 0.44195 2.98234
0.019109 0.983806 2.96272
0.822533 -0.529585 3.08052
-1.30299 0.281076 3.02212
-0.85835 -1.44419 3.52778
1.90899 0.417109 2.63926
-0.806574 -0.480741 3.08426
0.120395 0.974473 3.03585
2.67567 -2.00378 3.66098
-1.2536 -1.33489 3.37454
-1.20164 0.232711 2.97583
-0.724366 -0.473377 3.25231
1.73976 0.291698 2.75071
-1.22386 -1.29099 3.36285
-0.617105 0.695417 1.95001
1.96743 0.0576075 3.00771
-0.578082 -1.29314 3.43615
-1.03526 0.305048 3.00146
-0.27901 0.749125 2.11718
1.96205 0.497018 2.62634
0.963001 -0.413581 3.00721
1.24262 -1.657 3.56793
1.31463 0.128674 2.7904
-0.1454 -0.672417 3.2696
-0.690388 -1.55283 3.25848
0.596652 0.858987 2.93464
0.792907 0.100458 2.91369
-0.929195 -1.50556 3.40404
1.0714 -0.607184 3.03083
0.363901 0.835612 3.00395
2.04186 0.472387 2.61494
-0.634492 1.13515 2.85884
1.50998 0.795734 2.58368
-0.626662 0.181989 3.00451
-0.316993 1.41548 2.94107
-1.39685 -0.591242 3.20202
-2.30699 -2.44226 5.48962
0.604915 -0.0350548 2.93431
-0.343689 0.768491 3.18564
-1.03915 0.11226 3.04586
-1.34986 -0.809769 3.19532
-0.733892 0.00689523 3.04992
2.14383 1.00579 3.04584
-1.00256 0.681248 2.9059
0.518901 -0.791363 3.23904
0.367485 0.0759074 2.92815
0.233177 -0.75365 3.28031
0.706121 0.782379 2.92964
0.0454329 1.32001 2.85232
1.21687 0.0202739 2.78978
0.871646 0.742874 2.89921
0.834263 -0.692038 3.15196
-0.233683 1.00447 2.74478
-0.311631 0.741124 2.99253
0.0916146 -0.799806 3.28674
0.350419 0.0268109 2.95915
-0.279432 0.568599 1.83388
0.412755 0.727655 3.03614
-1.11805 -1.03136 3.33893
1.03591 -0.735151 3.09132
1.69524 -0.0175517 3.10411
-0.0654167 -0.709466 3.27752
1.03001 0.0876371 2.84485
0.16632 0.830269 3.02255
1.37875 0.194669 2.01439
1.56558 0.693452 2.60299
-0.844097 -1.59814 3.44969
1.87267 -0.283675 2.71376
0.89262 0.0581764 2.90011
-1.00345 -0.679182 3.30933
1.49226 0.569488 2.65396
0.706672 -0.927666 3.28266
0.620296 -0.115029 2.98029
0.557746 -1.77088 3.73712
-0.940773 -0.886402 3.36133
1.41368 0.540756 2.68665
-0.608379 -0.0741932 3.07683
1.77798 -1.06055 2.9958
1.20424 1.24161 2.72863
0.100704 0.678493 3.00116
1.28804 -0.0490003 2.80387
-0.97316 -1.35311 3.41087
0.563985 -0.858718 3.332
-0.0461454 -0.258022 3.05861
-0.56364 0.777648 1.84839
0.679315 -1.13709 3.42591
-0.819362 0.521573 3.05848
-0.675148 -0.234112 3.11453
0.312955 1.17307 2.92393
0.652304 0.456825 2.90979
1.25054 -1.03147 3.20136
-0.914603 0.624577 3.23344
-0.19047 -0.193953 3.05778
1.27913 1.20423 2.69268
-0.855185 -1.0302 3.42976
0.453331 -1.00181 3.4243
0.934097 0.518244 2.88
1.45932 -0.152226 2.77235
0.000739425 1.23032 2.72951
-1.16069 -1.1756 3.26927
-1.00723 0.395383 2.91775
-1.3304 -0.39815 3.1872
0.0648695 1.11344 2.92985
0.424524 -1.26916 3.54753
-1.38763 0.370538 3.00213
-0.54373 0.734232 1.95064
0.294474 -0.361669 3.07994
0.913704 1.08726 2.76097
0.0716967 0.615939 1.32756
0.904084 0.424928 2.91944
-1.35598 -0.326762 3.16853
0.0336882 1.12461 2.41968
-0.0370939 -1.19165 3.48162
1.34942 -0.224032 2.80705
-0.483744 0.824693 1.89043
1.15237 -1.07126 3.32292
-0.32955 0.536946 3.04809
-0.0321867 -0.195285 3.06053
0.748775 1.16873 2.81325
1.14993 1.24295 2.72779
0.818764 -1.00641 3.25657
1.26968 0.470556 2.81843
0.64522 -0.154385 2.97974
1.75892 -0.898849 3.02171
-0.0440549 0.660722 3.21301
-0.448134 -0.107737 3.04472
0.497906 1.30428 2.87589
-1.4067 -0.903221 3.23041
1.49241 0.508358 2.68259
-1.50475 -1.18762 3.29819
-0.80847 0.438791 3.01068
1.05456 -0.347312 2.92351
-0.472112 0.747648 1.89724
0.00625394 -1.1843 3.44687
1.61925 0.344042 2.66735
0.657014 1.09792 2.89685
0.192825 -0.319725 3.07163
0.0664792 1.39647 2.49519
0.404685 -1.18146 3.56819
1.04718 -0.264587 2.88321
-0.503792 0.467552 2.96448
0.139471 1.1504 2.88476
0.383871 1.02268 2.97801
0.255826 -0.501873 3.12472
1.34653 0.259928 2.78621
1.02194 -1.42363 3.47236
-1.12201 -0.6124 3.31658
0.0149559 0.610138 1.52841
1.30319 -0.446689 2.87687
1.02069 0.934779 2.77934
1.07447 -1.38244 3.48382
0.114029 0.251923 2.91655
-1.18319 -0.438917 3.20612
0.870817 0.340685 2.9104
0.539085 -1.37469 3.59327
0.0120711 1.07082 2.91722
2.10174 0.447645 2.62411
-0.996521 -1.26538 3.48144
0.716297 1.01405 2.85011
2.18477 -0.116862 3.18105
1.6228 -0.366735 2.7521
-1.37809 0.325444 2.95922
1.72243 0.163525 2.74575
-1.27042 -1.42184 3.16121
1.48016 0.791181 2.59689
0.0726633 -0.634787 3.20616
-0.486912 -1.49098 3.47915
-1.17535 0.145745 2.95695
1.69809 -0.540364 2.78427
2.15706 0.193781 2.87122
0.158196 0.863101 2.98906
1.24597 -1.59045 3.75449
0.701201 -1.46033 3.57662
-0.0859581 0.951642 3.02791
-0.0330944 -0.552194 3.17129
1.73175 0.202174 2.74677
2.1123 0.331607 2.63936
1.48697 0.424356 2.69154
1.00207 -0.310037 2.92645
-0.638768 0.757717 1.86741
1.53659 -1.14964 3.2558
0.222499 -1.14837 3.50849
-0.20215 0.785191 1.96111
0.91275 -0.267648 2.9735
-1.03093 0.454822 3.04756
-0.265604 -1.05315 3.36279
-0.883192 0.563884 3.08191
1.38499 -0.223135 2.82068
-0.567785 0.835244 1.87882
-0.537792 0.503618 2.99524
-0.489941 -1.08907 3.56818
1.08259 1.13527 2.69768
1.75992 -0.200717 2.79535
-0.354374 -1.31959 3.50175
0.256667 1.06443 2.97374
1.43234 -0.399385 2.8342
0.070856 0.610833 1.40337
-0.207131 0.320089 2.99124
0.196786 1.48422 2.64501
1.23981 1.05081 2.7285
0.0358042 -0.379335 3.10477
1.47554 0.382918 2.91375
0.248332 -1.30648 3.55633
1.40732 0.979301 2.62125
1.24694 -0.347067 2.8487
0.057259 0.933164 1.87593
-0.986813 0.36266 2.96189
-0.866822 -1.1946 3.40977
-0.9402 -0.577934 3.15033
2.08365 0.419957 2.6301
-0.0957036 0.216705 2.96777
-1.00141 -1.42265 3.30924
1.27436 0.87704 2.73766
-0.311505 0.91584 3.05006
1.0125 -1.58471 3.746
2.44059 1.08278 2.91808
1.73982 0.154814 2.73239
0.340344 -0.540875 3.13639
-0.601513 -1.63086 3.42236
-0.156018 0.28991 2.96916
0.925464 -1.56322 3.8216
2.43923 1.10903 2.8632
1.03863 -0.475515 2.92546
-0.0720668 1.02935 3.00275
2.32817 0.619669 2.75649
0.540395 -1.48003 3.75519
-0.320012 0.263268 2.99005
-0.213172 -0.466133 3.16746
-0.728359 0.676287 1.98476
-0.00879451 0.787416 2.97647
-0.681197 0.0731356 3.02994
-0.98882 -0.569167 3.306
-0.682637 -0.736355 3.39491
-0.112716 1.35311 2.90413
-0.822781 0.668905 2.25702
0.452245 -0.657004 3.15004
-0.55508 0.138995 2.98577
0.391158 -1.63783 3.5652
-0.911073 -0.659524 3.41223
1.3345 0.755348 2.69062
-0.508302 -1.55867 3.50559
0.474003 0.0986703 2.90529
1.22274 0.91468 2.73782
-1.34141 -0.561384 3.2301
2.18857 0.964096 3.04347
1.94411 -0.487179 2.78491
-1.75037 -1.50448 3.52941
1.48301 0.241878 2.84342
0.482079 -0.513538 3.14757
-0.413754 0.684936 2.10552
0.0875241 0.695948 1.45821
-2.22352 -1.91726 4.62604
-1.12509 0.233411 3.05333
-0.836245 0.320761 2.96648
-0.998941 -1.37561 3.46272
0.374604 1.06687 2.97174
2.32476 0.964036 2.93273
1.5898 -0.446459 2.86298
-0.755642 -1.31873 3.50478
-1.32937 0.309546 3.01652
-0.707714 0.69414 1.97161
-0.0309968 -0.436544 3.16947
2.11083 0.353837 2.62558
0.876392 -1.69812 3.68166
1.2497 -0.638984 2.98517
0.774829 -1.68134 3.65223
-1.37872 0.118659 3.08407
-0.566742 0.821726 2.95681
2.22409 0.267731 2.63423
1.28996 1.02897 2.71169
1.30947 -0.581213 2.85065
-0.665245 0.643281 2.07408
1.18228 -1.7197 3.78445
-0.204346 0.186852 2.98885
0.498179 -0.598734 3.21361
1.07761 0.823526 2.81082
1.68384 0.11983 2.76225
-0.0800245 -1.56893 3.63691
-0.0559105 0.707879 2.9678
1.16235 -0.041461 2.82279
0.0867054 1.28038 2.76926
-0.552667 0.00450967 3.05081
1.40519 -0.76115 2.92316
-0.915681 0.674446 2.93904
2.26489 0.937399 3.2062
0.884005 -0.777799 3.15491
1.44205 0.0519294 2.8684
-0.548147 -0.772695 3.30669
-0.314556 0.7953 3.02835
0.793059 -1.538 3.73579
-0.935249 0.041765 3.06704
-1.10954 0.229129 3.0297
-1.00851 0.775297 2.99947
0.0425172 -0.712347 3.24831
-0.0995502 -0.966802 3.38026
0.314537 -1.72296 3.62573
-0.188641 -0.148876 3.0421
0.0701305 1.2372 2.78096
0.965237 0.547578 2.8884
0.261404 1.31752 2.90853
1.82176 0.885538 2.54455
-1.16353 -0.109106 3.12657
-0.501934 0.648494 3.05852
1.50318 -0.81939 2.8335
-0.278372 -0.0741893 3.05261
1.65328 -0.804678 2.89474
1.21727 0.555148 2.79205
-1.25618 -0.910625 3.26698
-1.30577 -0.114594 3.10074
1.80109 0.511272 2.63939
0.204749 0.582173 2.93253
-0.650363 0.703271 2.20442
0.588754 -0.0758212 2.9447
0.514669 1.28005 2.88085
-0.601369 0.682116 3.06401
0.264804 -0.899127 3.32491
-1.26544 -0.0421404 3.08051
1.03609 -0.851766 3.27542
0.608205 0.627241 2.98254
-1.28927 -0.287711 3.19929
-0.745702 0.752392 1.79274
-0.720501 -1.11883 3.42454
-0.284047 0.491951 2.98296
-0.20933 -0.231503 3.09042
0.436922 1.15933 2.89329
-3.40985 1.10839 7.05097
0.594205 -1.08887 3.39146
-0.774323 -1.05643 3.48412
1.00141 0.541362 2.89682
0.663453 -0.198179 2.9619
-0.32226 0.800773 2.09879
0.0619966 0.528977 2.96718
1.14579 -0.983156 3.28951
-0.30506 0.898205 1.93697
-0.7542 -0.15127 3.08365
0.859325 -1.36814 3.68629
-0.985182 -0.392723 3.15349
-0.277118 -1.11881 3.50119
-0.0703915 0.353401 2.9746
-0.762932 0.706307 1.89747
1.76133 -0.352531 2.72922
1.61288 1.00729 2.53237
2.50311 0.700273 2.7952
1.55482 0.366956 2.51135
-1.06231 -1.09054 3.10158
-0.671716 0.733013 1.92055
0.407996 -0.321604 3.08088
-0.257709 0.37709 2.93728
0.490218 -1.28205 3.70458
0.145206 -0.554773 3.15972
2.34708 -0.159821 3.01822
-0.23586 0.251042 2.98817
-0.736645 -1.45796 3.52486
1.67921 0.853867 2.54614
1.38241 0.842983 2.63807
-0.92822 -1.39539 3.48539
0.286646 1.38178 2.90456
-0.0501261 0.217384 2.94833
0.879036 -0.50718 3.03978
-0.685478 -1.35064 3.46463
-0.794763 0.32562 3.00606
1.13167 -0.439745 2.88114
0.687515 1.01827 2.86492
2.28079 0.630687 2.7609
-0.137843 -1.35406 3.57897
0.0890075 0.275675 2.9046
2.38332 0.898159 2.93454
-0.740776 -0.429401 3.15967
0.625051 0.996936 2.89014
-1.3923 -1.14101 3.16723
0.0605049 0.419477 2.9267
1.1572 -0.355826 2.87407
-0.784899 0.730852 1.8483
0.588276 -1.22915 3.52751
0.269962 0.368694 2.89597
-0.827717 0.716452 1.85854
1.08113 -0.316465 2.87511
0.200414 1.17638 2.9441
0.0827086 1.31 2.4427
1.35769 0.430893 2.79177
-0.469068 -0.287695 3.09356
-0.652718 -1.11454 3.39485
0.394647 -1.42698 3.56001
1.33328 -0.476475 2.83759
-0.491105 0.701573 2.02319
1.22595 0.272931 2.84769
0.528371 -1.50204 3.68224
-1.38019 -0.494313 3.24437
0.634426 0.971457 2.91547
0.0591337 0.941864 1.95782
-0.952135 -1.38858 3.56705
0.661188 0.236892 2.91614
-0.607618 0.346458 2.96797
1.39807 -1.3182 3.36077
0.0517 1.06758 2.91925
2.34372 0.235625 2.7412
-0.644764 -0.443704 3.17801
0.629531 0.296029 2.90761
0.436994 -1.29698 3.49864
-0.79603 0.684459 1.88429
0.565028 -0.393688 3.04815
1.09441 -1.67199 3.62869
-0.0694101 -1.58 3.53295
-0.524347 0.172018 2.98609
-1.44068 -0.614741 3.04716
0.783037 0.86748 2.86238
0.862705 0.122586 2.89584
-0.80886 -1.44977 3.35503
0.374582 -1.74562 3.63813
-0.551282 -0.571077 3.11461
0.355772 0.860819 2.97877
2.01669 -0.794997 3.26277
0.65896 -1.61767 3.6241
-0.45206 0.678813 2.10565
1.31674 0.194979 2.78737
1.82931 0.318474 2.80341
1.2658 -0.531652 2.92084
0.78132 -1.71833 4.0414
1.33453 0.684244 2.71916
2.23481 -0.192658 3.58117
-0.276277 0.0286071 3.02148
0.407278 -0.813482 3.31811
-0.24401 0.73418 3.0967
-0.0796359 1.09551 2.95948
0.710862 -0.0134957 2.93284
-0.79531 -0.797246 3.45065
0.911204 0.0943171 2.88843
1.67685 -0.768059 2.55868
1.03669 -0.679751 3.03736
-0.102476 0.835428 3.05941
-0.254204 0.0632924 3.04167
-0.807357 -1.60305 3.44705
1.86553 -0.506813 2.738
1.6504 0.7002 2.65165
-0.918519 -0.690562 3.31601
-0.196368 0.768722 2.10857
-0.562239 0.321168 3.02621
-0.935795 0.0182341 3.08657
0.46702 -0.425888 3.05706
0.10532 1.24574 2.44019
-1.05064 -1.25213 3.29652
0.97341 -0.381584 2.98584
-0.346634 0.766223 1.98102
1.33878 -1.2281 3.26242
0.591496 0.376599 2.93959
0.70421 -0.359863 3.02609
1.44445 0.975505 2.63061
1.49036 -1.22602 3.35423
0.512638 0.334575 2.86356
2.51192 0.305336 2.6486
0.78843 -1.71313 3.91551
1.17979 0.202081 2.80136
2.26891 0.139942 2.96357
0.162198 -0.593212 3.18409
-0.362012 0.918267 2.7804
-0.177478 -1.50669 3.62968
0.958127 0.158028 2.8515
2.36778 -0.0922209 2.97879
1.58422 -0.498025 2.75937
1.0776 0.853432 2.82009
1.41567 -1.4119 3.38965
1.41182 0.267996 2.77359
2.18378 0.283579 2.63355
0.654626 -0.509478 3.11895
-0.33161 0.726409 2.06491
-1.45773 -1.23005 3.06677
-1.37964 0.282463 3.08954
-0.0141412 1.32403 2.89494
-0.750176 -0.473218 3.19896
0.383843 0.983478 2.97075
0.137675 0.797981 3.04252
-2.48476 -1.26761 5.22427
-0.100307 1.32773 2.89586
0.446297 0.0590868 2.92422
-0.513952 0.767913 3.03684
-0.300493 -0.713697 3.24451
-0.677152 -0.984667 3.57578
-0.165899 0.031496 3.0065
1.05828 -0.653196 3.0344
-0.499786 0.799854 2.76914
-0.0872168 -1.69275 3.63665
1.73441 0.1186 2.73417
1.84921 -0.321595 2.71109
1.56094 -0.586233 2.84987
-0.501827 0.819167 3.00729
-0.45575 0.100919 3.02
0.695348 -1.74145 3.88721
0.715219 -1.58137 3.76506
0.402682 -0.876942 3.26802
-0.998346 0.78664 2.84642
-0.829224 0.704887 3.05935
-0.84872 -0.0665292 3.08984
0.0398181 -0.838674 3.29076
0.560455 0.627738 2.95033
-0.566546 -0.03734 3.08042
1.26532 -1.78766 3.71359
-2.15819 -1.1022 4.39083
-0.283758 0.883733 2.43393
-0.30451 0.952959 2.74774
0.133585 -0.00582387 2.95189
-1.13198 0.724386 2.94486
-3.14285 -3.24878 6.92852
1.08647 0.77107 2.79149
1.46008 -0.628429 2.91469
-1.18674 0.118998 3.13699
-0.101769 -1.69848 3.5255
0.611051 -1.47152 3.59023
2.18971 0.313546 2.62629
1.23735 0.817321 2.71502
-0.188105 -0.640495 3.27235
-0.0701937 0.177107 2.96709
-0.879473 -1.52634 3.42641
1.20356 -0.57886 3.01108
1.4234 0.75382 2.60188
0.190644 -1.52669 3.5244
-0.227456 0.135447 3.00383
-0.216828 1.15673 2.95841
0.293841 -0.0380239 2.9562
-0.228183 -0.00881004 3.05462
0.0159903 1.17355 2.87624
1.43743 -0.767259 2.90145
0.140476 0.722863 3.03142
2.3094 -1.52736 4.21932
1.15202 -0.770153 3.10385
-1.16223 0.670174 2.89067
0.320448 -0.780221 3.31387
1.78332 0.0594246 2.76887
-1.00428 0.79265 2.91933
1.52868 -1.49049 3.44327
1.64143 -0.827721 2.7296
1.61119 0.0261582 2.67378
-1.33561 -0.718932 3.27628
1.71726 0.700536 2.71444
0.242287 1.25851 2.92695
-1.19936 0.534979 2.76319
1.27267 1.14238 2.67673
-1.01839 -0.158023 3.15434
0.287934 -0.996631 3.40205
1.86285 0.998359 2.54569
-0.0673142 -0.112283 3.03471
0.19436 -0.927059 3.30966
-0.711208 0.636835 2.99344
-1.20111 -0.0739962 3.10071
-1.07136 0.590061 2.90579
1.31354 -0.839058 3.03588
-0.917876 0.466833 2.96074
-0.738232 -1.16403 3.41774
1.6031 -0.297401 2.73645
0.828963 1.12119 2.78736
1.48595 0.38602 2.71388
-1.04235 -1.07057 3.32585
-0.299067 -0.276456 3.0757
-0.0924804 0.832476 2.11994
-0.0132688 -1.07115 3.40141
-1.09348 0.532945 2.93606
-0.508194 -0.240197 3.08779
-0.458283 0.873202 1.89729
0.187981 -1.09906 3.62378
-1.71161 0.622165 3.63977
-1.04449 -0.197159 3.11275
-0.136412 0.84262 2.00492
0.392616 0.476656 2.92771
1.2602 -0.275081 2.8533
-0.156334 0.839289 1.99258
-1.11054 -1.09282 3.32988
-1.31312 -1.03599 3.25759
0.749673 1.12272 2.80725
1.55805 -0.243571 2.842
-1.10344 0.460743 2.92463
0.801688 -1.06348 3.4182
-0.954982 0.557577 2.95485
-1.35381 -0.207174 3.08635
-0.607946 0.841751 1.87088
1.37733 0.493779 2.7937
1.17957 -0.957276 3.21743
-0.881011 -0.165171 3.11956
0.942135 1.02069 2.78962
0.132179 1.33031 2.88447
1.05369 0.336836 2.87593
-0.0172135 1.07931 2.36594
-1.06383 -0.405686 3.16621
0.624867 -1.29631 3.48779
-1.35572 -0.38201 3.17953
0.307237 1.16941 2.98062
-1.37073 -1.16416 3.25189
1.79204 0.399779 2.78138
-0.267649 0.775308 2.01052
0.502821 -0.325082 3.03429
2.64931 0.641449 2.72403
0.388241 -1.23338 3.53765
1.49743 0.34023 2.73108
-0.00771569 -1.51845 3.64619
-0.783846 0.2552 3.04035
2.15395 -1.09575 3.52158
1.51316 -0.499917 2.722
-0.694507 0.66973 2.04262
0.7904 -1.71231 4.13595
-0.75519 0.21653 2.96413
1.31605 -1.71971 3.72344
0.759174 -0.514912 3.06777
-0.769362 0.64648 2.0337
-0.328262 0.31237 2.98004
1.40923 -1.67936 3.55657
1.40593 -1.51569 3.73854
2.06692 0.267682 2.75815
0.914854 -0.463085 3.02259
-0.00352588 1.0356 2.9337
0.435217 -1.40105 3.63657
0.835838 0.271273 2.87713
1.8782 0.675516 2.64674
-1.03086 -0.438148 3.17508
1.66535 0.873305 2.5619
1.64528 0.737859 2.66664
1.01268 -1.58535 3.62299
0.0423835 0.101935 2.99594
-1.4031 -0.674426 3.15296
0.495644 0.62976 2.94262
0.57568 0.882711 2.9391
0.136037 -0.641542 3.21807
0.633244 0.158358 2.87843
-1.04761 -1.5518 3.44299
1.25967 -2.00785 4.11956
0.981399 -0.584439 3.03735
0.732064 0.831099 2.89327
0.470914 -1.636 3.77042
-0.735294 0.137788 3.0141
-0.278682 0.971916 2.38086
0.288283 -0.522354 3.11878
-0.0767301 0.481252 1.47176
0.167427 0.27073 2.9153
-0.186052 -1.4502 3.58013
0.883711 0.969067 2.84771
-1.34522 -0.497317 3.22934
-0.193171 0.974144 2.98243
2.66214 0.871705 2.8345
0.102871 -1.39171 3.49418
-1.38794 0.255317 3.01369
-0.516891 0.348563 3.02286
-0.328476 -1.34882 3.5488
-1.43299 -0.458204 3.19718
-0.342576 0.746526 2.00972
2.09431 0.490478 2.59796
-0.457155 -1.31141 3.56059
0.33001 0.295955 2.9033
2.01347 -0.453297 2.77809
-0.513162 -0.413155 3.27148
1.29806 0.971226 2.72846
-0.280476 -1.63233 3.63736
1.43972 -0.587253 2.83719
-0.887755 -0.320004 3.1636
0.945042 0.125563 2.87847
-0.366887 0.878633 3.06231
2.00971 0.297789 2.76802
-0.692726 0.958431 2.94597
0.627951 -0.598256 3.15324
0.969604 0.899398 2.84823
0.0331465 -1.53156 3.54493
1.65211 0.184771 2.68534
-0.96476 -0.564779 3.15285
-0.798739 0.638245 2.10681
-0.290676 -1.48155 3.55485
-0.307803 0.165854 2.98178
1.1867 0.00971427 2.7722
1.52537 -1.00662 3.28223
1.25258 -0.759739 2.9977
-0.227399 0.762904 3.06145
-1.19387 -0.768047 3.28022
-0.0231689 0.723394 3.05272
-0.276481 1.04846 2.86695
0.160553 -0.0156649 2.95083
-0.757591 0.103652 3.05258
-0.723058 0.822406 2.95751
0.996191 -1.733 3.68553
-0.458484 -0.734829 3.29168
1.62329 0.601115 2.54735
-1.19012 0.0685395 2.97234
0.494592 -0.688256 3.21397
0.403525 0.789483 2.99303
1.29486 -0.882972 3.04872
0.99597 0.570272 2.91941
-0.546798 -1.61757 3.44876
-0.462809 0.717303 1.93727
1.42377 -0.131579 2.74144
1.91947 0.435766 2.63569
1.17814 -0.0855593 2.75426
0.847905 0.649586 2.89922
0.971581 -0.913583 3.31611
-0.0359825 -0.0517002 3.02136
-0.669666 0.620994 2.99429
0.430415 1.2917 2.87716
1.74223 -0.735056 2.76298
0.255246 0.207845 2.95484
1.04272 -1.56111 3.57532
1.76877 -0.443302 2.73761
0.618243 0.926318 2.93796
-1.39357 -0.632391 3.33365
-1.20995 -1.41337 3.36826
-0.408308 -1.59065 3.42856
1.4097 0.154759 2.82432
-0.142382 -0.553855 3.15388
-0.4542 0.876377 2.90144
-1.08899 -1.32682 3.30135
-0.845584 -0.503112 3.19896
0.896759 -1.78335 3.64982
-0.894813 -0.507326 3.16081
-0.00404395 0.240608 2.94423
2.35958 0.10487 2.95107
-0.309023 0.744246 2.19631
1.22945 0.731203 2.75484
1.40255 -0.72181 2.9722
0.800362 0.0533513 2.87706
-0.154957 0.936867 3.02983
-0.720845 -0.731703 3.31551
1.15286 0.717996 2.82057
0.647571 -1.46049 3.56133
-0.821874 0.028293 3.09489
-1.22277 -0.714807 3.39058
1.75549 0.107114 2.7266
-1.2191 0.831896 2.82223
-0.267032 0.827355 3.02955
1.82927 -0.533561 2.79117
-1.18534 -1.561 3.4518
-0.29578 0.10488 2.96589
0.997473 -0.615046 3.01983
1.12856 -2.10723 4.84
-0.529787 -0.951955 3.54826
-0.022136 -0.0684908 3.01164
-0.496 0.687997 3.0981
-0.334588 0.644116 3.09525
1.19379 -0.820288 3.1113
-1.17994 0.0101946 3.09088
1.06723 -0.0467682 2.85692
1.74759 0.986223 2.53273
-1.60794 -0.83297 3.34436
1.29179 0.658433 2.75869
-1.04972 -0.00816858 3.05202
1.86786 0.516771 2.63021
-0.37602 -0.240219 3.06496
-0.0155579 1.22639 2.64658
-1.34772 -1.00967 3.16885
0.69002 0.518246 2.93899
0.976136 1.14562 2.76294
0.0176572 -0.203918 3.05016
1.02393 1.21023 2.74484
0.146798 0.480177 2.91636
-1.286 -1.05581 3.40002
-0.592925 0.620282 3.12571
1.10877 -0.155774 2.81098
0.975557 -0.968472 3.2533
-0.136994 -0.940764 3.41077
0.307996 1.25395 2.90858
0.901037 -0.124114 2.9159
0.0225815 0.575905 3.03754
1.87106 -0.557657 2.74868
-0.390302 -0.856667 3.37421
0.45306 -0.0214289 2.96307
-1.04965 -0.0402972 3.11146
-0.749517 0.719222 3.00594
-0.148081 -0.8088 3.32402
1.09094 0.649467 2.882
-0.76739 0.0727109 3.07877
1.89559 0.142146 2.74216
-1.13768 -0.787706 3.34771
-0.77722 0.799162 3.00818
-0.329096 0.0236804 2.97771
-1.01899 0.783415 2.83075
0.943684 0.724327 2.86534
1.1099 -0.690333 3.00503
-0.590399 -0.202791 3.12172
-0.654658 0.793302 1.86477
-1.82991 -1.1823 3.78325
0.19818 0.545469 2.90866
0.900962 1.19151 2.7738
1.52999 -0.161292 2.80024
-0.595437 0.827256 1.87271
-0.991027 -0.974201 3.35144
0.886436 0.241923 1.36439
-1.0417 0.789633 2.85292
-0.409576 -0.118638 3.02612
-0.580656 0.630557 3.05491
0.271107 -0.960051 3.39467
-2.66445 -0.26506 5.76574
1.38928 -0.794332 2.86053
-1.21517 0.590349 2.90006
0.137591 0.44365 2.92688
1.49244 -1.15753 3.23805
-0.837582 -0.341472 3.1977
-0.661927 0.745041 1.84559
1.40875 -1.15572 3.37887
-0.095603 0.420164 2.96786
0.808109 1.09852 2.81586
-1.07366 -0.285375 3.14982
-0.541037 -1.14192 3.60258
1.40013 -0.229564 2.74016
1.69393 0.471504 2.85783
0.354039 1.20082 2.91029
0.983184 0.986736 2.76397
-0.998786 -0.462707 3.09405
-0.139406 0.310537 2.98061
-0.538357 -1.35948 3.47391
0.834608 0.966557 2.82797
2.37923 0.461509 2.59369
-0.456506 -0.447484 3.2629
0.119932 1.4193 2.54877
1.11784 -1.333 3.38688
-0.898196 0.290462 3.00438
0.363758 -0.401433 3.11208
0.676988 1.08546 2.88671
-1.145 -1.22162 3.3547
2.33669 -0.000859016 2.87741
0.465984 0.363758 2.87497
-0.650034 0.719997 1.92824
0.36636 -0.371605 3.12657
0.113378 -1.27689 3.56524
1.72446 -0.146369 2.82186
1.55603 0.298145 2.66934
0.165437 1.06664 2.9532
0.969956 -0.440071 2.9976
-1.14966 0.352317 2.99076
0.700219 -1.40009 3.60338
-0.479905 0.715394 1.98404
0.0110088 1.13053 2.31746
1.49759 -0.382439 2.77426
0.50943 -1.35761 3.62348
-0.414642 0.307303 2.96137
1.87851 0.530975 2.63338
0.64829 -0.363095 2.95757
-0.361401 0.764057 1.94932
-0.0447284 0.538021 1.37143
0.0986558 -1.28373 3.57617
-1.2358 0.430225 2.99415
1.57473 0.983655 2.55912
-0.264193 -0.330814 3.13107
1.36476 -1.19056 3.32998
2.63194 0.690525 2.76086
0.185651 0.362541 2.92118
1.06831 0.225539 2.87642
-1.04141 -1.38258 3.27542
-0.0149509 0.560813 1.28744
-0.377589 0.708805 2.11913
1.50641 -0.536332 2.86728
0.619789 -1.53254 3.70799
0.637447 0.195891 2.88854
-0.578975 -0.535044 3.23077
-0.588185 0.654605 2.05026
1.23758 -1.48193 3.66239
2.05083 0.350129 2.64483
1.57046 -0.448645 2.74818
0.997513 0.262101 2.89171
2.231 0.469709 2.60385
-0.250898 0.906655 2.58451
1.28702 -0.674344 2.89389
1.38845 0.741524 2.70106
0.560328 -1.46008 3.59215
1.71207 0.0889262 2.76223
-1.1771 0.737237 2.73776
1.35336 -0.653678 2.97373
-0.666929 0.79171 2.97624
1.65019 0.0412887 2.80296
0.736232 -0.641372 3.12313
1.05644 0.150681 2.82224
1.43724 -1.66761 3.62669
-0.829811 0.632459 2.08632
0.673614 0.845868 2.95517
1.34284 -0.569112 2.88426
2.39828 -0.953338 3.83458
-0.582012 0.126955 3.01754
1.20793 -1.6889 3.83083
-0.277238 1.08585 2.45641
0.868692 -0.84741 3.22366
-1.16591 -0.0155882 3.0874
0.512096 -1.46298 3.5839
-0.0726921 -0.0531421 3.0205
1.33983 0.640511 2.70148
-0.192361 -0.798076 3.30145
1.46195 0.605147 2.72496
0.74098 -1.88569 3.97005
0.99385 -0.781881 3.23198
1.9038 0.375675 2.67774
1.59081 -1.47562 3.39886
1.63004 0.008774 2.74973
0.0527988 0.753901 3.04348
-0.760495 0.626127 2.15697
-0.21021 -1.68183 3.60839
-1.3247 0.139514 3.08831
-0.486514 1.38187 2.96069
1.64305 -0.605304 2.83934
2.22754 0.230064 2.75101
0.203689 -1.67469 3.70548
-0.478482 0.679734 2.12436
-0.21732 -0.618194 3.20372
-1.05933 0.217397 3.02874
1.1434 -1.49493 3.36526
0.925695 -0.558104 3.00812
-1.1393 0.745894 2.45969
-1.16404 -1.40434 3.32469
-0.71246 0.16963 2.97398
1.86463 0.995941 2.54951
1.08212 -0.783266 3.10114
-0.864382 -1.26664 4.49831
0.9073 0.0158308 2.8899
1.48673 -0.0340384 2.78578
1.26111 0.69359 2.76647
-0.587035 -0.758535 3.22336
-0.251984 1.08073 2.45388
1.14135 0.676749 2.83474
0.0174033 0.0926591 2.96914
1.56844 -1.37761 3.19725
0.794094 -0.722038 3.16829
1.11227 0.7623 2.79679
0.956026 0.0510278 2.88404
-0.525982 0.78032 2.26796
0.497042 0.762656 2.91804
1.65895 -0.631281 2.81601
-0.379771 0.594375 3.05835
1.82676 1.03905 2.55017
1.35434 -0.126169 2.69496
-0.0471997 1.07 2.40805
1.37009 -0.900085 3.07987
1.88902 0.0755725 2.70497
-0.316092 0.671396 3.07275
-0.527809 -0.0888558 3.08382
1.39959 -0.841408 3.00122
1.7372 -0.0567762 2.77601
-0.0821424 -0.870084 3.34188
1.46015 0.560423 2.66617
1.02236 -1.12222 3.30331
0.565999 0.472584 2.92028
0.501481 1.24927 2.88015
0.732533 -0.280958 3.02762
0.999636 1.13178 2.74317
1.46565 0.417817 2.78573
-1.14221 -1.03321 3.30316
-0.710602 -0.242785 3.06959
0.717041 1.14223 2.85773
-0.581303 -1.11106 3.62294
1.31478 0.512912 2.77819
-0.77988 -0.204585 3.07175
-0.152749 -0.990302 3.37495
-0.769785 0.526621 3.04543
-1.43871 -0.171181 3.088
-0.443713 0.899866 1.87767
-0.113079 0.77941 2.99136
-0.360981 0.843172 1.92765
1.29921 -0.721065 2.96546
1.08999 0.0491696 2.80399
-0.575653 0.757718 3.05287
-1.35773 -0.725996 3.21653
0.5247 -1.46216 3.58035
-0.040429 0.021775 2.96622
-1.41057 0.136623 3.05333
1.94812 0.712646 2.569
-0.729694 -0.686563 3.28695
-0.66917 0.857397 2.89341
-1.1116 0.112698 3.12218
-0.443625 -1.60905 3.56746
0.270646 -0.0857754 0.144047
0.639445 -0.646432 3.1861
1.49851 0.7228 2.61852
1.10406 -0.848431 3.07996
-0.175668 0.660263 2.96036
1.87186 0.105911 2.70938
0.961758 -0.0783807 2.89387
-1.28941 -0.824192 3.18784
0.77883 0.607085 2.92647
-1.47618 -1.58449 3.36436
1.4732 -0.0565716 2.83006
1.5268 0.377351 2.27681
1.79454 0.957757 2.52724
-0.861552 0.713455 2.97693
-1.00502 -0.00448218 3.07337
1.17656 -0.767943 3.06458
-1.09396 -0.249879 3.14157
-0.548552 0.819918 1.88862
0.784496 -1.08352 3.34842
1.67921 0.450105 2.59061
0.969762 -0.202978 2.91534
-0.716879 0.781934 1.86342
-0.125541 0.684598 1.64051
-0.549637 -1.06284 3.43679
-0.383934 0.489535 2.98032
-0.488524 -0.995533 3.36422
0.0943813 0.593611 3.00127
-1.46778 -0.167418 3.0931
-0.983951 -0.917942 3.30818
0.509883 0.528772 2.88291
-0.664377 -0.129623 3.06023
-0.653145 0.857668 1.86069
1.37707 -1.2219 3.31597
0.26134 1.3921 2.73566
0.328339 -0.368667 3.08938
1.28111 0.357765 2.82856
-0.540035 0.74827 1.9445
0.0502433 -0.323876 3.06483
-0.315016 0.790245 1.968
0.273908 1.5143 2.7925
-0.547837 0.456067 2.98865
-1.52238 -1.14864 3.26503
1.00074 1.1103 2.83675
0.122804 -0.28301 3.05792
1.82021 0.386581 2.76855
0.536401 -1.18116 3.52943
-0.246115 -0.208119 3.08901
-0.262611 0.869326 1.95665
0.44676 -1.06524 3.43401
0.375686 1.33114 2.89491
-0.858306 0.594701 3.16789
-0.283234 0.921988 1.9355
1.75617 0.725397 2.58693
-0.424446 -0.166425 3.09253
0.276032 0.508908 2.931
0.204072 -1.04996 3.54938
-0.195226 0.640865 3.09169
-0.543302 -0.135411 3.08986
-1.3227 -0.922027 3.26124
-0.479374 -0.956693 3.53498
-0.0697585 -0.0856725 3.01634
-0.120929 0.594154 3.00167
0.721479 -1.2248 3.47829
1.73151 0.420771 2.696
0.959521 -0.31962 2.89708
1.48352 1.02877 2.52998
0.481388 0.401051 2.8956
1.36017 -1.14264 3.33401
1.12369 -0.277441 2.83599
0.101862 1.11532 2.90476
1.18746 1.11639 2.69126
2.48888 0.371131 2.6042
1.5402 0.419719 2.69699
0.980111 -0.244742 2.9226
0.204796 -1.11011 3.46161
0.87969 -0.481274 3.05481
-0.0522619 1.05418 2.99092
1.54111 0.274085 2.7056
-1.07499 -1.30943 3.3488
2.5076 0.0299124 2.92865
0.248716 1.5198 2.7325
-0.944654 -0.458829 3.27749
-0.0437359 1.01305 2.96298
-1.44797 -1.19888 3.08482
