ply
format ascii 1.0
element vertex 1842
property float x
property float y
property float z
end_header
1.15762 -1.6913 3.52334
0.910861 -0.45306 3.02576
-1.05306 0.137261 3.32683
-0.00723289 1.0152 2.92692
0.444779 -1.38824 3.61601
0.830677 0.264699 2.86032
1.8782 0.675516 2.64674
-1.0288 -0.438146 3.17518
1.57204 -2.04414 3.42691
1.66535 0.873305 2.5619
1.71802 -0.159679 2.82238
1.63741 0.737251 2.67028
1.00469 -1.57591 3.60646
0.0442437 0.105072 2.97281
-1.4031 -0.674426 3.15296
2.05169 -1.04633 3.22065
0.485398 0.613196 2.9445
0.562488 0.863544 2.94462
0.142995 -0.630821 3.21669
0.624137 0.150352 2.85536
-0.502393 -0.793193 3.32526
-1.04761 -1.5518 3.44299
1.26261 -1.9946 4.11348
0.971855 -0.574155 3.03347
0.717988 0.815185 2.91101
1.88797 -0.0648911 2.89755
0.465689 -1.61499 3.75009
-0.736127 0.132724 3.00699
-0.278682 0.971916 2.38086
0.291825 -0.5181 3.10833
-0.0767301 0.481252 1.47176
0.168596 0.263976 2.90773
-0.186052 -1.4502 3.58013
0.870576 0.951489 2.86243
1.25606 -2.39491 3.97634
-1.34522 -0.497317 3.22934
-0.198105 0.962321 2.9926
2.66214 0.871705 2.8345
0.116486 -1.3774 3.48688
-1.38794 0.255317 3.01369
1.90857 -2.19565 3.79521
-0.503521 0.33969 3.04793
-0.328476 -1.34882 3.5488
-0.434071 0.644034 3.06802
-1.43299 -0.458204 3.19718
-0.342576 0.746526 2.00972
2.08496 0.49554 2.60383
-0.457155 -1.31141 3.56059
0.324931 0.285591 2.88162
2.00362 -0.458496 2.78128
0.952926 -2.68735 3.35937
-0.495115 -0.41253 3.28679
1.29181 0.966492 2.73394
1.26321 -2.28944 3.46724
-0.280476 -1.63233 3.63736
1.43392 -0.579426 2.83381
-0.864807 -0.323186 3.17403
0.934931 0.128943 2.86797
-0.73178 -0.323426 3.12169
-0.362415 0.86487 3.07067
1.99197 0.308753 2.77198
-0.692726 0.958431 2.94597
0.624223 -0.5897 3.14929
0.949355 0.883396 2.85749
1.89475 -1.06189 3.22205
0.0331465 -1.53156 3.54493
1.64517 0.175596 2.67915
-0.96476 -0.564779 3.15285
-0.798739 0.638245 2.10681
-0.290676 -1.48155 3.55485
-0.30054 0.160089 2.99389
1.1709 0.00518125 2.76754
1.50461 -0.992155 3.28112
1.24282 -0.753365 2.98211
-0.208878 0.74348 3.07068
0.80664 -1.78143 3.57883
-1.19387 -0.768047 3.28022
-0.0289181 0.70664 3.0717
-0.276481 1.04846 2.86695
0.159889 -0.0163108 2.93698
0.966196 -1.44902 3.49018
-0.7396 0.0922997 3.08276
-0.303264 0.658029 3.06755
-0.723058 0.822406 2.95751
0.997159 -1.72779 3.66501
-0.433473 -0.727761 3.28797
1.62329 0.601115 2.54735
-1.18258 0.0693749 2.98249
0.495873 -0.680377 3.21099
0.397914 0.76951 3.00034
0.376142 -1.92978 3.59589
1.29545 -0.873407 3.03989
1.93091 -1.16453 3.34274
0.982687 0.557118 2.93595
-0.546798 -1.61757 3.44876
-0.462809 0.717303 1.93727
1.40894 -0.135305 2.73485
-0.890324 -0.571179 3.17738
1.90156 0.431094 2.64788
2.1839 0.149223 2.88516
1.16126 -0.0911973 2.74153
0.833003 0.63288 2.91124
0.975774 -0.905302 3.30848
1.24108 1.1158 2.50133
-0.2607 -1.14886 3.47256
-0.0303336 -0.0524409 3.02571
-0.669666 0.620994 2.99429
0.416294 1.27505 2.88491
1.74223 -0.735056 2.76298
0.251227 0.204947 2.95045
1.03582 -1.5474 3.55883
1.75925 -0.444755 2.73488
0.60925 0.904558 2.94577
-1.39357 -0.632391 3.33365
-1.20995 -1.41337 3.36826
1.58748 -2.12038 3.41767
-0.408308 -1.59065 3.42856
1.39511 0.148633 2.82492
-0.129135 -0.551961 3.16172
-0.4542 0.876377 2.90144
-1.08899 -1.32682 3.30135
-0.845584 -0.503112 3.19896
0.896759 -1.78335 3.64982
-0.893618 -0.510732 3.15432
-0.351763 -1.06809 3.49393
0.00245944 0.232699 2.94212
2.33792 0.12374 2.961
-0.309023 0.744246 2.19631
1.51413 0.591876 2.69693
1.21432 0.714083 2.76447
1.6936 -0.882292 2.96316
1.39636 -0.713729 2.96974
0.79061 0.0466077 2.85901
-0.150418 0.912714 3.04052
-0.702227 -0.734085 3.32008
1.14161 0.711949 2.83927
0.647571 -1.46049 3.56133
-0.806614 0.018407 3.12849
0.810496 -1.84763 3.57695
-1.22277 -0.714807 3.39058
1.74401 0.0969101 2.72883
-0.192192 -1.52558 3.48933
-1.2191 0.831896 2.82223
-0.251343 0.812189 3.0419
1.82927 -0.533561 2.79117
-1.18534 -1.561 3.4518
0.91876 -1.72636 3.55486
-0.278815 0.102186 2.9782
0.996519 -0.605497 3.01778
1.13509 -2.10124 4.8335
-0.521255 -0.959013 3.54633
-0.0140759 -0.0599424 3.01067
-0.486442 0.675319 3.11689
-0.331273 0.645628 3.1032
1.18803 -0.816395 3.10134
0.603647 -1.46996 3.56186
-1.17994 0.0101946 3.09088
1.04996 -0.0438846 2.84267
1.74759 0.986223 2.53273
-1.60794 -0.83297 3.34436
1.27587 0.648657 2.7775
-0.143667 0.0526216 1.0631
-1.04972 -0.00816858 3.05202
1.94144 0.442137 2.70487
1.84775 0.512171 2.63314
-1.11627 0.264945 3.05382
-0.360805 -0.239303 3.07985
-0.832425 -0.634575 3.22765
-0.0155579 1.22639 2.64658
1.55605 0.711751 2.62524
-1.34772 -1.00967 3.16885
0.675253 0.51061 2.94556
0.957423 1.12524 2.77103
0.029792 -0.203552 3.05471
1.01706 1.20966 2.7414
0.142998 0.465899 2.91773
1.11361 -2.47781 3.38044
-1.286 -1.05581 3.40002
-0.952449 -0.172129 3.10786
-0.592925 0.620282 3.12571
1.09556 -0.153392 2.80319
0.424338 1.46945 2.84125
0.503751 -1.83354 3.62616
0.97645 -0.958674 3.2455
-0.126997 -0.930701 3.4097
0.296024 1.23393 2.91698
0.888505 -0.126515 2.89974
0.025193 0.56599 3.04297
2.00481 -1.00738 3.39636
1.86927 -0.551693 2.74541
-0.365008 -0.856562 3.3807
0.600853 -1.66974 3.84999
0.447184 -0.0268632 2.94115
-1.04907 -0.0416193 3.11339
-0.73069 -0.624027 3.2872
-0.749517 0.719222 3.00594
-0.13912 -0.800931 3.32401
1.07909 0.642693 2.90546
-0.758294 0.069991 3.09357
1.89559 0.142146 2.74216
-1.13768 -0.787706 3.34771
-0.77722 0.799162 3.00818
1.51853 0.103283 2.83864
-0.313714 0.0214528 2.98594
-1.01899 0.783415 2.83075
0.929537 0.713645 2.88065
1.10423 -0.680523 2.99927
0.701295 -1.48068 3.55139
-0.572786 -0.203321 3.14523
-0.654658 0.793302 1.86477
0.167368 -1.2589 3.51778
-1.82991 -1.1823 3.78325
0.197413 0.531832 2.913
0.881661 1.16988 2.78319
1.91436 0.429574 2.74408
1.51576 -0.152638 2.79483
-0.595437 0.827256 1.87271
-0.468968 0.940703 3.05206
-0.828912 0.558004 4.08983
-0.991027 -0.974201 3.35144
0.886436 0.241923 1.36439
-1.0417 0.789633 2.85292
-0.394988 -0.122144 3.04193
1.32639 -1.79125 3.51706
-0.594362 0.626333 3.04745
0.270409 -0.951375 3.38807
1.0382 -1.64536 3.56332
-2.66445 -0.26506 5.76574
-0.484459 -0.879588 3.37491
1.38629 -0.786894 2.85607
-1.21517 0.590349 2.90006
1.06778 -2.27754 3.66871
0.132351 0.426976 2.92744
1.48592 -1.14916 3.22681
-0.837582 -0.341472 3.1977
0.428041 1.50621 2.80213
-0.661927 0.745041 1.84559
1.4086 -1.14665 3.36808
-0.0913784 0.409211 2.96585
1.13386 -2.24481 3.53605
0.790018 1.07904 2.82869
-1.07366 -0.285375 3.14982
-1.25228 -0.337797 3.18168
-0.509058 -1.1432 3.602
0.709058 1.27319 2.40842
1.38846 -0.226679 2.73575
1.69393 0.471504 2.85783
-1.01634 -0.270262 2.95009
0.349685 1.1801 2.92496
2.31827 0.296195 3.40368
0.962753 0.967609 2.77033
2.43779 -0.388509 3.49205
-0.981527 -0.461624 3.09843
-0.134776 0.298508 2.98295
-0.538357 -1.35948 3.47391
0.821809 0.947575 2.8414
2.37654 0.464663 2.59385
-0.444813 -0.447321 3.27247
0.119932 1.4193 2.54877
0.705149 1.26406 2.38638
1.11627 -1.32356 3.36424
-0.898196 0.290462 3.00438
1.63452 -1.90133 3.81283
0.365157 -0.397113 3.10803
0.665189 1.0603 2.89978
-1.145 -1.22162 3.3547
2.31961 0.0147964 2.8932
0.45843 0.35274 2.86997
-0.650034 0.719997 1.92824
0.364551 -0.36613 3.12435
0.11376 -1.27639 3.56553
1.71416 -0.144761 2.81752
1.53726 0.296701 2.68161
-1.17796 0.0707562 3.4497
0.158161 1.03837 2.96704
0.966029 -0.435972 2.99535
0.983592 -2.80416 3.59897
-1.14966 0.352317 2.99076
0.70359 -1.38678 3.58719
-0.479905 0.715394 1.98404
0.00962844 1.13174 2.31639
1.48599 -0.377756 2.76891
0.768714 1.21402 2.4232
0.509314 -1.34744 3.61298
-0.405031 0.300347 2.96847
1.86082 0.520245 2.64928
1.93966 0.445655 3.17104
0.647926 -0.359982 2.95041
-0.361401 0.764057 1.94932
-0.0447284 0.538021 1.37143
0.108329 -1.27207 3.56479
-1.2358 0.430225 2.99415
1.54832 -2.26229 4.23193
1.57473 0.983655 2.55912
-0.257744 -0.324373 3.13582
1.36904 -1.18045 3.31411
2.63194 0.690525 2.76086
0.181215 0.353001 2.93597
1.05244 0.218245 2.86419
-1.04141 -1.38258 3.27542
-0.0149509 0.560813 1.28744
-0.377589 0.708805 2.11913
1.49394 -0.529755 2.85962
0.619653 -1.5174 3.705
-0.98786 0.153872 3.43839
0.623965 0.19037 2.86999
-0.572862 -0.536183 3.22483
-0.588185 0.654605 2.05026
1.24127 -1.47279 3.63403
2.0348 0.351013 2.65852
1.56621 -0.442371 2.74171
1.75432 -1.97295 3.4026
0.980567 0.251226 2.88275
2.22849 0.471431 2.60251
1.6224 -1.96069 3.4202
-0.250898 0.906655 2.58451
0.814834 -1.62979 3.54414
1.28258 -0.66829 2.88266
1.37745 0.741548 2.70966
0.561245 -1.45448 3.57966
1.71207 0.0889262 2.76223
-1.1771 0.737237 2.73776
1.34475 -0.644478 2.97026
-0.666929 0.79171 2.97624
2.29093 -0.150128 2.95215
1.63641 0.0360525 2.80111
0.735081 -0.634339 3.11914
0.750231 -2.14915 3.5448
1.03878 0.147616 2.80417
1.43724 -1.66761 3.62669
-0.829811 0.632459 2.08632
0.657491 0.82868 2.97017
1.33131 -0.566005 2.87835
2.38423 -0.93118 3.82299
-0.981328 -0.288833 3.13071
-0.568612 0.120019 3.04419
1.19942 -1.68899 3.82639
-0.277238 1.08585 2.45641
0.863927 -0.836224 3.21638
-1.16591 -0.0155882 3.0874
0.535613 -1.44649 3.55991
-0.0647893 -0.0563367 3.02212
1.32267 0.63209 2.71702
0.165126 -1.69102 3.58371
-0.174629 -0.791494 3.30397
1.45451 0.611146 2.73462
0.74098 -1.88569 3.97005
0.984016 -0.776786 3.22604
1.9038 0.375675 2.67774
-0.973407 0.160986 3.08982
1.59112 -1.47878 3.38759
1.60899 0.00962182 2.7487
0.0497245 0.739925 3.0731
1.6386 0.501951 2.70421
-0.248979 -1.14738 3.50673
-0.760495 0.626127 2.15697
-0.21021 -1.68183 3.60839
-1.3247 0.139514 3.08831
-0.486514 1.38187 2.96069
1.63328 -0.599711 2.83332
1.1678 -1.67707 3.52373
2.21883 0.250019 2.76597
0.217687 -1.68865 3.69467
-0.478482 0.679734 2.12436
-0.202559 -0.622 3.20179
-1.05933 0.217397 3.02874
1.1434 -1.49493 3.36526
0.921573 -0.554501 3.0013
-1.1393 0.745894 2.45969
0.853401 -1.97065 3.5514
-1.16404 -1.40434 3.32469
-0.705166 0.16643 2.97667
1.86463 0.995941 2.54951
1.08148 -0.77685 3.09376
-0.863332 -1.264 4.49538
0.89983 0.0149404 2.88411
1.46757 -0.0394198 2.78029
0.865047 1.32197 2.81042
1.24975 0.686488 2.78829
-0.589155 -0.760348 3.21479
-0.251984 1.08073 2.45388
1.77373 -0.931965 3.07968
1.12973 0.672528 2.86248
0.0183576 0.0926312 2.96476
1.55737 -1.38211 3.19939
0.79084 -0.712388 3.16179
1.08911 0.73489 2.79538
-0.472257 0.125051 3.01842
0.949305 0.049479 2.88532
-0.525982 0.78032 2.26796
0.490336 0.74606 2.92738
1.64901 -0.624194 2.80976
-0.301971 -1.34807 3.54204
1.52275 -1.45184 3.34759
-0.373687 0.579534 3.06908
1.82676 1.03905 2.55017
1.34242 -0.12473 2.68375
-0.0471997 1.07 2.40805
-0.416224 -0.929171 3.40862
1.3693 -0.891564 3.06695
1.87603 0.079411 2.72603
1.89719 0.477432 2.67689
-0.315024 0.673999 3.08352
1.65321 -2.08261 3.41239
-0.507234 -0.0950454 3.10817
1.39596 -0.830644 2.99136
-0.0571845 0.604139 3.0835
1.7372 -0.0567762 2.77601
1.20991 -1.4481 3.44192
-0.0644733 -0.862938 3.33981
1.4505 0.551333 2.67053
1.02213 -1.11026 3.29603
0.55487 0.458471 2.92595
0.492875 1.22698 2.89059
1.24168 -0.944448 3.14279
0.725346 -0.269958 3.02497
0.976842 1.10959 2.74966
-1.11744 0.26516 3.76511
1.4512 0.407178 2.7927
-1.14221 -1.03321 3.30316
0.968462 -2.43045 3.2302
-0.697877 -0.243337 3.07898
0.699575 1.11982 2.86813
0.878266 -2.54974 3.89367
-1.10546 -0.088628 3.12752
-0.58753 -1.10777 3.61083
1.29709 0.503066 2.79536
1.20985 -1.57403 3.47366
-0.763096 -0.209186 3.08858
-0.158386 1.14996 2.95625
-0.12366 -0.991976 3.36641
-0.769785 0.526621 3.04543
-1.43871 -0.171181 3.088
-0.443713 0.899866 1.87767
-0.11485 0.758514 2.99853
-0.360981 0.843172 1.92765
1.29484 -0.709709 2.95761
1.08028 0.0451054 2.79275
2.04186 -0.0356707 2.91634
-0.576376 0.757641 3.05237
-1.35773 -0.725996 3.21653
0.53033 -1.46081 3.56504
-0.036139 0.0247925 2.98044
2.10135 -0.0346403 2.92091
1.47791 -1.00888 3.10706
-1.41057 0.136623 3.05333
1.94812 0.712646 2.569
-0.718663 -0.686995 3.28325
-0.66917 0.857397 2.89341
0.58103 -1.70232 3.5788
-1.10123 0.112347 3.13147
-0.443625 -1.60905 3.56746
0.270646 -0.0857754 0.144047
0.644872 -0.636166 3.18464
1.48313 0.716729 2.63267
0.0917433 -1.58376 3.55428
1.1021 -0.837097 3.06832
-0.169514 0.64047 2.96941
1.86306 0.0998649 2.7037
0.948172 -0.0728697 2.9076
-1.28941 -0.824192 3.18784
0.767843 0.591587 2.94116
0.659223 -1.66333 3.59038
-1.47618 -1.58449 3.36436
1.45422 -0.0528759 2.82404
1.5268 0.377351 2.27681
1.79454 0.957757 2.52724
-0.861552 0.713455 2.97693
-0.939194 0.32717 3.04738
-1.00502 -0.00448218 3.07337
2.61594 -0.125581 3.1051
1.17574 -0.75804 3.05883
1.36126 1.00509 2.54019
-1.09396 -0.249879 3.14157
-0.548552 0.819918 1.88862
0.790948 -1.07131 3.33982
1.67622 0.448065 2.59266
1.59657 -0.907225 2.92861
0.672666 -2.28276 3.73276
0.96272 -0.196366 2.91688
-0.716879 0.781934 1.86342
-0.125541 0.684598 1.64051
-0.544403 -1.06297 3.43899
-0.368843 0.477377 2.99829
-0.488524 -0.995533 3.36422
0.0976736 0.577678 3.01439
-0.180055 -1.1604 3.51314
-1.46778 -0.167418 3.0931
0.831088 1.30892 2.39688
-0.17142 1.16707 2.95566
-0.983951 -0.917942 3.30818
0.504922 0.513253 2.87782
-0.642661 -0.136147 3.08286
-0.653145 0.857668 1.86069
0.525269 1.56872 2.83296
1.19535 -2.56043 3.45543
1.38256 -1.21217 3.29926
1.27962 0.865502 2.67101
0.265694 1.3941 2.73614
0.326062 -0.360694 3.08867
1.55176 -2.79577 4.16991
1.27451 0.346336 2.83041
-0.158556 -0.0673481 1.14545
-0.540035 0.74827 1.9445
0.0517374 -0.3162 3.05688
-0.315016 0.790245 1.968
0.282231 1.52508 2.78358
-0.526802 0.44153 3.04618
-0.838404 0.237493 3.21059
-1.52238 -1.14864 3.26503
0.974113 1.09535 2.83851
0.127298 -0.277257 3.04756
1.80427 0.384373 2.77477
0.543197 -1.1692 3.51933
-0.242424 -0.200034 3.10126
-0.34913 -1.0865 3.49023
-0.262611 0.869326 1.95665
2.29901 0.0796263 3.07129
0.451043 -1.05136 3.4292
0.368706 1.31346 2.91483
-0.858306 0.594701 3.16789
-0.283234 0.921988 1.9355
1.755 0.725498 2.58713
-0.410813 -0.171815 3.10404
0.271643 0.496026 2.9331
1.63461 0.643097 2.57134
0.206334 -1.03345 3.54044
0.966769 -1.49907 3.54399
-0.192906 0.640207 3.09563
-0.529384 -0.141413 3.10907
-0.0768422 0.635233 3.02786
1.06711 1.1224 2.56361
-1.3227 -0.922027 3.26124
1.70052 -0.957085 3.06932
-0.464409 -0.972081 3.51554
-0.0615829 -0.0872698 3.01199
-0.11378 0.581695 3.01705
1.00074 1.21154 2.44279
0.720293 -1.21421 3.46731
1.73151 0.420771 2.696
0.947924 -0.309838 2.89506
1.48352 1.02877 2.52998
0.734015 -2.20873 3.77189
0.473166 0.38956 2.88846
1.36754 -1.1329 3.31762
-0.155639 1.16842 2.95047
1.11349 -0.273442 2.82543
0.0948075 1.09256 2.90789
1.1848 1.11599 2.6909
2.48459 0.371275 2.60301
1.52441 0.417178 2.71777
2.43409 -1.71576 4.43383
0.972313 -0.239692 2.92297
-0.133762 -0.107644 1.03978
0.220384 -1.10065 3.4531
0.293181 -1.87983 3.65448
0.877111 -0.476569 3.04295
-0.0515912 1.03345 2.98624
1.52828 0.267458 2.7028
-1.07499 -1.30943 3.3488
2.50959 0.0302607 2.93438
0.246624 1.52808 2.72692
-0.932948 -0.467825 3.27459
-0.0492195 0.994338 2.95421
-1.08773 0.135868 3.3726
2.56277 -0.312162 3.66566
-1.44797 -1.19888 3.08482
1.72103 0.252223 2.6809
-1.12941 -0.421153 3.25361
0.0763523 0.34989 2.9154
-1.17331 -0.151743 3.67709
1.51805 -1.30553 3.40477
0.272105 1.09557 2.99552
-0.00549808 0.530909 1.21694
1.62232 -1.17367 3.18515
-1.48035 -0.385226 3.21888
-0.758138 0.70642 1.89606
0.0289735 0.582558 1.46442
0.178837 0.327214 2.92278
0.579359 -1.55486 3.59238
-1.2695 0.222942 3.02592
2.59143 -0.710038 3.72515
-1.4303 -0.605547 3.1667
1.56948 0.811522 2.58887
2.67505 -0.622567 2.93085
0.506051 -1.57745 3.75221
-1.1059 0.171329 2.92567
2.43949 0.653367 2.78886
1.49354 -0.555312 3.04226
1.39512 0.802719 2.69712
-0.49019 1.44518 2.95956
0.963436 0.910653 2.85285
1.79088 -1.27054 3.29566
0.583152 0.220352 2.88471
0.0620052 -0.516739 3.1702
2.14049 -0.714062 3.21056
-1.35806 -1.32646 3.25689
1.6171 -2.12601 3.42337
0.613241 0.221824 2.89533
-1.18207 -1.36405 3.22739
0.188904 0.929728 3.01095
0.669042 -0.569258 3.107
-0.413194 -1.46965 3.59166
-0.802305 0.200985 2.99926
-1.16316 -0.373518 3.85943
-1.27442 -0.541749 3.25634
-0.259221 0.921329 3.05287
0.022995 0.710353 1.80127
0.114909 0.966762 2.97151
2.49773 0.818581 2.88013
-1.03163 -1.62978 3.45937
1.69347 -1.09734 3.22005
0.427897 0.252025 2.85281
-1.06118 -0.485758 3.09076
2.26514 0.0285458 2.97285
0.330811 -1.45785 3.64113
-1.12888 0.77059 2.76615
1.56923 -1.87431 3.43145
-1.08073 -0.765955 3.33729
-0.221647 0.0881753 3.04307
0.056574 1.31679 2.88024
0.545878 -1.85393 3.57693
-0.0279488 -0.686098 3.2532
-0.412033 1.31602 2.95314
-0.0278509 0.743004 3.00495
1.32823 -2.01078 3.49561
-0.708681 0.0608659 3.06551
0.37978 -0.635512 3.15515
0.801285 -1.46604 3.55287
-0.103029 0.1669 3.01147
-0.33942 -1.59384 3.52051
-0.177264 0.860856 3.04351
0.0978448 0.707702 3.35346
-0.743605 0.861899 2.93904
0.913431 -1.538 3.55206
-1.03317 -1.46144 3.30643
1.389 0.0963353 2.85073
1.42845 -0.563804 2.92964
-0.298409 0.858929 1.9311
-0.838886 -0.995208 3.80012
-0.958014 0.699852 2.944
-0.135912 -0.0550234 3.03415
1.51094 -0.681115 2.66972
0.395934 -1.95262 3.59141
-0.97405 0.728643 3.25019
0.304269 -0.0173341 2.96902
-0.212204 1.01318 2.76517
1.78714 0.352828 2.67877
0.688144 0.716079 2.95962
-0.761998 0.335452 3.01901
-1.20406 0.0249272 3.09143
1.51559 0.406715 2.27159
-0.205525 -1.30108 3.54156
1.44192 -0.707068 2.92221
0.423845 -0.197942 2.99053
-0.129502 0.942663 2.14989
0.331451 1.2451 2.927
2.04897 0.388267 2.82902
-0.432644 -1.09129 3.50256
-0.987684 0.55402 2.96334
-0.0727576 0.630882 3.03567
1.31301 -0.163314 2.78794
-0.633037 0.807645 1.86557
1.69799 1.11181 2.56109
-1.01088 0.130143 3.75577
-1.10889 -0.967978 3.26557
-0.337812 0.49293 3.01839
-0.592558 -0.983396 3.43431
-1.12846 0.606026 2.8669
-1.0236 -0.126689 3.11407
-1.03302 -0.135698 3.17603
1.07187 -2.56531 3.43725
1.30822 -2.17774 3.54937
1.7134 -0.794403 2.8063
1.5454 0.506774 2.69046
-0.509338 -0.807183 3.32356
-0.716923 -0.0908481 3.06706
0.85923 -2.23493 3.32703
0.677656 -0.789492 3.17302
1.03358 0.0124685 2.86466
2.51656 0.0317167 3.78743
0.917025 -0.021556 2.87328
-0.304889 0.761057 3.09926
1.92166 -0.878232 3.11722
0.228229 -0.768309 3.28068
1.01571 0.676073 2.90181
1.85746 -1.40646 3.26873
-1.38592 -0.723442 3.14278
-0.569194 0.609417 3.05319
-0.869566 0.766737 2.65009
-0.332097 0.0389554 2.98535
1.31959 0.679493 2.71751
-0.140019 -1.59595 3.56206
-1.38726 -0.173111 3.08305
1.24344 -1.58095 3.56462
1.36009 -0.929327 3.04313
-0.364932 0.567876 3.02487
1.8881 0.587286 2.61874
1.53285 -0.136836 2.73731
-0.547124 0.855084 1.88399
1.8703 0.359624 2.64418
-1.43748 -0.910697 3.17817
0.59282 0.525952 2.92186
-0.87865 0.145309 3.08134
2.1908 0.176429 2.87331
0.855725 -0.0944135 2.93902
1.37776 -1.63847 3.48969
-0.869962 0.402498 3.52596
1.37328 0.584436 2.71125
-0.0955946 -0.911797 3.33707
-0.887803 -0.387682 3.15241
0.758207 1.23804 2.83888
0.632189 -0.0624636 2.91653
-1.40452 -0.824811 3.13209
1.725 0.564921 2.71431
1.21148 -2.51032 3.31575
1.15802 -1.14705 3.36409
1.65072 -0.0396713 2.78155
1.74932 0.449847 2.74466
0.0814593 -0.285289 3.05101
0.934426 -1.58721 3.49304
-0.451032 0.775919 1.86275
-0.689619 0.453051 3.09526
0.115673 -1.14136 3.54669
0.000273956 0.844452 2.09144
0.465641 -0.253767 2.97586
0.617778 -1.59742 3.57264
1.88389 -2.32097 3.82294
1.58407 -0.987325 3.11539
0.322235 -1.61595 3.75466
1.65397 -0.203953 2.71536
0.604127 0.490739 2.91896
-0.469521 -1.03282 3.44182
-0.691954 0.71162 1.91368
1.3229 -0.406915 2.74479
0.941358 0.983377 2.79073
0.942312 -1.95538 3.86769
1.29048 -1.34958 3.42202
1.3861 0.30663 2.78707
-0.0477358 0.943565 2.15424
-0.242179 -0.408826 3.1751
0.511688 0.995452 2.92245
-0.246052 -0.223231 1.32496
0.341146 -1.29957 3.47729
0.24721 0.288958 2.91016
-1.14178 0.110745 3.65529
1.53223 0.3575 2.63939
2.48916 -0.666167 3.61898
1.25879 -0.359384 2.85556
0.701952 -1.26792 3.48777
1.16794 1.04391 2.72093
-0.0243912 0.504992 1.3187
-0.613632 -1.19125 3.45441
1.80304 -0.337566 2.8067
1.33809 1.0087 2.6743
2.26994 0.30012 2.51302
1.20951 0.346395 2.84642
2.2526 0.1025 3.5335
0.783185 -0.885425 3.20337
1.46172 0.145696 2.81615
1.54268 -0.098575 2.83429
1.93199 0.000323432 2.73698
-0.549198 -1.13783 3.49331
0.0973952 0.650096 3.12961
1.03394 -1.75566 3.67616
1.23517 -0.0704127 2.76702
1.65201 1.14291 2.56437
0.363848 0.691753 3.03301
-0.443776 -0.870884 3.36705
0.610172 -1.47874 3.57779
-0.641807 0.231862 3.09301
0.772353 -0.0295419 2.89564
-1.2318 0.657128 2.88305
0.240273 -0.817571 3.306
1.20945 1.13677 2.60596
1.30273 0.485872 2.85207
1.22992 -0.237376 2.77246
-0.262005 0.878341 1.97248
-1.22837 -1.05677 3.3061
-1.27342 -1.01478 3.30419
-0.383125 0.779096 2.02934
0.81166 1.13203 2.80487
1.59235 -1.87972 3.42131
1.5284 -0.210398 2.86511
-0.587933 -0.60679 3.29145
-0.43721 0.483394 3.01931
0.897359 -2.41727 3.59852
-0.646774 -1.02339 3.41148
0.989006 -2.23898 3.62518
-0.898634 0.596521 2.99914
0.06765 -0.159716 3.02276
1.73446 -2.24716 3.32942
0.270249 0.527462 2.93972
0.33367 -1.79503 3.58016
-0.265895 -0.948332 3.36142
-0.607955 0.872411 1.88271
-1.11333 0.0727901 3.68859
0.502161 -0.131664 2.93296
0.875739 1.03017 2.78607
-0.0694609 0.637562 3.02894
-0.62603 0.362989 3.03761
-0.0742107 1.11425 2.8009
-1.00594 -0.371999 3.14344
2.05395 -2.28778 4.74179
-1.15787 -1.21301 3.34447
-0.965067 0.0902719 3.08787
1.59362 -0.303751 2.82857
-0.474812 0.756778 1.87749
1.13099 -1.19832 3.40777
0.585536 0.425241 2.91677
-0.76635 0.7273 1.85147
-0.47798 -0.293791 3.11919
1.29128 -2.96741 4.3819
0.791033 0.392532 2.92139
1.00482 -1.18032 3.49353
-0.887458 0.161725 3.05646
1.45586 -0.471161 2.79872
-0.0470314 0.623768 1.34467
-0.568113 0.271725 3.00968
-0.443523 -1.43816 3.52562
1.05882 0.923057 2.76667
2.19556 -1.25508 3.84039
1.35071 0.878429 2.69711
0.946336 -1.52107 3.76616
-0.305684 0.236311 3.02182
-0.0315225 0.573543 1.30044
-1.17367 0.106318 3.75746
1.24162 -0.466168 2.93124
-1.41191 -1.22748 3.1667
-1.09426 0.348625 2.94983
1.60147 -2.11151 3.41855
0.401404 -0.435506 3.08821
-0.695664 0.720306 1.93799
2.2905 0.0382116 2.96609
-0.173589 -1.32678 3.58473
0.983934 0.272095 2.90942
-0.00829934 0.543384 1.289
1.04196 -0.386679 2.90876
-1.19694 -0.316167 3.8827
0.178872 0.99622 2.92821
0.745221 -1.15439 3.2651
1.51098 -2.17657 4.56357
0.972388 0.431657 2.88901
-0.895096 0.181569 3.05485
0.035339 -0.329365 3.07679
0.331546 -1.86145 3.72816
-0.511095 0.405898 3.01954
0.381806 -1.1794 3.5301
0.323376 1.53414 2.81703
0.992884 1.05591 2.77689
-0.994195 -0.292343 3.13421
0.207159 1.18511 2.89995
-0.067436 -0.139358 0.845426
-0.842414 0.499781 3.0222
1.18364 0.972267 2.5951
-1.3126 -0.258394 3.14438
1.55116 1.02826 2.54164
-0.956675 -1.02368 3.1619
2.59366 0.936353 2.86923
-0.224685 -0.481416 3.20011
1.34358 0.944466 2.68907
0.584712 0.283733 2.88273
-0.869439 -1.40572 3.53442
-1.20144 -0.0801229 3.69438
-1.30651 -0.452151 3.15984
-0.0404019 1.00821 2.282
1.46774 0.878399 2.57004
0.408426 -1.362 3.53967
0.854967 0.251104 2.85781
2.45114 0.107344 3.52692
1.66086 0.33156 2.66856
2.21372 -0.354005 3.26607
0.893314 -1.31247 3.4708
-0.185149 0.790448 2.06965
-0.0174167 0.533292 1.24476
0.238907 -0.39269 3.0913
-1.07447 0.352164 3.02482
1.25856 -1.22436 3.33318
1.61599 -1.77821 4.37917
1.09543 0.980569 2.74977
1.58156 -0.351812 2.81914
0.651741 -0.456962 0.857854
1.45775 -1.86549 3.45243
-0.967213 -1.48667 3.41114
-1.33858 -0.644854 3.37301
2.25598 0.219235 2.75805
0.390466 0.158462 2.9118
1.94351 -1.40562 3.29665
-0.395345 0.893965 3.02512
-0.478522 -1.60469 3.41447
2.2468 0.509373 2.64531
-0.50522 1.40404 2.96384
-1.44955 -0.579636 3.18469
-0.852529 0.668017 2.01882
0.834154 -1.50918 3.55072
-0.827997 0.235476 2.99207
1.30124 -1.93153 3.49074
-1.00049 -0.544175 3.21812
1.66574 0.805869 2.55097
0.809057 -1.55045 3.77074
1.21767 0.175191 2.79387
-0.0307877 0.0416344 2.95584
-0.229832 1.06848 2.45275
0.974848 0.745022 2.90049
1.66726 -0.707006 2.84926
0.770542 -1.92512 3.56417
0.976526 -0.72389 3.141
0.0325399 0.727663 3.06285
2.00484 1.07237 2.6972
0.671638 0.0105076 2.90116
0.709111 -1.76776 3.56675
0.748471 0.111448 2.8483
0.412469 -1.79669 3.58992
-0.298996 0.874403 3.02937
1.82284 0.715667 2.57448
0.871372 -0.670204 3.12037
0.608082 -1.7764 3.9082
0.270098 0.0827061 2.95738
1.04734 -0.628898 3.06112
2.46385 0.0178567 3.76136
0.755783 0.785975 2.92924
0.702248 -0.723683 3.15986
1.16443 0.725616 2.7646
-0.879815 -0.380228 3.12756
-0.053072 1.09447 2.90532
1.05748 0.0736143 2.78262
0.561598 -1.45619 3.57342
1.36609 0.664005 2.67087
1.46978 -0.625682 2.84592
-0.272864 -1.08564 3.43337
1.12095 0.0251961 2.83745
1.28276 -2.35773 3.46882
-0.590899 0.627264 3.06154
-0.607975 -1.57219 3.46118
-0.658681 0.14908 3.00849
2.06529 1.16269 2.80725
-1.37156 -0.647619 3.16487
-0.103536 0.889051 3.11281
2.05346 -0.734469 3.05728
-0.244065 0.111357 3.00815
-0.678103 -1.54497 3.51879
2.11356 1.06307 2.76681
0.243651 -0.623931 3.21082
1.63188 0.741733 2.61461
1.11521 -0.800584 3.0579
0.0991847 0.576003 2.9977
0.777393 -0.0683109 2.88396
0.577244 -1.78183 3.71953
-0.717608 -0.575227 3.23729
-0.257703 0.679178 3.18086
1.91314 0.641975 2.61488
-1.4296 -0.0233483 3.08517
-0.904012 -1.61898 3.41758
0.109286 0.718596 3.05723
1.91833 -0.164655 2.72025
0.80544 -0.795181 3.175
2.14442 0.0894871 3.02728
1.23523 0.00882166 2.75724
0.336413 0.691427 3.03946
-0.384769 -0.782069 3.32232
-0.283048 0.568323 3.05914
1.26 0.507013 2.83299
0.177686 -0.228403 3.00604
-0.278069 0.909576 1.96615
0.0614477 -1.05 3.39592
-0.874187 -0.253023 3.10299
-0.621361 -1.01015 3.40918
-0.447503 0.756806 2.22485
-0.684305 0.801805 1.86578
-0.999586 0.0939876 3.71904
0.287172 0.784462 3.05085
0.986106 -0.169855 2.92504
0.819148 0.489631 2.97858
-0.548847 -0.956776 3.32685
-1.05036 0.89946 4.69424
1.03488 0.584515 2.90705
-0.376371 -0.140315 3.10832
1.53618 -2.48907 3.49215
0.438771 0.545228 2.91443
1.21677 -0.878666 3.14181
0.648214 1.22335 2.84614
0.578772 -1.8031 4.42913
-0.409337 -0.929578 3.39625
0.401803 -0.0962761 2.95333
-1.02841 -1.2102 3.50716
1.21968 -1.59678 3.48557
-0.593566 -0.942542 3.42529
1.3363 -1.82621 3.24454
-0.361839 -0.345464 3.1417
-1.31516 0.420547 2.95399
-0.393525 0.7593 1.94391
1.64738 -0.287565 2.61302
0.289217 1.45553 2.81713
0.0589575 -0.222159 0.902777
1.15434 1.11464 2.70729
0.295247 -1.19485 3.53343
0.35244 0.448113 2.88272
1.1237 -0.25579 2.80904
0.385567 1.11835 2.88344
1.81261 -1.95947 4.49757
-0.569951 0.439315 3.00169
0.453021 -1.14838 3.51439
1.24857 -0.169722 2.77081
-0.422397 0.723903 1.96896
0.290565 1.28981 2.91909
-0.934778 -0.983624 3.37952
-0.682545 -0.302803 3.11821
1.10691 0.547715 2.85591
-0.685026 0.856499 1.8654
2.60371 -0.0391897 2.99658
-0.77781 -0.150614 3.11754
-0.522277 0.540775 3.09756
1.83187 0.658213 2.59839
-0.751386 -0.957721 3.36782
-1.3205 0.0223714 3.10077
-0.545391 -0.103088 3.12015
2.16809 0.0473493 2.93262
0.615811 -2.30614 3.62833
-0.866891 -0.904667 3.30068
-0.1179 0.694551 3.12167
-0.189581 -0.892219 3.40524
1.75905 -1.96996 3.41985
0.632225 -2.35301 3.59119
-0.315523 -0.0530155 3.06185
1.37 0.548571 2.7608
-1.42953 -1.08678 3.20487
0.0439879 0.469981 3.00842
0.809113 -0.30182 2.97672
0.609074 1.17596 2.89688
1.11278 -2.25416 3.80444
1.40259 0.399342 2.77611
-0.395839 -1.18639 3.69163
0.589018 -1.56132 3.6079
-0.325186 -0.26054 3.12215
1.42155 1.05539 2.63417
-0.369231 0.850351 2.41277
1.82809 -2.47686 3.83342
-0.189559 1.17203 2.95582
0.0973478 0.491995 2.97203
1.10275 -1.89977 4.00057
1.2772 -0.206249 2.80411
0.0989269 1.34049 2.84566
0.693034 -1.08756 3.39382
-0.906564 -0.462125 3.20296
0.101796 1.18688 2.15406
0.798902 1.01242 2.84795
0.203627 -1.40949 3.63202
-1.045 0.259909 3.57782
1.64191 0.285797 2.73809
-0.293869 -0.411002 3.189
-0.251903 -0.0312492 1.42534
1.1039 0.964554 2.78811
0.699905 -1.3518 3.6065
0.897205 0.283652 2.84756
1.67447 0.444636 2.60492
1.50459 0.355565 2.69881
1.68606 -2.5499 4.01221
1.64647 -1.2006 3.2019
1.53187 0.987237 2.52426
0.0625903 0.539621 1.29819
1.21392 -0.371 2.91657
0.0113405 0.352561 2.95599
1.67248 -1.10337 3.06596
2.37892 -0.721564 3.54036
-0.808091 0.706946 1.87053
-0.694647 -0.358666 3.13475
2.47637 0.933195 2.90135
-0.730823 -1.47699 3.49445
1.4739 -1.82138 3.45821
1.08168 -0.53414 2.90742
2.08543 0.524066 2.60089
-1.36514 -1.29866 3.10457
-0.254849 0.178746 2.98838
1.16901 -2.38228 3.78693
1.63557 -0.498406 2.82217
-0.659709 0.644836 2.08339
0.12673 0.596058 1.33913
2.01322 0.45637 2.62512
0.731076 0.948058 2.89388
0.250468 0.263364 2.92931
1.26446 -2.21715 3.47106
-0.0221158 -0.498119 3.18641
0.948971 0.913001 2.87205
-0.585545 -1.395 3.49305
1.50162 0.192848 2.7092
1.10913 -1.09596 3.34801
-0.477189 0.511774 3.05453
-1.08167 0.219594 3.82136
-0.0696618 -0.245377 3.08806
-0.317597 0.863958 1.94197
-0.507583 -0.999195 3.41907
1.17504 0.442638 2.83329
-0.738012 -1.06217 3.45737
0.897724 1.29325 2.44345
-1.13586 -0.220573 3.16095
1.55199 1.03375 2.47217
1.69969 -1.74607 3.36958
0.272627 1.44877 2.81991
-1.51935 -0.956563 3.17289
1.63885 0.54422 2.77531
0.585812 -1.68217 4.1569
1.2458 1.16457 2.69695
-0.229941 -0.171305 3.08999
0.77705 1.17732 2.81993
-1.02954 0.159627 3.52623
-1.12992 -0.915115 3.20844
-0.0206888 0.53758 3.03635
0.308373 -0.136529 2.95943
-0.515678 0.853849 1.88441
0.857516 1.04377 2.8325
2.60254 -0.611788 3.76325
-1.101 0.378381 2.99407
-0.159617 -0.0848432 1.11407
1.15041 0.9665 2.71629
-0.459769 -0.373412 3.11111
1.55064 0.65541 2.73202
0.959934 0.320746 2.90088
-0.0600989 1.23059 2.84696
0.0838309 -1.30808 3.62454
1.84717 -0.713424 3.11014
-1.13705 -0.361335 3.26694
1.54825 1.00426 2.49317
2.64484 0.925798 2.85866
-1.25913 -1.15913 3.33459
0.734635 0.443444 2.90473
0.85691 1.165 2.47211
0.245324 1.10242 2.97394
0.441801 -0.281049 3.00096
0.1423 1.26 2.3709
1.30684 0.379786 2.79547
-0.605225 -1.17757 3.50872
-1.21071 -1.32634 3.24308
1.53109 0.238857 2.59003
0.525778 -0.304431 0.580315
1.29713 0.9275 2.74236
1.28937 -0.501408 2.90025
0.943154 -1.91158 4.21868
-0.67524 -1.39184 3.51354
-0.599425 0.218104 2.96333
0.983485 -0.481029 3.00064
-0.46678 0.687049 2.08122
1.86076 -1.87778 3.61824
0.722247 -1.38305 3.54224
1.48242 -1.98552 3.44583
0.689922 -0.446353 3.08476
-0.0180501 -1.32651 3.5623
0.766426 -1.81142 3.81853
1.48717 0.273504 2.76007
0.0409081 0.59611 1.30592
-0.186689 -0.40545 3.144
-0.0792255 -0.286421 2.91858
-0.545804 0.699421 2.00116
-1.46123 -0.69239 3.19233
-0.641878 0.852603 2.98504
1.31094 -1.99134 3.49509
-0.501492 1.35557 2.96346
-0.119343 0.130829 3.0037
0.068649 0.798238 3.04513
-0.702648 -0.683263 3.39668
2.27624 0.6755 2.76214
1.0827 -1.77801 3.54431
-0.993491 0.10572 3.22786
0.0806102 -1.58342 3.48001
0.73828 -0.604997 3.10075
0.18663 0.903135 3.04284
0.796288 1.31886 2.8261
0.635602 -1.65807 3.72866
1.52028 0.182379 2.80381
-0.178626 1.11824 2.87394
-0.715142 -0.573082 3.19741
1.58478 0.761733 2.57965
0.630062 -1.9066 3.56929
-1.34595 -1.40376 3.32542
-1.03971 0.167355 3.00203
0.741388 -1.64207 3.62007
0.992828 -0.459674 2.93209
-0.0294643 0.588081 1.53196
1.0559 0.281034 2.8821
-0.69272 0.706165 1.97822
1.06797 -1.36208 3.33641
-0.688551 -0.666994 3.65717
-1.08548 -1.27427 3.3397
1.22498 0.242288 2.81287
1.51342 0.876826 2.60022
0.0306028 0.847401 1.81288
0.0831657 -0.435715 3.1215
1.75343 -2.48951 4.30618
-1.48341 -1.23678 3.29133
1.05996 0.343855 2.86588
1.16028 -1.96961 3.40239
-1.3311 -0.431946 3.24046
-0.231642 0.776785 2.03586
0.0279747 0.550356 1.32358
-0.918322 -1.23047 3.44299
-1.36019 0.343717 2.99125
-0.0225437 0.5224 1.45055
-0.532839 -1.49183 4.7958
1.47264 -0.356367 2.81449
-0.42152 0.736629 1.99578
1.10205 -1.86255 3.54759
1.20373 0.808816 2.75976
2.26959 0.733599 2.841
-0.392035 0.150185 3.01093
-0.741146 -0.626922 3.27889
2.37805 -1.05313 3.21631
0.117156 -1.63903 3.68956
2.22414 0.52121 2.64665
-0.709643 0.662478 2.00633
1.45198 -0.550227 3.00333
-0.34047 0.233844 3.07569
-0.182243 -1.53107 3.61491
2.34786 -0.972378 3.19842
-0.411927 -0.532807 3.25144
1.34124 0.83503 2.71153
0.244062 -1.45009 3.54121
-0.878253 0.198794 2.98819
-0.215433 1.34467 2.92538
-0.247113 1.01584 2.23591
0.485252 0.0389376 2.89862
1.76176 -0.722176 2.9152
-1.08595 -0.788754 3.40039
-0.611246 0.760512 2.95351
-0.550901 -1.03693 3.58377
-1.07296 0.748982 2.97518
2.02161 -0.118579 2.91266
-1.41462 0.0209041 3.16808
1.38356 -0.691114 2.98037
0.383869 0.114577 2.92482
1.4676 0.330083 2.1891
0.555261 0.803361 2.94747
-0.86417 -0.699766 3.23477
0.135154 -1.57767 3.47372
-0.802697 0.0795266 3.08185
1.90617 1.12678 2.94506
-0.230479 -1.49358 3.54321
-1.06975 0.787777 2.8377
0.186533 -0.647976 3.20206
0.785163 -1.99668 3.55835
0.255807 -0.262323 3.06133
1.26119 0.561241 2.78986
1.84249 0.320645 2.68443
-0.341693 -0.0941702 3.08821
-1.00778 0.200747 3.05301
0.0146493 -1.7142 3.68333
-0.979695 -0.898246 3.35091
1.67293 -1.06705 2.94595
-0.625693 -0.0744588 3.09268
1.748 0.659895 2.80701
1.46937 -0.797343 2.93541
-0.673797 0.228317 3.09605
-0.750123 -0.318159 3.11601
-0.654897 -0.0312717 3.10886
-1.05359 0.661263 2.97496
-1.20345 0.238155 3.00156
-1.18662 -0.794738 3.20053
0.0177677 0.716998 3.24393
-0.934031 -0.302944 3.12308
0.0351453 1.26545 2.85567
-0.445447 -0.0652642 3.09491
0.230434 -1.80808 3.5955
-0.386022 0.866366 2.36069
0.126399 -0.864805 3.33284
-1.45425 -0.0286193 3.08773
-1.2 0.729524 2.91628
-1.23605 -0.789088 3.15122
1.4155 0.000604675 2.78041
-1.13547 -0.268028 3.13892
-0.692451 0.698128 3.02572
1.76118 0.93223 2.53133
-0.0874714 -0.778772 3.32156
1.71159 0.48358 2.64246
1.16072 1.10843 2.44771
0.337941 -0.221308 3.03641
-0.377161 0.846988 1.91256
1.6998 -1.10279 3.23517
-0.964632 -1.05092 3.41319
1.29952 -0.939655 3.08541
0.448048 0.473409 2.87797
-0.135685 0.992415 2.64358
-0.759886 0.321403 3.27503
1.13387 -0.169191 2.76164
-0.354958 0.869008 2.45738
-0.161819 -1.15133 3.47799
-0.13111 -0.198728 3.07479
1.84576 -0.861109 2.91416
-1.02252 0.611674 2.97352
-0.533076 0.784365 3.72659
0.975333 -0.144601 2.89563
-0.758999 -1.0156 3.6301
0.367682 0.537034 2.93845
0.72245 -2.32149 3.68867
0.46249 -0.112105 2.92581
0.914308 1.23657 2.76603
-0.553087 0.745637 1.90837
1.68817 0.371559 2.71909
0.653617 -1.51866 3.80213
0.90048 0.379776 2.9216
-1.15976 -0.223313 3.13143
0.467402 -0.327964 3.04943
1.06794 -2.27642 3.66726
-0.6712 -0.0937124 2.15304
1.22114 -1.16206 3.2788
1.56484 -0.292838 2.95035
1.65141 1.04779 2.53525
1.11151 -1.18294 3.45594
1.09258 0.453317 2.8634
1.31879 1.05092 2.63333
-1.39189 0.095704 3.9057
-1.42535 -0.270369 3.11291
-0.244152 0.437165 3.00587
0.604689 -1.09594 3.36139
-0.250982 -0.0318208 1.42345
0.407933 -1.41261 3.53183
1.15895 0.258462 2.80156
0.0668075 1.01228 1.96242
-0.799785 0.692975 1.96871
1.17836 -0.459355 2.86312
2.41568 -0.628997 3.60816
-0.19994 -1.38213 3.58117
-0.657431 0.248573 3.03512
-0.366517 0.720926 2.09565
0.0996569 1.1924 2.25617
0.732362 -0.444108 3.00917
1.79348 -2.2402 3.90289
-0.0124228 1.35421 2.88957
0.0771868 -1.33983 3.5613
0.440371 0.332947 2.88234
-0.705504 -0.968929 4.0671
0.694669 -0.403564 3.03904
-0.4521 0.741319 1.95256
-0.0671313 -1.25117 3.4773
0.0935625 0.567184 1.35337
-0.969687 0.328258 2.96013
-0.217725 -0.379903 3.15445
1.64303 -0.0265511 2.99269
1.49904 0.932207 2.57428
-0.896746 0.0195073 3.46866
0.868532 -1.16191 3.36812
-0.861337 0.232314 3.0317
-1.50975 -0.321261 3.22292
-0.759921 0.0734099 3.30765
0.440583 0.415853 2.88721
0.598613 -1.48155 3.61541
-0.294192 0.781421 1.96586
1.0709 -0.25138 2.82531
-0.696444 0.684897 1.9361
-0.140752 1.18311 2.83379
-1.35136 -1.06488 3.2319
-0.414746 0.514723 3.01093
2.64283 -0.0829588 3.43157
-0.723065 -0.222349 3.10171
1.08171 1.09252 2.69299
0.899884 0.444711 2.9356
0.423973 -1.05751 3.39661
1.49626 -0.422257 2.80808
1.14162 0.285968 2.81057
-0.939593 0.0805527 3.07589
-0.599709 0.697547 1.94523
-0.432809 -1.35123 3.50055
0.988769 1.08929 2.54962
-0.883432 -1.27527 3.42718
-0.033104 0.285037 2.91871
-0.660605 0.693995 1.95878
0.197332 1.37468 2.73201
-0.567082 -0.427786 3.25825
1.20878 -2.17234 3.78618
-0.73031 -1.25291 3.47492
-0.92874 0.407329 2.95729
2.29355 -1.17392 3.79975
-1.09574 -0.37046 3.02538
0.384054 1.07517 2.88749
0.0779516 0.555337 1.35788
-1.06255 -1.18445 3.34904
1.66311 0.313711 2.70282
0.0529072 0.702491 1.39889
-0.610361 0.723529 1.91001
-0.75167 -0.368354 3.18865
2.16626 -0.296902 3.18377
0.881842 -1.50675 3.46435
2.25426 -1.17306 3.28303
0.873852 -0.561375 3.04442
2.45898 0.73057 2.85844
0.287162 0.177115 2.92694
1.03122 -2.18488 4.03614
0.280411 0.902991 3.04775
1.87877 -0.210384 2.78418
0.804271 0.949534 2.88849
1.01663 -0.513115 2.98459
0.199122 -1.69552 3.59895
-1.53939 -1.38462 3.31474
1.12136 0.237685 2.81019
1.14898 -1.78713 3.52884
-0.163374 -0.491641 3.19141
1.08051 0.86271 2.76459
0.0502593 -1.44017 3.5499
0.344389 0.196951 2.87936
0.926754 -0.714441 3.10927
1.52343 0.0726061 2.95899
-0.458653 1.05522 2.85706
2.02909 0.52006 2.61187
-0.520589 0.801678 3.00664
1.51319 -1.4445 3.32886
1.3427 0.668204 2.68413
-0.141342 1.38762 2.9068
0.273685 0.0368135 2.94904
1.09046 -0.660137 3.01435
2.013 -1.00504 3.2427
0.192733 0.140856 2.96376
0.951001 1.22016 2.77755
-0.566744 -1.56219 3.4349
1.39027 -1.35527 3.24319
0.954903 0.824764 2.89454
-1.35197 -0.665363 3.21196
-0.213605 -1.58514 3.58894
0.233693 0.114734 2.96214
-1.23651 -0.650299 3.34766
2.26224 1.06865 3.01923
-0.387695 0.846337 3.0811
0.932216 -1.52747 3.53577
0.458919 1.03928 2.88038
-1.24393 -0.418707 3.1647
1.17958 1.01382 2.59512
1.46357 0.331251 2.86278
0.957995 -1.50298 3.92714
-0.160615 -0.0882845 1.12193
-0.225691 0.764304 2.06991
0.176844 -0.371232 3.06719
0.378821 1.49373 2.73916
0.86401 0.310052 2.88525
2.06528 -2.00819 4.44117
0.911229 -1.32021 3.55663
-0.00971937 0.433479 2.96754
2.13376 -0.430812 3.18186
1.33471 -0.322501 2.76308
-0.391026 -1.24022 3.54525
0.456614 1.10305 2.87717
0.135163 1.38305 2.82756
-0.384803 -1.1833 3.52962
1.09666 1.02448 2.68374
-1.12973 -0.303664 3.18932
2.30843 -1.41343 4.08541
0.739254 0.390833 2.91957
0.198381 1.43777 2.58273
-0.0770355 0.256315 2.94597
0.878252 -1.48574 3.57819
-1.16299 -0.562089 3.34225
0.434699 0.96638 2.95308
-0.805568 -1.39003 3.47951
1.88245 -2.30386 4.47318
0.222697 0.221073 2.92418
0.0338585 0.522646 1.31094
-1.16686 -0.513 3.24705
0.37359 0.924444 2.969
-0.401082 -1.36658 3.55193
2.30768 0.46142 2.60452
0.653735 -0.450993 3.06392
1.63917 -2.08348 3.41179
-1.35385 0.304563 2.95481
0.0336594 0.557763 1.23163
1.46688 0.904268 2.57657
1.21668 -2.00072 3.4294
0.386278 0.805774 2.99282
0.136702 -0.693485 3.22971
0.975867 0.0968921 2.84003
-0.00360776 1.36779 2.88465
1.91995 -1.19466 3.20061
0.552499 -0.651062 3.21268
0.433508 0.784214 2.96061
1.14359 -1.74128 3.76313
1.86463 -0.661548 2.99743
2.17808 -0.762018 3.1215
-0.456895 0.075591 2.99321
-0.438701 -0.631996 3.31579
-0.254264 -0.769944 3.29349
1.13609 0.170685 2.77525
-1.21103 -1.42293 3.22923
1.73851 0.078729 3.3052
0.869204 0.881933 2.92485
1.68857 0.779969 2.63119
-0.79775 0.198159 3.00348
-1.11351 -1.41868 3.32504
-0.250237 0.149302 2.96989
-0.666724 0.790878 2.97337
-0.463833 -0.588843 3.31821
-1.24765 0.0180588 3.12593
-0.327272 -0.834051 3.39124
0.886848 0.690796 2.91024
1.70021 -0.0423154 2.71746
-1.41879 -0.77238 3.19803
1.80108 -0.243583 2.81023
-0.53636 0.709533 3.07461
-0.785016 -1.26193 4.36702
1.54789 0.0507781 2.37198
0.59072 0.756718 3.01178
-0.798766 0.290563 3.01793
-0.589432 0.0484223 3.06501
1.09135 -1.6713 3.51218
0.0442899 1.20452 2.85895
-0.0806401 -0.738361 3.25561
-0.358161 -1.31716 3.53057
-0.574065 0.823939 2.73082
2.16337 -1.18377 3.30102
2.09255 0.264007 2.64979
1.11132 0.126459 2.79644
-0.498194 -0.622042 3.2982
0.252023 0.835049 3.07597
2.36925 -1.08785 3.2356
-0.804274 -1.55566 3.52023
-0.940098 -1.62989 3.44006
1.66655 0.0841015 2.76092
0.551657 -0.579226 3.17796
-0.564111 0.68391 2.09054
2.23326 0.564305 2.69785
0.291514 -1.5402 3.6211
-1.00371 0.239867 3.01805
1.92581 -0.121727 2.88271
-0.159446 1.05623 2.97736
-1.22206 -0.560087 3.29915
1.17928 0.829813 2.75394
1.23589 -1.74131 3.47616
-0.0802747 -1.47771 3.6043
-1.42676 0.199966 3.08526
-0.349772 1.29917 2.94866
2.13884 1.06557 2.93458
0.200578 -0.775613 3.28997
1.62396 0.0255919 2.70401
1.77583 -1.08686 3.16906
-1.13093 0.781941 2.96833
-0.581586 0.0111729 3.08505
-0.691887 0.725765 2.9626
-1.18682 -0.725379 3.18959
-0.358847 0.982415 2.70355
1.61332 -0.655995 2.91556
-0.24072 -1.46921 3.54532
1.54077 0.0672601 2.71107
0.681589 -1.84035 4.00702
1.95552 0.114669 2.62206
-1.25399 -0.678596 3.31223
0.0780137 0.782505 3.02571
0.877617 -2.13183 3.53887
-1.0266 -0.207718 3.12865
1.59438 -0.151935 2.78514
1.42868 -0.860125 2.91221
1.05936 0.576929 2.88963
1.92581 0.548653 2.63096
1.1305 -0.0965485 2.75097
0.381731 1.28157 2.92468
-1.282 0.0186858 3.10329
-0.0516714 -0.905163 3.33391
-0.647599 0.592873 3.10085
1.88528 -1.03488 2.90156
1.60291 0.620822 2.6531
-0.819219 -0.593356 3.23851
-0.702809 -0.067568 3.09811
1.52681 -0.776382 2.94144
0.856679 0.618912 2.91839
2.5519 0.022917 3.00894
-1.38956 -0.022546 3.11351
0.166985 -1.25918 3.51844
1.51204 -0.738417 2.91135
1.18945 -1.27677 3.36729
-0.832658 0.193011 3.32127
-2.54676 -1.9648 5.52484
0.636235 0.48594 2.91073
0.61209 -0.262883 2.94332
1.24613 -1.8575 3.59207
-0.790044 0.735677 2.37372
-0.0933693 0.471164 2.97148
0.482159 -1.08256 3.44043
0.120484 0.0950778 2.77391
-0.411878 0.772542 1.87237
0.481944 -0.211871 2.97539
-0.0283207 -0.0719222 0.832015
0.925258 -2.25898 3.62037
1.4767 -0.886608 2.87416
0.0966344 -0.179045 3.0158
-1.28686 0.532451 2.87086
1.70189 -0.434846 2.74095
0.851312 -1.97133 3.55801
0.157228 1.27766 2.89569
-1.09533 -1.01986 3.2439
0.442941 0.500786 2.89538
-0.285225 -0.222843 3.12591
-0.5806 -0.718494 3.31847
-0.611645 0.896036 1.86309
-0.11203 -1.01308 3.45156
1.11908 0.468885 2.88323
0.806613 -1.65341 3.77325
0.924424 -0.194377 2.91136
-0.232859 0.814696 1.92897
0.122524 1.30199 2.75433
0.92319 1.39856 2.6622
-0.0240316 -0.971294 3.35229
1.79809 -0.151574 2.80707
-1.33571 0.566818 2.89898
1.17949 -2.50775 3.54135
1.91336 -0.594582 2.94977
1.0609 1.23179 2.73701
-0.756424 0.7275 1.87359
1.0913 -0.350885 2.88533
1.92758 -2.65294 4.0979
-0.753038 0.40207 2.98004
-0.383191 -1.3004 3.54263
0.615172 1.0525 2.89891
0.0950847 -0.343006 3.08655
-0.188083 1.19395 2.95824
-0.652621 -0.0676904 2.1562
-1.23118 0.374537 2.99753
2.02237 -2.21552 4.12557
0.517789 -1.26921 3.6002
2.13449 -1.88031 4.49831
0.914824 -0.280958 2.95216
1.36608 1.07383 2.61392
-0.936468 0.0353734 3.08412
-1.03941 -1.12605 3.35592
-0.89464 0.478543 2.95742
2.68153 -0.33134 3.65689
0.829744 -0.27578 2.99056
1.63044 1.00126 2.49048
-0.299991 1.03031 2.8438
0.272274 0.4158 2.90016
0.0428491 -1.11486 3.42389
1.63132 0.259212 2.63582
1.35248 -1.41568 3.43461
-0.0513549 0.543199 1.31693
-1.24316 -0.51912 3.25903
-0.483358 0.708318 2.00791
2.38941 -0.630275 3.54953
0.367505 -1.30127 3.35406
1.29668 0.238654 2.81276
-1.03961 -0.456131 3.10287
-0.512979 0.695874 2.03742
-1.1226 -1.25301 3.33821
2.16462 0.425644 2.61888
0.792179 -0.421456 3.01409
1.94365 -0.170732 3.07306
2.40538 1.01723 2.9253
1.43405 0.283334 2.77725
-0.386398 -1.3356 4.15993
1.59319 0.93996 2.58217
0.0423521 0.861219 3.06748
-1.4203 -0.653552 3.11978
1.31433 -2.0529 3.46657
0.338919 0.145747 2.94718
0.0923901 1.35125 2.87597
1.14733 -1.66788 3.58538
2.23163 0.605834 2.72297
0.320383 0.823986 3.0344
-0.476649 -0.636779 3.34342
1.56876 0.428899 2.68973
0.18288 0.10576 2.93083
1.49051 -1.61079 3.54077
1.51549 -0.517832 2.78383
2.09172 0.00727356 2.85195
-1.32521 0.24053 3.06117
1.29798 -1.55853 3.59559
0.0470405 1.30302 2.88093
0.297442 0.946098 3.02185
1.41451 0.79887 2.66741
0.925959 -1.53649 3.62243
0.80499 -1.71411 3.57167
0.9925 0.156901 2.81415
-0.362595 1.41212 2.93686
0.359911 -0.529823 3.14769
1.54037 -0.437308 2.85587
0.0878412 0.303842 2.9008
-0.0209377 0.930456 2.26333
1.28578 -1.3986 3.50444
0.416511 1.01495 2.91182
2.52445 -0.0842612 3.26606
-0.188448 1.05495 2.77586
0.566602 -1.33673 3.52308
1.22949 0.945594 2.73179
0.195415 0.275756 2.9083
-1.32449 -0.426874 3.16585
1.01559 1.02589 2.46625
2.20586 -0.795004 3.32621
1.04153 -1.1838 3.22734
1.64313 0.35965 2.68127
1.11827 -1.7353 3.9174
0.612354 -0.370207 3.02987
0.0337146 1.06967 2.87578
-0.0961607 -1.34307 3.7919
2.17262 0.89064 2.92686
0.227848 0.344053 2.93026
1.20658 -2.15216 3.82283
0.151071 1.05602 2.94651
-1.18231 -0.352828 3.12717
-0.0144341 0.631439 3.0392
-0.0598471 0.886101 3.03012
1.65246 0.603846 2.64233
-0.956475 0.187284 3.05116
0.815554 -0.562246 3.09965
-1.44933 0.0988766 4.04271
0.846731 -1.5071 3.45877
2.19883 0.383804 2.61704
-0.600288 0.665586 1.9832
0.953245 -0.53093 2.99714
0.142833 0.2582 2.92131
0.125714 -1.52381 3.68945
1.11555 -0.459566 2.91589
1.51269 0.844553 2.61094
1.50666 -2.25831 3.40806
1.47501 -1.39601 3.34697
1.39084 0.190148 2.83469
2.37618 0.182557 2.86366
-1.38691 -0.786558 3.32934
-0.237162 1.31917 2.93399
-1.46054 0.0835233 3.20479
0.543886 -1.46401 3.56752
0.292093 0.750531 2.92569
-0.0742749 1.34839 2.89815
-0.957952 0.0432359 3.04365
-0.496649 0.784308 3.0749
0.260546 -0.708858 3.27475
0.803154 -1.71774 3.74157
0.982174 0.115912 2.8234
1.02259 -1.52312 3.51017
-0.560171 0.914472 2.86524
1.14311 -0.615336 2.94134
-0.445489 0.856851 3.01553
-1.25294 0.0726855 3.08816
0.693599 0.0954681 2.87011
0.168031 -1.58215 3.5987
-0.160817 0.527174 1.46593
1.45938 -0.569347 2.81011
-0.836321 0.845511 2.93985
0.97003 -1.41259 3.47361
-1.03388 -0.0371786 3.10461
1.11416 -0.105823 2.77195
-0.198873 0.628938 3.00034
1.1879 -1.67601 3.65293
1.23774 -0.879753 3.11921
0.370541 -0.0610495 2.93026
-0.247488 -1.64085 3.56192
-1.02443 -0.873367 3.34811
0.459008 0.572028 2.93973
1.53444 0.262272 2.30669
0.581071 0.707274 2.99819
-1.07993 -0.392527 3.14548
-0.717213 -0.0542401 3.12531
1.26213 -1.68377 3.53199
0.53864 0.00630603 2.93894
1.77136 0.79508 2.58066
-0.943948 -0.987872 3.80054
1.25458 0.629204 2.78791
1.49312 1.04876 2.74367
-1.0156 0.365925 3.02973
-0.549391 -0.844706 3.48615
1.75851 0.907162 2.54349
0.0496117 -1.48679 3.63613
-0.26718 0.255895 2.99056
1.19253 1.21226 2.59064
0.239163 0.976402 3.02322
0.886862 -0.530968 3.0316
-1.19915 -1.35146 3.4139
-0.869336 0.229103 3.01951
-1.08231 0.288181 3.52947
-0.660486 -0.506212 3.25966
0.688976 0.923231 2.92468
0.626101 -0.401086 0.777847
0.0622167 0.990132 2.93589
2.22099 0.196525 2.87793
2.30909 -1.10542 3.2654
-0.96651 0.304425 3.01314
0.126516 -1.71044 3.62312
-0.0542141 -0.474085 3.18965
2.27922 0.802996 2.88092
-1.03966 -1.29573 3.38423
1.14704 -0.665925 2.98455
0.695927 0.805255 2.97007
0.707442 -1.61044 3.87723
-1.01016 -0.690226 3.33343
1.17556 -1.92979 3.5309
-0.890371 0.119776 3.04553
-0.843293 0.829985 3.05153
0.907522 -0.652091 3.15196
2.39149 0.743055 2.85826
0.50684 0.0769731 2.88301
1.21501 -1.59853 3.48868
2.17627 -0.899763 3.18941
2.02041 0.00694812 2.86532
1.01229 -1.61143 3.60846
0.0390005 0.165658 2.92543
2.23447 1.03488 3.07859
1.5389 -0.568802 2.76053
-0.378241 0.900267 2.98419
2.00268 -0.831254 3.08481
-0.899308 0.151441 2.98334
-0.352644 -1.4632 3.42671
0.0625861 1.32381 2.8847
-1.14762 -0.597559 3.34151
0.169835 0.855069 3.0233
0.428406 -0.826192 3.28634
-0.429341 -1.30057 3.52938
1.02383 -0.0358469 2.87432
1.59427 0.0463106 2.41192
0.242105 -1.6425 3.575
0.885048 0.648821 2.89183
-0.518315 0.916026 2.87685
-0.0485927 1.11677 2.43854
-0.877039 0.768556 2.95347
-1.35356 -0.795949 3.30382
-0.929909 -0.294295 3.12303
-0.105039 0.0501122 2.99355
0.478232 0.697463 2.99016
0.568356 -0.74252 3.22016
-0.183853 0.00943654 3.04826
-0.517143 -0.263083 3.34382
-0.318966 0.66182 1.67571
0.494763 -0.17044 2.97728
1.52609 1.09894 2.5637
0.252786 -1.0345 3.48164
-0.150932 0.536195 2.86316
1.72415 0.920038 2.53333
-0.932602 -0.423604 3.14521
-0.286247 -0.142087 3.03478
-0.167099 0.878306 2.01452
-1.06562 0.225597 3.05005
-0.882237 0.192637 3.58539
-1.29082 -0.936824 3.25934
1.61758 0.496413 2.80407
0.548882 -0.912665 3.30174
2.47131 0.0548565 2.90983
1.43245 0.954132 2.65677
1.39517 -0.114403 2.70729
-1.30289 0.618041 2.80575
-0.669704 -0.915773 3.45078
1.5658 0.521678 2.64505
1.29194 -1.60537 3.46023
1.25624 -0.0745263 2.74122
1.02893 -2.44706 3.21086
0.292083 -0.791685 3.34957
0.0284143 0.0394395 2.93967
0.439594 0.724736 2.96206
0.914908 -0.728339 3.15341
1.746 0.000938911 2.74405
1.77454 -0.992078 3.10237
0.990583 0.693027 2.89378
2.32085 1.01318 3.15279
1.512 -0.0325874 2.21669
0.692074 -0.682473 3.16828
