ply
format ascii 1.0
element vertex 1834
property float x
property float y
property float z
end_header
-0.563644 0.827969 1.88046
-0.13059 -1.06774 3.46424
0.351704 0.53549 2.90442
0.233525 -0.174213 3.01958
0.0751563 1.28343 2.88089
-0.190724 -0.997018 3.36542
0.438377 0.498243 2.89361
-0.321666 -0.0940005 3.04322
1.6488 -1.06698 2.94957
1.24956 -0.850561 3.01885
0.192886 0.679219 3.07485
-0.63284 0.830894 2.52371
1.24296 -0.810477 3.00535
1.3151 -0.0628148 2.6793
0.880564 0.602554 2.91183
1.57074 -0.724677 2.81845
1.33088 0.00231971 2.72788
-0.833153 -0.020869 3.08458
1.31388 0.682426 2.74668
1.80759 0.590049 2.64588
1.90359 0.279109 2.69219
0.744855 -0.770083 3.18327
0.201574 0.730746 3.12273
-0.255288 0.912715 1.9714
1.1073 0.496027 2.87724
0.719853 -0.223086 3.00371
-1.30509 -1.00151 3.2345
-0.607967 -0.178253 3.13065
0.666767 1.28347 2.85698
0.389156 -1.02845 3.45079
1.5462 0.525995 2.68493
0.118667 0.169564 2.95772
0.111923 -0.136942 2.99164
-0.726698 0.588413 3.17454
-0.420662 -0.979701 3.4587
-0.960623 -0.377532 3.20934
-0.173845 0.402765 2.94134
-0.887332 -1.22726 3.43128
0.230764 1.13251 2.94218
-1.29747 -1.10322 3.16516
-0.0480022 -0.342267 3.08139
0.391569 1.0921 2.9004
-1.13864 0.381016 2.99083
1.39657 -1.26489 3.671
0.426392 0.472457 2.91865
-1.36744 -0.297174 3.08411
1.04671 1.13404 2.73636
0.379766 0.440179 2.91997
0.875112 -1.15298 3.50849
-1.3353 -0.265718 3.13737
0.979385 0.970023 2.83611
0.893264 1.11046 2.7719
-0.00464645 0.512913 1.41732
1.40314 0.252873 2.81913
-0.641756 -0.52628 3.35396
-1.06373 -1.34244 3.40264
0.561277 -0.453112 3.09401
0.210725 1.07856 2.97037
-0.0718281 -1.39163 3.59003
-0.867773 0.339134 2.98462
-0.376939 -0.421054 3.18933
-0.584649 0.684455 1.94567
-0.016113 0.563016 1.22706
-1.37164 -1.24829 3.33704
1.28359 0.282494 2.81855
0.59184 1.00902 2.89077
0.218228 0.290428 2.9189
0.180398 -0.461699 3.10715
-0.279773 -1.38089 3.56422
0.586105 -0.417227 3.06191
-0.56778 0.730849 1.92934
0.0291435 -1.30769 3.49245
-0.315468 0.357593 2.94904
-0.810745 -0.381029 3.12407
0.550064 1.05417 2.91821
0.015342 0.603211 1.57632
-0.197667 -1.31425 3.61466
1.26322 0.303234 2.81596
-0.698661 -0.644255 3.34719
1.42718 0.177824 2.78279
1.92235 0.214609 2.81257
-0.193379 -1.66701 3.75201
-0.438084 0.908905 2.8817
1.32534 -1.54288 3.53193
2.36814 0.81081 2.90719
0.564609 0.139289 2.89005
-1.41657 -0.63871 3.4619
1.56933 0.771751 2.59848
-0.923955 0.274327 2.96261
-0.783284 -1.46855 3.59958
-0.0389067 1.37039 2.89125
1.84074 -0.515836 2.92446
-0.635005 0.680572 2.01382
0.141708 -1.45883 3.62583
0.780923 0.215102 2.88521
1.79987 -0.283523 2.71447
-0.089479 -0.505478 3.15663
-0.629268 0.67028 2.03385
1.7084 0.663032 2.55528
0.636659 0.0346535 2.93775
2.18542 1.0682 2.92121
-1.48262 -0.734469 3.15152
-0.981502 -1.33448 3.43825
-0.0225234 0.858647 3.05728
1.58607 -0.664945 2.95523
1.31933 0.0977777 2.78365
1.44322 -0.634465 2.94746
-0.570349 0.79129 2.93697
-0.525819 -1.58615 3.48079
1.66969 0.0673045 3.10169
1.36869 -1.55552 3.37256
-0.627194 -0.935747 3.37207
1.91306 0.0543196 2.64831
1.00713 -0.104484 2.89689
0.701821 0.63897 2.97257
-0.966961 -1.58674 3.34174
0.32817 -0.868654 3.29963
0.70257 0.600738 2.96015
0.0172193 1.27783 2.88544
-0.393831 -0.0632809 3.00473
-0.447292 0.0084009 3.01116
-0.509208 0.719331 1.96062
-1.21033 -0.842061 3.38003
-1.00499 0.724173 2.89857
0.0740554 -0.0286712 3.00045
-0.0641216 -0.787488 3.28864
1.91376 0.182605 2.74631
-0.383747 0.699316 3.03988
1.28583 -0.650217 2.87199
-0.471545 -1.04504 3.52003
0.576325 0.0732541 2.91074
-0.67789 0.807047 2.96468
-0.997457 -0.611063 3.30476
2.23725 1.00383 2.98681
1.35757 -0.618963 2.88444
0.264846 0.907383 3.06756
-1.22349 -1.57321 3.42197
-0.500715 0.144935 2.98574
1.69666 -0.577594 2.83061
1.40815 0.756667 2.67821
-0.384692 0.112732 2.96238
-1.07352 -1.4722 3.33306
-0.798373 -0.0627227 3.04414
-0.915741 0.777072 2.80796
-0.038542 -0.887633 3.37697
1.21491 0.654234 2.82933
1.57178 -0.761268 2.91626
-0.810882 0.667031 3.05274
2.00009 0.0128944 2.62827
1.69171 -0.0389341 2.69936
-0.719074 -0.791219 3.34417
0.145367 0.0363934 2.96188
1.0733 0.731819 2.8274
-0.821741 -0.870837 3.37444
0.100074 1.32366 2.88292
-0.150294 -0.747682 3.27077
0.98936 -0.000568585 2.86461
0.0669862 -1.67082 3.55727
1.18021 0.694956 2.81252
0.721303 -1.0049 3.31383
0.616425 -0.18537 2.99076
1.61101 0.467975 2.59417
1.76139 0.82278 2.55921
-0.714834 0.871725 1.86062
0.445646 -0.145388 2.9747
0.0501073 -0.968547 3.35587
1.65321 0.541591 2.66059
-0.774044 0.699434 2.29267
-1.38208 -0.0998756 3.11506
-1.08077 -0.905441 3.34967
0.141046 0.563046 2.9333
0.802657 0.433956 2.90919
-0.201658 -0.348124 3.11457
-0.295561 -1.2412 3.55772
1.14671 1.07761 2.7022
-0.167664 -1.09973 3.26607
1.06728 1.0703 2.76687
-0.000960635 -0.297594 3.07047
0.512351 0.393709 2.90066
-0.627792 -1.09808 3.38889
-0.0824125 0.512182 2.97869
1.39246 -0.262257 2.83862
-0.383508 0.721932 2.10708
1.06318 0.464086 2.88679
1.12577 -1.07289 3.36211
-0.894076 0.811342 1.96059
0.0905554 -0.223633 3.04785
0.819442 0.718861 2.92108
0.232926 -0.029413 3.00655
1.80266 -2.10338 4.54352
-1.40138 -0.804898 3.20753
1.64869 0.0102607 2.77794
-0.558229 0.695569 3.01054
0.781874 -1.45077 3.41369
1.07971 -0.758911 3.08529
-1.01514 -0.762205 3.35869
-0.726243 0.0858296 3.01846
-0.947568 0.786848 2.83595
1.52809 -0.031583 2.25804
1.29029 0.72138 2.75125
-0.922717 0.748529 2.71925
-0.6394 0.0474054 3.04164
-0.823576 -0.729334 3.40864
1.4795 -0.86592 2.94899
1.92639 0.245469 2.69416
1.20277 0.581321 2.83252
-1.29193 -0.13847 3.10228
-0.323222 -1.66525 3.51527
0.306866 0.566184 2.92309
1.07461 -0.96746 3.42731
-0.40008 0.757412 2.07543
-1.33976 -0.0973123 3.22966
-0.268043 -0.872209 3.36485
-0.680985 -0.0587164 3.04462
1.75129 0.846123 2.5574
1.19073 0.62052 2.84339
-0.911844 -0.300531 3.13284
-0.388859 0.782165 1.90483
0.198302 -1.2297 3.57518
0.878907 0.46687 2.89182
1.2648 1.09439 2.72423
1.55377 -0.272744 2.94271
0.186998 0.439814 2.91935
-0.484637 -1.11734 3.45961
-1.06286 0.553962 2.99191
0.866633 -0.226164 2.99249
-0.427071 0.898959 2.65707
0.6526 -1.07042 3.38245
-1.28906 -0.949503 3.20375
-0.749792 0.676347 2.06743
1.0861 -0.178685 2.84378
1.35583 0.485817 2.79643
-1.48316 -1.2068 3.17723
-0.0532898 0.364523 2.96265
-0.739569 -0.425186 3.20497
1.07257 1.03774 2.75364
1.56831 -1.28042 3.40997
1.49286 0.300905 2.744
0.867464 -0.37144 3.00225
-0.101527 0.957716 2.55827
1.44656 1.00799 2.58608
0.981676 0.39656 2.90765
-1.27445 -0.356132 3.1706
0.6518 -1.18274 3.32761
-0.774993 -0.259823 3.04023
-0.688678 0.687041 1.96447
0.590551 0.502921 2.94326
0.606415 -0.223434 2.95243
-0.611208 0.759243 1.86665
1.40787 0.487239 3.04598
-0.956591 -1.07845 3.5028
0.420909 1.33873 2.8919
-1.29305 -0.181898 3.12582
0.861116 -0.982069 3.23192
0.723089 0.560968 2.9123
-0.583677 -0.140537 3.08322
-0.409925 0.895206 1.91591
-1.08489 -0.980258 3.45563
0.754929 0.534322 2.93833
-0.958801 0.408416 2.94952
0.205385 -1.30663 3.57306
0.353721 1.1183 2.89747
-0.208152 -0.377803 3.11231
0.765986 0.353583 2.91067
-0.639011 -1.16625 3.35925
-0.0763404 0.916668 2.37899
1.13035 -0.336446 2.90644
-0.961091 -1.1276 3.36353
-1.22517 -0.302613 3.1612
-0.230319 -1.10506 3.40169
-0.0485328 0.448404 2.97371
-0.398413 0.771284 1.92177
-0.21417 0.975057 2.89056
0.483066 -0.545286 3.17486
0.267151 -1.5473 3.7501
-0.16098 0.266077 2.96716
0.0430342 0.535835 1.34574
1.5154 -0.47335 2.83024
0.324156 0.976007 3.0107
0.994163 -1.53899 3.77029
-0.801109 0.231671 2.98481
0.800304 -0.453491 3.04908
-0.360596 0.740499 2.01194
2.32171 0.125009 2.95315
0.962786 -1.40777 3.55858
0.12846 0.315873 2.91266
1.172 -0.400104 2.87566
0.941931 0.985451 2.81824
0.371467 -1.32297 3.49618
1.81263 0.27603 2.7715
2.07653 0.599689 2.65422
2.02979 0.36469 2.74119
1.53867 0.139722 2.84891
1.08217 -1.75783 3.80914
1.41832 0.78798 2.64411
-0.0286749 -0.668791 3.24846
1.06028 -1.58911 3.56899
0.621489 0.106347 2.91465
-1.27778 -0.64144 3.31891
0.0316383 0.853466 3.0204
0.406771 -1.5176 3.54312
1.6819 0.620462 2.62693
-1.40148 -0.603882 3.3053
-0.879256 0.196622 3.03982
-0.293716 1.40985 2.92508
-0.54747 0.671654 2.15701
0.419696 -1.60824 3.61747
0.566616 0.171121 2.89413
2.1167 0.28455 2.73748
1.23526 0.848992 2.75008
-1.13676 -0.646782 3.28527
1.60727 0.125426 2.71988
1.26669 -1.67345 3.49627
1.20867 -1.59232 3.65267
1.24994 -0.576985 3.03409
-0.254785 0.874583 3.00616
0.347218 -1.49127 3.57811
-0.404122 0.987351 2.95802
1.69794 -0.501659 2.81355
1.50844 0.199519 2.77089
-0.284337 -1.41372 3.53168
2.27901 0.239432 2.73708
-0.691174 0.664553 2.0312
-0.370215 0.770724 3.0149
0.127309 -0.793878 3.26192
2.40291 -1.53419 4.44556
-0.89133 0.0443609 3.07497
0.858465 0.703439 2.87701
-0.247265 -0.773772 3.35639
-0.995295 -1.10595 3.39526
1.12917 -0.00627961 2.82124
0.527013 -0.718335 3.25245
0.0903264 0.852336 3.04136
1.48639 0.0949487 2.92819
-0.899855 0.775997 2.67336
-0.470411 0.822093 3.06684
1.55264 -0.619788 2.86735
1.79607 0.071234 2.8296
0.0319647 -1.65139 3.61087
1.95178 -0.0435873 2.63632
-0.235481 -0.943946 3.43137
-0.164915 0.910843 1.95835
-0.0417108 -0.106193 3.00744
-0.00891873 0.827615 3.736
0.248827 0.604699 2.93898
-0.350334 -0.888298 3.38032
1.42457 -0.0736941 2.83352
0.361519 -0.83894 3.31344
1.76801 1.04687 2.55561
-0.911708 -0.0270307 3.10066
1.8028 0.89207 2.54259
0.828024 0.667271 2.90366
1.18808 -0.259855 2.87238
-0.732385 0.687928 1.97572
-0.459134 -1.16863 3.5903
1.49382 0.474303 2.76646
-0.688166 0.757374 1.8391
0.401201 -0.228125 3.05339
-1.03732 -1.02005 3.26772
-0.60344 0.485628 2.99731
-0.710233 0.608851 3.1819
-0.678647 -0.185378 3.06744
1.44771 1.15463 2.59903
0.496333 -1.02425 3.38918
0.239626 -1.01903 3.52137
-0.467409 0.83472 1.89963
0.838141 -0.149105 2.95075
0.778611 0.527519 2.93081
0.765818 -1.63614 3.74549
0.0928402 -0.0688545 2.98154
-1.2583 -0.839177 3.17731
0.962915 0.665046 2.89756
1.48184 -0.762412 2.89344
-0.986417 0.235092 2.99431
-0.946124 -0.0285783 3.08275
1.69297 0.577801 2.67202
-1.07126 0.04377 3.01083
-0.488793 0.714141 1.98687
-0.945265 -0.801193 3.33522
0.202981 0.786726 3.07465
0.514304 0.00159841 2.97079
-1.4064 -0.757761 3.2587
-0.0979728 0.950685 2.03509
0.300518 0.745688 3.03084
0.0113534 1.22462 2.80178
-0.055549 0.540945 3.00023
0.873166 -0.193879 2.98219
-1.49506 -0.99237 3.26894
1.7344 0.763298 2.58048
1.05685 -0.150717 2.85224
-0.216512 -0.969605 3.37868
0.362344 0.603226 3.00343
-0.128001 -0.114793 3.08363
1.72882 0.510793 2.64974
0.390003 1.24785 2.90093
0.387617 -0.91425 3.28409
0.211744 0.430051 2.91448
0.361221 -1.28703 3.60449
-0.17698 -0.356898 3.12716
1.37291 1.04087 2.60817
-0.890572 0.403001 2.94838
-0.502014 -1.21372 3.56217
1.35832 1.00971 2.60146
-0.065908 -0.308535 3.08552
-0.859322 -1.07938 3.34336
1.05429 0.491227 2.9043
0.587955 -0.273456 2.99637
-0.308641 0.798527 1.88363
-0.491261 0.484096 3.01441
-1.18067 -1.01658 3.30085
-0.865382 -0.226875 3.12492
0.406413 1.15915 2.85035
-0.798872 0.691624 1.95947
-2.09127 -0.767686 4.60077
1.13367 0.27232 2.81487
-1.14981 -0.469419 3.13971
-0.533933 0.695571 2.04281
-0.0177309 -1.44654 3.70414
1.08923 0.252055 2.88752
-0.708495 -0.43246 3.23238
0.435365 1.06746 2.86009
2.43531 0.828192 2.89752
1.05441 -1.31037 3.39805
-1.33036 0.3759 3.00307
1.68867 -0.366588 2.75507
1.48903 0.939288 2.58925
-1.53469 -1.23503 3.33275
2.30454 1.02548 2.97986
0.798338 0.310973 2.9277
1.08814 -0.979788 3.31638
0.967375 0.591015 2.90212
-0.166248 -0.148343 3.05687
0.142586 -0.934708 3.35652
-0.506077 0.582185 3.0361
-0.865052 -0.0998087 3.07849
0.595039 1.29655 2.865
-0.918793 0.775648 2.79802
0.240715 0.674442 3.12768
0.873464 -0.0716093 2.95827
-0.483368 0.806728 2.42395
-1.21793 -0.872987 3.3448
1.3267 -0.290468 2.80852
0.514187 1.17053 2.87163
0.254891 -1.2321 3.5899
0.73412 0.468918 2.91744
0.804401 -0.270778 2.98509
-0.314733 0.784313 1.94953
-0.340636 0.444638 2.98758
-1.46691 -1.05409 3.19644
0.370333 -1.08055 3.42512
1.2749 0.508062 2.8082
1.81021 -0.219882 2.74876
-0.568366 0.853002 1.88067
-1.42098 -0.965616 3.21573
-0.913704 0.512405 2.96231
-0.51023 -0.18329 3.07054
-0.413423 0.899507 2.65593
-1.27258 -1.25058 3.31785
-0.844444 -0.42459 3.20323
-0.789813 -1.25765 3.46655
0.697424 0.313184 2.91158
-0.400807 0.731203 1.99746
0.133887 1.11787 2.9104
1.82717 -0.362106 2.84799
0.700362 0.39241 2.90993
1.54376 0.943774 2.47698
-1.06224 -0.358512 3.23832
1.16059 0.34604 2.86611
1.66514 -1.12756 3.11728
0.455088 -0.588673 3.1718
0.902461 0.931957 2.87875
2.20323 0.333819 2.61778
-0.181056 -1.46342 3.37539
-0.422788 0.226692 3.04111
0.433401 -0.547261 3.16204
0.229554 0.90893 2.97652
-0.0963978 0.460405 1.42268
1.33457 -1.50851 3.57809
0.589685 0.171804 2.88413
-0.515998 -1.46085 3.65783
0.307353 0.286178 2.93054
2.17061 0.254168 2.63605
1.55334 0.912702 2.59784
-0.520506 -0.496534 3.12989
-0.804516 -1.32339 3.43592
0.95321 0.257642 2.90087
0.34865 -0.462421 3.09193
0.43245 1.00303 2.97188
2.32251 0.534757 2.6844
1.0382 -1.30726 3.50941
-0.503641 0.39874 2.98128
1.37379 -0.371156 2.849
-0.483812 0.751168 1.93168
-0.354532 -1.23313 3.48675
-0.929901 0.362805 2.94105
0.717238 1.06526 2.84894
0.17153 -0.352996 3.06983
-0.710766 0.726115 1.81526
1.40712 -1.11491 3.18459
-0.564911 -0.309633 3.096
-0.443814 0.439083 2.9767
0.0190489 0.995244 2.9668
0.821494 -0.536148 3.07883
-1.30299 0.281076 3.02212
-0.85835 -1.44419 3.52778
1.91801 0.423553 2.63947
-0.815211 -0.482743 3.07877
0.113636 0.980652 3.03539
-1.2536 -1.33489 3.37454
-1.20164 0.232711 2.97583
-0.730706 -0.474044 3.246
1.74831 0.295242 2.75128
-1.22386 -1.29099 3.36285
-0.617105 0.695417 1.95001
1.9748 0.0612284 3.00988
-0.576914 -1.29398 3.43568
-1.03526 0.305048 3.00146
-0.27901 0.749125 2.11718
1.96964 0.495867 2.62712
0.967819 -0.419946 3.01164
1.24262 -1.657 3.56793
1.31987 0.1307 2.79464
-0.157329 -0.67487 3.26643
-0.690388 -1.55283 3.25848
0.600319 0.866798 2.93498
0.798928 0.102958 2.9213
-0.929195 -1.50556 3.40404
1.07194 -0.61222 3.03629
0.366313 0.84233 3.00273
2.04945 0.478995 2.61035
-0.634492 1.13515 2.85884
1.51903 0.799515 2.58483
-0.636609 0.183665 2.99667
-0.316993 1.41548 2.94107
-1.39685 -0.591242 3.20202
-2.30699 -2.44226 5.48962
0.608962 -0.0347874 2.94199
-0.358756 0.773391 3.1764
-1.03915 0.11226 3.04586
-1.34986 -0.809769 3.19532
-0.738907 0.00465443 3.03597
2.15396 1.00715 3.03895
-1.00256 0.681248 2.9059
0.519607 -0.794253 3.24493
0.366294 0.0730459 2.93198
0.229107 -0.757712 3.28154
0.709833 0.789873 2.93017
0.0454329 1.32001 2.85232
1.2252 0.023971 2.79418
0.878353 0.747744 2.90004
0.832094 -0.697386 3.15527
-0.233683 1.00447 2.74478
-0.319765 0.756222 2.9829
0.0870169 -0.801849 3.29076
0.351218 0.0256832 2.96636
-0.279432 0.568599 1.83388
0.412291 0.732796 3.03587
-1.11805 -1.03136 3.33893
1.0381 -0.739026 3.09448
1.706 -0.0131756 3.10548
-0.0744515 -0.716314 3.27207
1.0359 0.0936365 2.85708
0.162701 0.839743 3.02084
1.37875 0.194669 2.01439
1.57476 0.698407 2.59769
-0.844097 -1.59814 3.44969
1.87716 -0.281183 2.71068
0.897578 0.0617412 2.90766
-1.0087 -0.677113 3.30087
1.49542 0.573567 2.65978
0.702246 -0.930555 3.28902
0.621686 -0.114945 2.98783
0.553823 -1.77286 3.73844
-0.94915 -0.877925 3.35425
1.4249 0.543945 2.69102
-0.621179 -0.0758083 3.07919
1.78258 -1.06049 3.00016
1.20424 1.24161 2.72863
0.100842 0.683794 3.00345
1.29535 -0.0478728 2.81117
-0.97316 -1.35311 3.41087
0.55691 -0.862838 3.33827
-0.0459111 -0.268263 3.05565
-0.56364 0.777648 1.84839
0.67577 -1.14245 3.43219
-0.819362 0.521573 3.05848
-0.683812 -0.234234 3.10631
0.319139 1.18087 2.92249
0.653843 0.458527 2.91593
1.25731 -1.03539 3.20667
-0.914603 0.624577 3.23344
-0.196772 -0.194781 3.05937
1.28152 1.20453 2.69332
-0.873809 -1.02262 3.42151
0.443782 -1.00452 3.43013
0.941921 0.520523 2.88451
1.46747 -0.154342 2.77376
0.000739425 1.23032 2.72951
-1.16069 -1.1756 3.26927
-1.00723 0.395383 2.91775
-1.3304 -0.39815 3.1872
0.0670062 1.12159 2.93156
0.426069 -1.26944 3.55064
-1.38763 0.370538 3.00213
-0.54373 0.734232 1.95064
0.291596 -0.363251 3.08666
0.921709 1.09528 2.76077
0.906666 0.428668 2.92723
-1.35598 -0.326762 3.16853
-0.0353826 -1.19759 3.48509
1.35483 -0.22769 2.81023
-0.483744 0.824693 1.89043
1.15041 -1.07372 3.32886
-0.335399 0.545457 3.03991
-0.0373582 -0.198277 3.06474
0.755425 1.17585 2.81535
1.14993 1.24295 2.72779
0.819289 -1.0092 3.26286
1.27649 0.478551 2.82646
0.647594 -0.156976 2.98551
1.75892 -0.898849 3.02171
-0.0440549 0.660722 3.21301
-0.450393 -0.112459 3.04877
0.50363 1.3112 2.87697
-1.4067 -0.903221 3.23041
1.50256 0.510924 2.68293
-1.50475 -1.18762 3.29819
-0.80847 0.438791 3.01068
1.05518 -0.353648 2.92745
-0.472112 0.747648 1.89724
0.00219134 -1.18847 3.44674
1.62487 0.350606 2.67366
0.656424 1.10564 2.89529
0.188904 -0.322828 3.07943
0.405276 -1.18576 3.571
1.05305 -0.270818 2.88828
-0.509483 0.461873 2.96461
0.139662 1.1619 2.88657
0.384757 1.02965 2.97273
0.252418 -0.506874 3.12864
1.35462 0.266603 2.79398
1.01622 -1.42813 3.47612
1.30739 -0.449007 2.88062
1.02527 0.939484 2.78144
1.0723 -1.38674 3.48706
0.110647 0.25163 2.92294
-1.18319 -0.438917 3.20612
0.875739 0.345333 2.91192
0.541306 -1.37787 3.59401
0.00995491 1.07902 2.92011
2.11137 0.446551 2.61829
-0.996521 -1.26538 3.48144
0.719984 1.02316 2.85037
2.18869 -0.113408 3.17711
1.63052 -0.366504 2.75111
-1.37809 0.325444 2.95922
1.72243 0.163525 2.74575
-1.27042 -1.42184 3.16121
1.49045 0.795446 2.59634
0.0706991 -0.637878 3.21124
-0.486912 -1.49098 3.47915
-1.17535 0.145745 2.95695
1.70391 -0.542551 2.78436
2.16585 0.19329 2.8674
0.154977 0.871792 2.98804
1.24713 -1.59898 3.75129
0.698081 -1.46824 3.57962
-0.0893991 0.962986 3.02996
-0.0405539 -0.551645 3.17625
1.73175 0.202174 2.74677
2.1214 0.331244 2.63611
1.49212 0.42751 2.69419
1.00732 -0.312104 2.93332
-0.638768 0.757717 1.86741
1.53852 -1.15165 3.26212
0.223501 -1.15477 3.51133
-0.20215 0.785191 1.96111
0.915926 -0.272183 2.97478
-1.03093 0.454822 3.04756
-0.269408 -1.0549 3.3607
-0.883192 0.563884 3.08191
1.39048 -0.22627 2.82399
-0.567785 0.835244 1.87882
-0.545692 0.506979 2.98614
-0.489941 -1.08907 3.56818
1.08773 1.14013 2.6992
1.76798 -0.191785 2.79284
-0.360098 -1.3216 3.49766
0.25792 1.07399 2.97154
1.43791 -0.403547 2.83433
-0.21384 0.320871 2.9846
1.24912 1.05307 2.72249
0.0315902 -0.386865 3.09917
1.48481 0.388511 2.91655
0.244266 -1.30904 3.55645
1.41711 0.985312 2.62006
1.25409 -0.34716 2.85321
-0.986813 0.36266 2.96189
-0.866822 -1.1946 3.40977
-0.9402 -0.577934 3.15033
2.09238 0.419157 2.62169
-0.099922 0.218408 2.97509
-1.00141 -1.42265 3.30924
1.28239 0.88488 2.74071
-0.318602 0.922969 3.04456
1.0125 -1.58471 3.746
2.44163 1.08221 2.91795
1.74634 0.157395 2.73204
0.336481 -0.545455 3.14072
-0.601513 -1.63086 3.42236
-0.160621 0.288101 2.97161
0.926626 -1.56686 3.82341
2.43923 1.10903 2.8632
1.04189 -0.483005 2.9288
-0.0776812 1.03893 3.00086
2.3381 0.615107 2.75203
0.528707 -1.48126 3.75422
-0.32791 0.261246 2.98281
-0.21551 -0.467799 3.16864
-0.728359 0.676287 1.98476
-0.0106508 0.793926 2.97488
-0.687565 0.0719802 3.01718
-0.990849 -0.576758 3.29177
-0.689964 -0.735769 3.38495
-0.112716 1.35311 2.90413
-0.822781 0.668905 2.25702
0.452089 -0.661358 3.14928
-0.563458 0.140313 2.98112
0.372873 -1.63698 3.57544
-0.915424 -0.658841 3.40363
1.34014 0.76029 2.69558
-0.508302 -1.55867 3.50559
0.477449 0.0986175 2.91627
1.23346 0.920661 2.73763
-1.34141 -0.561384 3.2301
2.19469 0.971993 3.03665
1.95635 -0.468595 2.78942
-1.75037 -1.50448 3.52941
1.49263 0.246689 2.84498
0.480371 -0.513853 3.15483
-0.413754 0.684936 2.10552
-2.22352 -1.91726 4.62604
-1.12509 0.233411 3.05333
-0.836245 0.320761 2.96648
-0.998941 -1.37561 3.46272
0.374292 1.07133 2.96732
2.32783 0.961181 2.93317
1.59527 -0.448942 2.86241
-0.755642 -1.31873 3.50478
-1.32937 0.309546 3.01652
-0.707714 0.69414 1.97161
-0.0426047 -0.435558 3.16713
2.11856 0.356013 2.62749
0.878637 -1.70254 3.68336
1.25317 -0.645161 2.98946
0.774829 -1.68134 3.65223
-1.37872 0.118659 3.08407
-0.566119 0.82852 2.95395
2.2336 0.269171 2.63054
1.29816 1.03084 2.71648
1.31649 -0.583627 2.85453
-0.665245 0.643281 2.07408
1.18228 -1.7197 3.78445
-0.208224 0.179761 2.98443
0.493226 -0.601904 3.21645
1.08545 0.829241 2.81685
1.68943 0.124496 2.76225
-0.0800245 -1.56893 3.63691
-0.0570279 0.716018 2.96367
1.16802 -0.0430443 2.83197
0.0867054 1.28038 2.76926
-0.557981 0.000959541 3.04765
1.40889 -0.7687 2.92817
-0.915681 0.674446 2.93904
2.27734 0.936208 3.20205
0.883829 -0.782343 3.16118
1.45174 0.0557522 2.86976
-0.556774 -0.765215 3.30464
-0.325801 0.808194 3.02066
0.7925 -1.54257 3.7354
-0.935249 0.041765 3.06704
-1.10954 0.229129 3.0297
-1.00851 0.775297 2.99947
0.0342739 -0.712891 3.25355
-0.103337 -0.973179 3.37845
0.314537 -1.72296 3.62573
-0.192746 -0.153323 3.04325
0.0701305 1.2372 2.78096
0.96996 0.553172 2.89241
0.264585 1.3249 2.90794
1.82456 0.884468 2.54524
-1.16353 -0.109106 3.12657
-0.508184 0.651084 3.05336
1.50702 -0.819348 2.83545
-0.284507 -0.0757161 3.05144
1.6615 -0.805304 2.89639
1.22611 0.562292 2.7942
-1.25618 -0.910625 3.26698
-1.30577 -0.114594 3.10074
1.81161 0.509452 2.64239
0.202394 0.585332 2.93454
-0.650363 0.703271 2.20442
0.589267 -0.0787897 2.94692
0.517402 1.28451 2.88004
-0.610364 0.687472 3.05201
0.263785 -0.902361 3.33044
-1.26544 -0.0421404 3.08051
1.03616 -0.858285 3.27952
0.619928 0.629212 2.98716
-1.28927 -0.287711 3.19929
-0.745702 0.752392 1.79274
-0.733157 -1.11652 3.41579
-0.290775 0.499919 2.97974
-0.213806 -0.236417 3.086
0.43936 1.16628 2.88691
-3.40985 1.10839 7.05097
0.59195 -1.09045 3.39609
-0.779338 -1.05259 3.47627
1.00764 0.547764 2.90013
0.666339 -0.199278 2.9671
-0.32226 0.800773 2.09879
0.0595838 0.532033 2.96914
1.14606 -0.987 3.29533
-0.30506 0.898205 1.93697
-0.761784 -0.154301 3.07855
0.860057 -1.37299 3.68661
-0.985182 -0.392723 3.15349
-0.0775957 0.351312 2.97764
-0.762932 0.706307 1.89747
1.76698 -0.348885 2.72599
1.6158 1.00384 2.53395
1.55482 0.366956 2.51135
-1.06231 -1.09054 3.10158
-0.671716 0.733013 1.92055
0.410137 -0.327746 3.0864
-0.264059 0.380097 2.93412
0.489545 -1.2872 3.7011
0.140028 -0.556159 3.16694
2.35046 -0.156319 3.01551
-0.238583 0.252034 2.98874
-0.736645 -1.45796 3.52486
1.68728 0.856947 2.54622
1.38912 0.84718 2.63917
-0.92822 -1.39539 3.48539
-0.0545122 0.21438 2.95307
0.881031 -0.50884 3.04755
-0.685478 -1.35064 3.46463
-0.794763 0.32562 3.00606
1.13393 -0.448112 2.88331
0.691743 1.02562 2.8662
2.28915 0.629261 2.75791
-0.143877 -1.35936 3.5805
0.0854663 0.276768 2.91134
2.38823 0.894506 2.93101
-0.752993 -0.429931 3.15197
0.627875 1.00107 2.88908
-1.3923 -1.14101 3.16723
0.0574209 0.41892 2.93412
1.16141 -0.357669 2.88172
-0.784899 0.730852 1.8483
0.582617 -1.23303 3.53138
0.269465 0.373105 2.90224
-0.827717 0.716452 1.85854
1.08781 -0.318912 2.88315
0.204139 1.18289 2.94452
1.36504 0.435355 2.7967
-0.479301 -0.286606 3.09266
-0.659047 -1.1126 3.39075
1.33939 -0.481507 2.8403
-0.491105 0.701573 2.02319
1.23194 0.271537 2.85293
0.525205 -1.51105 3.68267
-1.38019 -0.494313 3.24437
0.636346 0.974735 2.91456
-0.952135 -1.38858 3.56705
0.662918 0.241938 2.92442
-0.619294 0.34932 2.96071
1.40182 -1.31958 3.36314
0.0475359 1.07411 2.92177
2.34819 0.226115 2.73814
-0.655411 -0.440509 3.17144
0.630912 0.302275 2.91396
0.42516 -1.29858 3.50372
-0.79603 0.684459 1.88429
0.564101 -0.396353 3.05348
1.08741 -1.67304 3.639
-0.0694101 -1.58 3.53295
-0.533106 0.173497 2.98159
-1.44068 -0.614741 3.04716
0.785537 0.872879 2.86536
0.86888 0.127239 2.9023
-0.80886 -1.44977 3.35503
0.374582 -1.74562 3.63813
-0.556796 -0.575166 3.11011
0.361592 0.86661 2.97843
2.02506 -0.792143 3.26165
0.667772 -1.62617 3.62259
-0.45206 0.678813 2.10565
1.32555 0.196074 2.79198
1.83827 0.32395 2.80361
1.27182 -0.535875 2.92549
0.78132 -1.71833 4.0414
1.34559 0.692403 2.72467
2.25016 -0.198107 3.57517
-0.280999 0.0279301 3.02031
0.402202 -0.81384 3.32011
-0.250346 0.740473 3.09246
-0.0854032 1.09873 2.95126
0.711302 -0.015275 2.93717
-0.806752 -0.800461 3.43742
0.917296 0.093896 2.89542
1.67685 -0.768059 2.55868
1.0378 -0.685341 3.03886
-0.109738 0.843127 3.05742
-0.259725 0.0626599 3.03813
-0.807357 -1.60305 3.44705
1.86932 -0.502115 2.74094
1.6583 0.706523 2.64686
-0.928069 -0.690904 3.30603
-0.196368 0.768722 2.10857
-0.57371 0.320743 3.0209
0.46608 -0.428108 3.06244
-1.05064 -1.25213 3.29652
0.976377 -0.388875 2.98815
-0.346634 0.766223 1.98102
1.33694 -1.2323 3.26876
0.596703 0.381738 2.94593
0.704145 -0.362164 3.03061
1.45173 0.982119 2.63171
1.49189 -1.22885 3.3563
0.514628 0.337682 2.87445
0.788035 -1.71412 3.91503
1.18705 0.202185 2.80629
2.27885 0.137242 2.95833
0.157485 -0.595989 3.18869
-0.362012 0.918267 2.7804
-0.176326 -1.50913 3.62823
0.967565 0.160914 2.86373
2.37801 -0.0945534 2.97608
1.5907 -0.501968 2.75764
1.08297 0.86057 2.8209
1.41567 -1.4119 3.38965
1.42513 0.266752 2.77535
2.19196 0.285594 2.62871
0.655371 -0.513153 3.12283
-0.33161 0.726409 2.06491
-1.45773 -1.23005 3.06677
-1.37964 0.282463 3.08954
-0.00488481 1.32479 2.89156
-0.757956 -0.473602 3.19118
0.384806 0.990196 2.96708
0.138649 0.805621 3.04136
-2.48476 -1.26761 5.22427
-0.100307 1.32773 2.89586
0.447879 0.0606915 2.9351
-0.518538 0.767449 3.03133
-0.307493 -0.713034 3.24568
-0.672269 -0.988433 3.57188
-0.17198 0.0302696 3.00393
1.06311 -0.657483 3.03963
-0.500601 0.801361 2.76906
-0.0872168 -1.69275 3.63665
1.73869 0.121242 2.73557
1.85428 -0.325627 2.71257
1.56551 -0.590728 2.8519
-0.511628 0.831837 3.00839
-0.466483 0.10222 3.01821
0.694907 -1.74441 3.88286
0.720549 -1.58344 3.75872
0.404878 -0.882862 3.27364
-0.998346 0.78664 2.84642
-0.829224 0.704887 3.05935
-0.856455 -0.06727 3.07984
0.0366306 -0.842391 3.29012
0.560099 0.63364 2.9618
-0.580849 -0.0376829 3.07532
1.26515 -1.794 3.71444
-2.15819 -1.1022 4.39083
-0.283758 0.883733 2.43393
-0.30451 0.952959 2.74774
0.129995 -0.00900795 2.9605
-1.13198 0.724386 2.94486
-3.14285 -3.24878 6.92852
1.09454 0.777505 2.79456
1.46241 -0.637708 2.91605
-1.18674 0.118998 3.13699
-0.101769 -1.69848 3.5255
0.612557 -1.47465 3.58663
2.19827 0.310845 2.6207
1.24684 0.825938 2.72126
-0.197204 -0.646014 3.26972
-0.0726799 0.173537 2.97161
-0.879473 -1.52634 3.42641
1.20474 -0.584124 3.01868
1.43223 0.761811 2.60193
0.179482 -1.52355 3.53382
-0.234606 0.1367 3.00021
-0.218716 1.1575 2.9594
0.293257 -0.0437054 2.96221
-0.232024 -0.0107931 3.05531
0.0173573 1.18235 2.88179
1.43985 -0.770089 2.90642
0.13995 0.729029 3.03154
2.32426 -1.52616 4.21113
1.15546 -0.776878 3.10619
-1.16223 0.670174 2.89067
0.315155 -0.783568 3.31724
1.78332 0.0594246 2.76887
-1.00428 0.79265 2.91933
1.52677 -1.49663 3.44994
1.64143 -0.827721 2.7296
1.61119 0.0261582 2.67378
-1.33561 -0.718932 3.27628
1.71726 0.700536 2.71444
0.24602 1.26562 2.92277
-1.19936 0.534979 2.76319
1.275 1.14254 2.67618
-1.02012 -0.158169 3.15297
0.291817 -0.998893 3.40755
1.86487 0.994292 2.5468
-0.0717499 -0.114817 3.03871
0.190609 -0.92975 3.31891
-0.711208 0.636835 2.99344
-1.20111 -0.0739962 3.10071
-1.07136 0.590061 2.90579
1.31778 -0.842885 3.03898
-0.917876 0.466833 2.96074
-0.741742 -1.16489 3.41004
1.6031 -0.297401 2.73645
0.834786 1.12958 2.78871
1.49859 0.390895 2.71795
-1.04458 -1.07368 3.32137
-0.300018 -0.279061 3.07459
-0.0924804 0.832476 2.11994
-0.0212576 -1.07377 3.40415
-1.09348 0.532945 2.93606
-0.51605 -0.238515 3.08861
-0.458283 0.873202 1.89729
0.184387 -1.10468 3.62787
-1.71161 0.622165 3.63977
-1.04449 -0.197159 3.11275
-0.136412 0.84262 2.00492
0.390906 0.479622 2.93048
1.26566 -0.280006 2.85582
-0.156334 0.839289 1.99258
-1.11054 -1.09282 3.32988
-1.31312 -1.03599 3.25759
0.753057 1.13066 2.80649
1.5659 -0.247408 2.84263
-1.10344 0.460743 2.92463
0.801163 -1.06878 3.42336
-0.954982 0.557577 2.95485
-1.35381 -0.207174 3.08635
-0.607946 0.841751 1.87088
1.38448 0.497551 2.7982
1.17972 -0.962716 3.22107
-0.887845 -0.164213 3.1103
0.948158 1.02866 2.79081
0.132179 1.33031 2.88447
1.06321 0.337717 2.88789
-1.06383 -0.405686 3.16621
0.619284 -1.30266 3.48926
-1.35572 -0.38201 3.17953
0.310845 1.17543 2.97837
-1.37073 -1.16416 3.25189
1.79975 0.399603 2.78284
-0.267649 0.775308 2.01052
0.502103 -0.329285 3.03622
0.395421 -1.23638 3.53873
1.5046 0.344973 2.73278
-0.0155431 -1.5287 3.64531
-0.789194 0.249916 3.0367
2.15392 -1.09949 3.52432
1.51757 -0.504132 2.72449
-0.694507 0.66973 2.04262
0.7904 -1.71231 4.13595
-0.755534 0.214602 2.95808
1.32147 -1.72137 3.7218
0.761938 -0.51682 3.0726
-0.769362 0.64648 2.0337
-0.336061 0.312724 2.97267
1.40923 -1.67936 3.55657
1.41194 -1.52527 3.73733
2.07442 0.267929 2.75593
0.916256 -0.470203 3.02071
-0.00197144 1.04439 2.93955
0.439811 -1.40591 3.63587
0.840466 0.272886 2.89152
1.87908 0.678521 2.64913
-1.03086 -0.438148 3.17508
1.67279 0.877734 2.55863
1.65094 0.741794 2.66393
1.01327 -1.58845 3.62337
0.0401083 0.0962689 3.00197
-1.4031 -0.674426 3.15296
0.500289 0.633671 2.94987
0.579399 0.889483 2.94241
0.131465 -0.646451 3.21917
0.635043 0.161028 2.89125
-1.04761 -1.5518 3.44299
1.25441 -2.00997 4.11736
0.986482 -0.588934 3.0423
0.738614 0.839129 2.89371
0.471118 -1.63755 3.77246
-0.742857 0.133274 2.99903
-0.278682 0.971916 2.38086
0.2844 -0.52424 3.12644
-0.0745789 0.478523 1.47213
0.164996 0.271691 2.92456
-0.187137 -1.45402 3.57609
0.886357 0.974972 2.84586
-1.34522 -0.497317 3.22934
-0.196459 0.980592 2.97739
0.0981417 -1.38981 3.49762
-1.38794 0.255317 3.01369
-0.531481 0.350502 3.01615
-0.337773 -1.35293 3.54424
-1.43299 -0.458204 3.19718
-0.342576 0.746526 2.00972
2.10089 0.488844 2.60217
-0.470216 -1.31011 3.55532
0.331484 0.299358 2.91741
2.02124 -0.447657 2.77974
-0.524036 -0.416145 3.26351
1.30654 0.977894 2.72949
-0.280476 -1.63233 3.63736
1.44454 -0.592425 2.83876
-0.89583 -0.320778 3.15993
0.950973 0.123557 2.8877
-0.372653 0.884685 3.05915
2.01745 0.292627 2.76503
-0.692726 0.958431 2.94597
0.626739 -0.60187 3.15518
0.976327 0.906419 2.84903
0.0375998 -1.53486 3.5402
1.6557 0.187893 2.6872
-0.96476 -0.564779 3.15285
-0.798739 0.638245 2.10681
-0.290676 -1.48155 3.55485
-0.312613 0.168653 2.97806
1.19417 0.0112366 2.77908
1.53101 -1.01218 3.28333
1.25688 -0.762524 3.00584
-0.235571 0.767875 3.05636
-1.19387 -0.768047 3.28022
-0.0205341 0.726358 3.04804
-0.276481 1.04846 2.86695
0.156289 -0.0181114 2.96019
-0.764734 0.101611 3.03867
-0.723058 0.822406 2.95751
0.997287 -1.73916 3.68677
-0.470731 -0.735394 3.28983
1.62329 0.601115 2.54735
-1.19012 0.0685395 2.97234
0.491619 -0.690751 3.21453
0.403583 0.794103 2.99323
1.29638 -0.886399 3.05157
1.00042 0.579169 2.91898
-0.546798 -1.61757 3.44876
-0.462809 0.717303 1.93727
1.43163 -0.130695 2.74446
1.92295 0.439442 2.63841
1.18656 -0.0833995 2.76202
0.854241 0.654202 2.90016
0.97032 -0.917144 3.32133
-0.0405472 -0.0511339 3.02388
-0.673882 0.624757 2.98853
0.435946 1.29619 2.88201
1.74223 -0.735056 2.76298
0.25437 0.205764 2.9595
1.04688 -1.56761 3.57223
1.775 -0.440258 2.73892
0.617604 0.934555 2.94172
-1.39357 -0.632391 3.33365
-1.20995 -1.41337 3.36826
-0.408308 -1.59065 3.42856
1.41804 0.155662 2.82544
-0.146306 -0.554892 3.153
-0.455807 0.882227 2.89855
-1.08899 -1.32682 3.30135
-0.849817 -0.50649 3.19356
0.896759 -1.78335 3.64982
-0.903118 -0.507721 3.15502
-0.00985427 0.242283 2.94878
2.37143 0.103517 2.94692
-0.309023 0.744246 2.19631
1.23509 0.738679 2.75907
1.40737 -0.726894 2.97487
0.804699 0.0561656 2.8865
-0.162962 0.946772 3.02686
-0.730186 -0.731234 3.30519
1.15766 0.719295 2.82292
0.648578 -1.46548 3.56084
-0.831624 0.0333765 3.07886
-1.22277 -0.714807 3.39058
1.76098 0.113458 2.72656
-1.2191 0.831896 2.82223
-0.272869 0.834411 3.0258
1.82927 -0.533561 2.79117
-1.18534 -1.561 3.4518
-0.304859 0.100518 2.9638
0.999626 -0.620197 3.02286
1.12611 -2.11222 4.83903
-0.545323 -0.947786 3.53731
-0.0275635 -0.0760961 3.0124
-0.501353 0.69399 3.09109
-0.334747 0.647349 3.08677
1.19776 -0.824726 3.11469
-1.17994 0.0101946 3.09088
1.07559 -0.0510796 2.866
1.7493 0.984078 2.53382
-1.60794 -0.83297 3.34436
1.29959 0.662964 2.76177
-1.04972 -0.00816858 3.05202
1.87532 0.518519 2.62881
-0.382975 -0.241827 3.06556
-0.0155579 1.22639 2.64658
-1.34772 -1.00967 3.16885
0.69633 0.519497 2.94267
0.980825 1.15316 2.76214
0.00735463 -0.204071 3.05081
1.02997 1.21823 2.74409
0.147156 0.485976 2.91855
-1.286 -1.05581 3.40002
-0.593809 0.620502 3.12424
1.11846 -0.158203 2.82078
0.974473 -0.973091 3.26007
-0.148783 -0.946617 3.40725
0.31245 1.26057 2.90701
0.905635 -0.124049 2.92732
0.0172813 0.575893 3.04067
1.87948 -0.552462 2.75174
-0.389144 -0.858715 3.3674
0.452948 -0.0196698 2.97228
-1.04965 -0.0402972 3.11146
-0.749517 0.719222 3.00594
-0.151468 -0.810935 3.32496
1.09677 0.652471 2.88388
-0.772619 0.0736926 3.06726
1.89559 0.142146 2.74216
-1.13768 -0.787706 3.34771
-0.77722 0.799162 3.00818
-0.339943 0.0243215 2.97904
-1.01899 0.783415 2.83075
0.952139 0.727408 2.86631
1.11581 -0.693858 3.01055
-0.599714 -0.205604 3.11592
-0.654658 0.793302 1.86477
-1.82991 -1.1823 3.78325
0.196171 0.546491 2.91229
0.907317 1.19947 2.77198
1.53783 -0.164186 2.80198
-0.595437 0.827256 1.87271
-0.991027 -0.974201 3.35144
0.886436 0.241923 1.36439
-1.0417 0.789633 2.85292
-0.416203 -0.118706 3.02369
-0.582972 0.635591 3.04723
0.27314 -0.962487 3.40083
-2.66445 -0.26506 5.76574
1.39544 -0.797671 2.86363
-1.21517 0.590349 2.90006
0.135782 0.452025 2.92674
1.49659 -1.15789 3.24182
-0.845011 -0.340823 3.19272
-0.661927 0.745041 1.84559
1.40636 -1.15579 3.38539
-0.0984189 0.423948 2.97082
0.813501 1.10593 2.81715
-1.07366 -0.285375 3.14982
-0.560033 -1.13776 3.59401
1.40709 -0.231846 2.74289
1.69393 0.471504 2.85783
0.356425 1.20855 2.90414
0.990448 0.994122 2.7684
-0.998786 -0.462707 3.09405
-0.145415 0.311052 2.97943
-0.538357 -1.35948 3.47391
0.837221 0.973974 2.82873
-0.464459 -0.450604 3.25701
1.12698 -1.33267 3.39696
-0.898196 0.290462 3.00438
0.360565 -0.404968 3.11766
0.677399 1.09399 2.88589
-1.145 -1.22162 3.3547
2.33987 -0.0049494 2.87953
0.468064 0.368814 2.88353
-0.650034 0.719997 1.92824
0.364397 -0.374709 3.13181
0.113461 -1.2762 3.56746
1.72964 -0.142381 2.82376
1.56479 0.305918 2.67181
0.166795 1.07654 2.95225
0.974749 -0.442694 3.00358
-1.14966 0.352317 2.99076
0.697197 -1.40408 3.60947
-0.479905 0.715394 1.98404
1.5035 -0.383356 2.77567
0.51102 -1.36009 3.6292
-0.423287 0.305334 2.95807
0.647186 -0.364069 2.96163
-0.361401 0.764057 1.94932
-0.0419406 0.527671 1.33368
0.0953354 -1.28879 3.57686
-1.2358 0.430225 2.99415
1.57473 0.983655 2.55912
-0.269202 -0.334617 3.12578
1.36376 -1.19302 3.33419
0.184072 0.365395 2.91862
1.07554 0.230267 2.88487
-1.04141 -1.38258 3.27542
-0.0150472 0.557924 1.27995
-0.377589 0.708805 2.11913
1.5136 -0.539239 2.86971
0.615238 -1.53471 3.71416
0.642209 0.197211 2.89752
-0.58835 -0.533335 3.22179
-0.588185 0.654605 2.05026
1.23841 -1.48641 3.65852
2.06142 0.344541 2.63548
1.57264 -0.450054 2.74926
1.00567 0.266483 2.90007
2.24095 0.467966 2.59898
-0.250898 0.906655 2.58451
1.29258 -0.677948 2.89847
1.39537 0.747707 2.70433
0.554818 -1.46711 3.59292
1.71207 0.0889262 2.76223
-1.1771 0.737237 2.73776
1.35671 -0.658135 2.97868
-0.666929 0.79171 2.97624
1.65524 0.0443864 2.80314
0.737894 -0.643718 3.12542
1.06482 0.153727 2.83257
1.43724 -1.66761 3.62669
-0.829811 0.632459 2.08632
0.676998 0.853182 2.95492
1.35139 -0.570164 2.88788
2.40482 -0.963446 3.83179
-0.592126 0.127173 3.01069
1.21279 -1.68903 3.82721
-0.277238 1.08585 2.45641
0.87084 -0.85294 3.22811
-1.16591 -0.0155882 3.0874
0.512795 -1.46395 3.57904
-0.0763694 -0.0540458 3.02406
1.34961 0.645426 2.70696
-0.200351 -0.800357 3.2987
1.47093 0.610161 2.72839
0.74098 -1.88569 3.97005
0.996882 -0.785386 3.23631
1.9038 0.375675 2.67774
1.59997 -1.47931 3.39658
1.64018 0.00995534 2.74923
0.0497375 0.758953 3.04081
-0.760495 0.626127 2.15697
-0.21021 -1.68183 3.60839
-1.3247 0.139514 3.08831
-0.486514 1.38187 2.96069
1.64882 -0.606182 2.84046
2.23356 0.226618 2.74892
0.197276 -1.67293 3.71229
-0.478482 0.679734 2.12436
-0.22753 -0.614394 3.2076
-1.05933 0.217397 3.02874
1.1434 -1.49493 3.36526
0.930876 -0.557836 3.01518
-1.1393 0.745894 2.45969
-1.16404 -1.40434 3.32469
-0.718328 0.168129 2.96139
1.8658 0.994441 2.5504
1.08654 -0.786479 3.1047
-0.864382 -1.26664 4.49831
0.91081 0.0134483 2.89668
1.49375 -0.0305543 2.7897
1.26623 0.695612 2.7684
-0.595997 -0.754176 3.21484
-0.251984 1.08073 2.45388
1.14674 0.677818 2.83403
0.0121827 0.0904853 2.97461
1.56844 -1.37761 3.19725
0.794125 -0.729023 3.16976
1.12088 0.771687 2.7997
0.958377 0.0482033 2.89054
-0.525982 0.78032 2.26796
0.498083 0.769411 2.91799
1.66511 -0.632486 2.81634
-0.385285 0.597245 3.0533
1.82676 1.03905 2.55017
1.36213 -0.129035 2.69987
-0.0471997 1.07 2.40805
1.37061 -0.902005 3.08443
1.89707 0.0842665 2.70499
-0.320615 0.677012 3.06458
-0.539001 -0.0876741 3.07932
1.40564 -0.846811 3.00887
1.7372 -0.0567762 2.77601
-0.0869184 -0.870091 3.34423
1.46407 0.562265 2.67347
1.0237 -1.12668 3.30703
0.568487 0.477572 2.92823
0.502555 1.25464 2.87935
0.735355 -0.287994 3.02864
1.0064 1.14051 2.74292
1.47478 0.424558 2.78722
-1.14391 -1.03689 3.2973
-0.71815 -0.245648 3.06107
0.721367 1.14843 2.85966
-0.58977 -1.10893 3.61507
1.32589 0.515433 2.77815
-0.786019 -0.205235 3.07031
-0.161172 -0.990575 3.37397
-0.769785 0.526621 3.04543
-1.43871 -0.171181 3.088
-0.443713 0.899866 1.87767
-0.112463 0.787367 2.9917
-0.360981 0.843172 1.92765
1.30313 -0.728102 2.97009
1.09467 0.0491554 2.81408
-0.584084 0.76284 3.04587
-1.35773 -0.725996 3.21653
0.511935 -1.46666 3.58722
-0.0448903 0.0205758 2.96573
-1.41057 0.136623 3.05333
1.95396 0.710419 2.57078
-0.730856 -0.686547 3.27911
-0.66917 0.857397 2.89341
-1.1116 0.112698 3.12218
-0.443625 -1.60905 3.56746
0.270646 -0.0857754 0.144047
0.635146 -0.65012 3.18767
1.50607 0.727263 2.62248
1.10659 -0.855298 3.08278
-0.185793 0.665711 2.95881
1.8766 0.110306 2.71259
0.969285 -0.081327 2.90244
-1.28941 -0.824192 3.18784
0.78267 0.611836 2.92643
-1.47618 -1.58449 3.36436
1.48251 -0.058274 2.83303
1.5268 0.377351 2.27681
1.7948 0.956317 2.53117
-0.861552 0.713455 2.97693
-1.00502 -0.00448218 3.07337
1.18018 -0.773096 3.0676
-1.09396 -0.249879 3.14157
-0.548552 0.819918 1.88862
0.783301 -1.08677 3.35457
1.68895 0.453585 2.58917
0.972798 -0.208124 2.91988
-0.716879 0.781934 1.86342
-0.125541 0.684598 1.64051
-0.570639 -1.04964 3.42936
-0.39187 0.489562 2.97912
-0.488524 -0.995533 3.36422
0.0898886 0.600559 3.00152
-1.46778 -0.167418 3.0931
-0.993072 -0.914488 3.30121
0.511611 0.536991 2.89283
-0.674761 -0.126298 3.0595
-0.653145 0.857668 1.86069
1.37616 -1.22308 3.32085
0.327734 -0.372163 3.09352
1.28586 0.36092 2.83309
-0.540035 0.74827 1.9445
0.0485814 -0.331102 3.06708
-0.315016 0.790245 1.968
-0.555084 0.458143 2.98559
-1.52238 -1.14864 3.26503
1.00548 1.1151 2.83885
0.118433 -0.286742 3.06278
1.82846 0.392426 2.76841
0.53439 -1.18746 3.53512
-0.250373 -0.212503 3.08885
-0.262611 0.869326 1.95665
0.439766 -1.06651 3.44006
0.374522 1.33899 2.88844
-0.858306 0.594701 3.16789
-0.283234 0.921988 1.9355
1.76343 0.731382 2.5864
-0.43607 -0.169031 3.08963
0.277165 0.512418 2.93139
0.200839 -1.04632 3.55287
-0.200482 0.645604 3.08809
-0.55148 -0.133349 3.08693
-1.3227 -0.922027 3.26124
-0.488724 -0.954801 3.52331
-0.0721956 -0.085359 3.0253
-0.128092 0.597294 2.99866
0.722172 -1.22718 3.48429
1.73151 0.420771 2.696
0.964813 -0.323376 2.90017
1.48352 1.02877 2.52998
0.482689 0.405911 2.90532
1.35892 -1.14593 3.33872
1.12901 -0.279866 2.84309
0.104024 1.12652 2.90494
1.19442 1.12298 2.68946
1.54449 0.434356 2.69186
0.983558 -0.248851 2.92631
0.196149 -1.1114 3.46761
0.881255 -0.483457 3.06225
-0.0548999 1.0629 2.99137
1.54775 0.277686 2.70426
-1.07499 -1.30943 3.3488
-0.953722 -0.461739 3.26256
-0.041388 1.01902 2.97269
-1.44797 -1.19888 3.08482
1.72103 0.252223 2.6809
-1.12941 -0.421153 3.25361
0.0772324 0.367809 2.91529
1.52449 -1.31156 3.42517
0.280509 1.12828 2.97786
-0.00854087 0.530296 1.21002
1.61961 -1.18917 3.21132
-1.48035 -0.385226 3.21888
-0.758138 0.70642 1.89606
0.0231825 0.583977 1.46146
0.180371 0.336203 2.92354
0.56082 -1.5706 3.61792
-1.2695 0.222942 3.02592
-1.4303 -0.605547 3.1667
1.57957 0.820997 2.58643
0.507402 -1.58652 3.75189
-1.1059 0.171329 2.92567
2.45069 0.648869 2.78422
1.50609 -0.567305 3.04921
1.41123 0.809681 2.68888
-0.49019 1.44518 2.95956
0.985133 0.94197 2.84731
0.596164 0.233183 2.90033
0.0500799 -0.528791 3.18034
2.16684 -0.706639 3.22401
-1.35806 -1.32646 3.25689
0.630954 0.227244 2.92037
-1.18207 -1.36405 3.22739
0.184857 0.974451 2.99489
0.674256 -0.573976 3.12315
-0.413194 -1.46965 3.59166
-0.817738 0.206167 2.97199
-1.27442 -0.541749 3.25634
-0.266281 0.945228 3.03388
0.022995 0.710353 1.80127
0.115632 1.0056 2.96415
2.49926 0.811796 2.88028
-1.03163 -1.62978 3.45937
0.435942 0.265435 2.8966
-1.06118 -0.485758 3.09076
2.28346 0.0192422 2.96005
0.305481 -1.46742 3.6559
-1.12888 0.77059 2.76615
-1.08073 -0.765955 3.33729
-0.229756 0.090781 3.02829
0.056574 1.31679 2.88024
-0.0472261 -0.699343 3.25191
-0.412033 1.31602 2.95314
-0.0388804 0.778316 2.98614
-0.723272 0.0622951 3.02737
0.370985 -0.646708 3.15745
-0.114021 0.163419 3.01346
-0.33942 -1.59384 3.52051
-0.176206 0.892329 3.0263
0.0845179 0.700376 3.34752
-0.743605 0.861899 2.93904
-1.03317 -1.46144 3.30643
1.4158 0.107181 2.85575
1.44337 -0.585494 2.93578
-0.298409 0.858929 1.9311
-0.842593 -0.994816 3.79395
-0.958014 0.699852 2.944
-0.15203 -0.0544568 3.02033
1.51094 -0.681115 2.66972
-0.97405 0.728643 3.25019
0.306014 -0.0222733 2.96906
-0.212204 1.01318 2.76517
1.82268 0.353126 2.65776
0.705251 0.735413 2.95013
-1.20406 0.0249272 3.09143
1.51559 0.406715 2.27159
1.45903 -0.722614 2.93072
0.432558 -0.212636 2.99628
-0.129502 0.942663 2.14989
0.351988 1.27421 2.90317
-0.451542 -1.08434 3.50419
-0.987684 0.55402 2.96334
1.3319 -0.171423 2.79566
-0.633037 0.807645 1.86557
1.69799 1.11181 2.56109
-1.10889 -0.967978 3.26557
-0.35588 0.517181 2.98909
-0.592558 -0.983396 3.43431
-1.12846 0.606026 2.8669
-1.03534 -0.132677 3.16647
1.7134 -0.794403 2.8063
1.5709 0.528159 2.68417
-0.741824 -0.0868419 3.03084
0.683058 -0.803492 3.18597
1.04992 0.00994813 2.88414
2.55221 0.00232182 3.77916
0.931616 -0.0270648 2.88889
-0.309715 0.762347 3.08957
0.219323 -0.782371 3.2844
1.03427 0.682759 2.87632
1.85746 -1.40646 3.26873
-1.38592 -0.723442 3.14278
-0.869566 0.766737 2.65009
-0.360038 0.0471789 2.98071
1.35076 0.709127 2.71332
-1.38726 -0.173111 3.08305
1.35495 -0.937511 3.06288
-0.39746 0.580827 2.99128
1.90518 0.590834 2.61444
1.55287 -0.138446 2.74704
-0.547124 0.855084 1.88399
1.88885 0.366623 2.64408
-1.43748 -0.910697 3.17817
0.615186 0.539787 2.92605
0.869803 -0.0960653 2.95974
1.39658 0.595739 2.70293
-0.108917 -0.90712 3.34242
0.783115 1.26779 2.82671
0.641004 -0.0609605 2.94518
-1.40452 -0.824811 3.13209
1.74234 0.562132 2.70439
1.15394 -1.15943 3.38027
1.74932 0.449847 2.74466
0.0748741 -0.294516 3.06679
-0.451032 0.775919 1.86275
-0.702411 0.462048 3.07483
0.0963639 -1.14823 3.55774
0.000273956 0.844452 2.09144
0.471086 -0.259582 2.98014
1.59771 -1.0008 3.1311
1.66689 -0.207757 2.72435
0.621384 0.504992 2.92484
-0.691954 0.71162 1.91368
1.33265 -0.415216 2.74883
0.971044 1.01865 2.78076
1.30079 -1.36776 3.44385
1.40648 0.3134 2.79169
-0.255678 -0.416803 3.16736
0.526158 1.02638 2.91569
0.332756 -1.31503 3.50193
0.246103 0.296123 2.92785
1.55804 0.365867 2.63711
1.27838 -0.365961 2.8617
0.694713 -1.28263 3.5063
1.19295 1.06433 2.72202
-0.0207527 0.493841 1.28158
-0.617468 -1.1928 3.44923
1.82032 -0.337133 2.81646
1.34905 1.01679 2.6731
1.23379 0.355558 2.85216
0.770535 -0.895084 3.2226
1.56055 -0.0967014 2.84113
1.93199 0.000323432 2.73698
0.0831039 0.656007 3.12733
1.03668 -1.74975 3.69213
1.26129 -0.0600529 2.78534
1.65201 1.14291 2.56437
0.370788 0.71705 3.02651
-0.483383 -0.870885 3.35731
0.782631 -0.0241559 2.91868
-1.2318 0.657128 2.88305
0.226835 -0.827335 3.31558
1.3284 0.496601 2.84755
1.24627 -0.244289 2.78096
-0.262005 0.878341 1.97248
-1.22837 -1.05677 3.3061
-1.27342 -1.01478 3.30419
-0.383125 0.779096 2.02934
0.840476 1.16224 2.79841
1.55772 -0.217162 2.87118
-0.467024 0.491731 3.0086
-0.673475 -0.998548 3.42316
-0.898634 0.596521 2.99914
0.0607714 -0.168921 3.03591
0.274707 0.546134 2.93188
-0.296734 -0.941228 3.34854
-0.607955 0.872411 1.88271
0.508045 -0.13382 2.95644
0.904319 1.05876 2.78247
-0.646032 0.379443 3.00398
-1.00594 -0.371999 3.14344
-1.15787 -1.21301 3.34447
1.61407 -0.326368 2.84204
-0.474812 0.756778 1.87749
1.12552 -1.21276 3.42002
0.600394 0.446501 2.91553
-0.76635 0.7273 1.85147
-0.508668 -0.292797 3.09424
0.804356 0.407812 2.92219
1.00386 -1.19827 3.50759
1.47276 -0.488182 2.80506
-0.0470314 0.623768 1.34467
-0.583424 0.279482 2.98798
-0.443523 -1.43816 3.52562
1.08412 0.949318 2.76641
1.36633 0.887056 2.69023
0.958338 -1.53032 3.77839
-0.319577 0.240143 3.00173
1.26024 -0.478585 2.94098
-1.41191 -1.22748 3.1667
-1.09426 0.348625 2.94983
0.395995 -0.445524 3.09193
-0.695664 0.720306 1.93799
2.31973 0.039412 2.95603
-0.177062 -1.32826 3.58499
1.00291 0.291615 2.92339
-0.00445457 0.530618 1.25245
1.06022 -0.395603 2.92275
0.173862 1.03046 2.91827
0.739554 -1.16251 3.27966
0.991601 0.442642 2.90579
0.0218564 -0.337913 3.07969
-0.528023 0.418229 2.99934
0.372931 -1.19797 3.54653
1.01795 1.08451 2.77344
-0.994195 -0.292343 3.13421
0.217741 1.20429 2.89446
-0.842414 0.499781 3.0222
-1.3126 -0.258394 3.14438
1.55232 1.02715 2.54408
-0.956675 -1.02368 3.1619
-0.244592 -0.494713 3.17686
1.35585 0.953781 2.68439
0.595595 0.29245 2.89948
-0.869439 -1.40572 3.53442
-1.30651 -0.452151 3.15984
1.47481 0.882081 2.56849
0.401797 -1.38149 3.55909
0.870942 0.263199 2.88082
1.66153 0.334752 2.67061
0.900356 -1.32021 3.49076
-0.185149 0.790448 2.06965
-0.0214013 0.532614 1.23699
0.234156 -0.407923 3.09919
-1.07447 0.352164 3.02482
1.26084 -1.24201 3.35744
1.1182 1.01025 2.74948
1.59731 -0.360973 2.82331
0.652681 -0.457639 0.859697
-0.967213 -1.48667 3.41114
-1.33858 -0.644854 3.37301
2.26428 0.202602 2.7456
0.393571 0.156766 2.91841
-0.398056 0.897232 3.01977
-0.478522 -1.60469 3.41447
2.25943 0.506494 2.6413
-0.50522 1.40404 2.96384
-1.44955 -0.579636 3.18469
-0.852529 0.668017 2.01882
0.817321 -1.52748 3.57513
-0.827997 0.235476 2.99207
-1.00049 -0.544175 3.21812
1.67574 0.807578 2.54388
0.802363 -1.56663 3.78886
1.2439 0.18592 2.79413
-0.037319 0.0492888 2.95967
-0.229832 1.06848 2.45275
0.994521 0.75946 2.88423
1.68551 -0.711237 2.85699
0.982167 -0.734305 3.15142
0.0273981 0.752622 3.038
2.00484 1.07237 2.6972
0.681359 0.0143148 2.91776
0.762216 0.117934 2.87579
-0.298996 0.874403 3.02937
1.8285 0.719739 2.5758
0.870724 -0.68426 3.13375
0.627326 -1.79174 3.90245
0.273314 0.0845064 2.95996
1.05582 -0.639684 3.07083
2.50108 0.0157403 3.75491
0.765004 0.804556 2.90819
0.708809 -0.737064 3.16701
1.19773 0.757759 2.77118
-0.0419505 1.13171 2.93317
1.06756 0.075904 2.81083
1.39666 0.693409 2.66367
1.47559 -0.639754 2.85152
-0.284614 -1.0792 3.43934
1.14357 0.0332633 2.84953
-0.607975 -1.57219 3.46118
-0.67537 0.153727 2.97156
2.06529 1.16269 2.80725
-1.37156 -0.647619 3.16487
-0.114687 0.918548 3.10112
-0.265106 0.117619 2.99701
-0.678103 -1.54497 3.51879
2.12047 1.05926 2.76668
0.228061 -0.627401 3.22429
1.64782 0.74186 2.6047
1.11416 -0.820919 3.06712
0.790179 -0.0637068 2.91254
0.5804 -1.79035 3.7433
-0.276776 0.688353 3.15977
1.92589 0.642844 2.6138
-1.4296 -0.0233483 3.08517
-0.904012 -1.61898 3.41758
0.113646 0.747665 3.04253
1.91833 -0.164655 2.72025
0.809898 -0.812534 3.18535
1.2574 0.00477821 2.77383
0.339241 0.71111 3.03
-0.409538 -0.787638 3.31639
1.29673 0.516893 2.81295
0.165142 -0.224479 3.04863
-0.278069 0.909576 1.96615
0.048074 -1.0634 3.41693
-0.642133 -0.999252 3.39917
-0.447503 0.756806 2.22485
-0.684305 0.801805 1.86578
0.992255 -0.182176 2.93217
0.826587 0.509565 2.96856
-0.548847 -0.956776 3.32685
1.05093 0.597208 2.88882
-0.393465 -0.143585 3.09619
0.442041 0.567112 2.90794
1.21815 -0.890833 3.15532
0.67407 1.25158 2.8503
0.409981 -0.10113 2.97411
-1.02841 -1.2102 3.50716
-0.3784 -0.348299 3.12479
-1.31516 0.420547 2.95399
-0.393525 0.7593 1.94391
1.66772 -0.276557 2.62014
1.16872 1.12125 2.70583
0.292364 -1.20729 3.55351
0.358576 0.466525 2.88171
1.13997 -0.255228 2.8394
0.398036 1.14255 2.86821
-0.590123 0.449211 2.97603
0.442739 -1.15164 3.53791
