ply
format ascii 1.0
element vertex 1833
property float x
property float y
property float z
end_header
1.42888 -0.0745555 2.84362
0.364564 -0.846287 3.30781
1.76801 1.04687 2.55561
-0.914131 -0.0252854 3.09483
1.80226 0.891968 2.55383
0.828274 0.672118 2.91115
1.1924 -0.26193 2.8818
-0.732385 0.687928 1.97572
-0.462452 -1.17062 3.5751
1.4935 0.473121 2.77974
-0.688166 0.757374 1.8391
0.403738 -0.229391 3.056
-1.03732 -1.02005 3.26772
-0.608085 0.487042 2.98873
-0.712811 0.618785 3.17316
-0.683614 -0.182829 3.05557
1.44771 1.15463 2.59903
0.501157 -1.03032 3.38362
0.243622 -1.02544 3.51406
-0.467409 0.83472 1.89963
0.839797 -0.148812 2.96018
0.778074 0.532945 2.94052
0.770419 -1.64463 3.74296
0.0934023 -0.0666749 2.98384
-1.2583 -0.839177 3.17731
0.961909 0.669565 2.90512
1.48284 -0.765563 2.90156
-0.986417 0.235092 2.99431
-0.946124 -0.0285783 3.08275
1.69297 0.577801 2.67202
-1.07126 0.04377 3.01083
-0.488793 0.714141 1.98687
-0.960206 -0.8043 3.31662
0.201939 0.793014 3.07092
0.516601 0.00158926 2.97674
-1.4064 -0.757761 3.2587
-0.0979728 0.950685 2.03509
0.298282 0.748726 3.02795
0.0113534 1.22462 2.80178
-0.0569018 0.546996 2.99879
0.875014 -0.195288 2.99069
-1.49506 -0.99237 3.26894
1.73295 0.762787 2.58924
1.05896 -0.151067 2.86279
-0.217387 -0.974222 3.37038
0.363244 0.609331 3.00301
-0.128258 -0.111057 3.07975
1.72824 0.50981 2.65252
0.389862 1.25372 2.89652
0.390756 -0.919032 3.27776
0.211098 0.433974 2.91646
0.365032 -1.29296 3.59746
-0.178773 -0.356508 3.12056
1.37184 1.04248 2.61542
-0.890572 0.403001 2.94838
-0.506128 -1.21835 3.54733
1.35701 1.01065 2.61039
-0.0689311 -0.30771 3.07754
-0.865781 -1.08157 3.33295
1.05533 0.495791 2.91504
0.58994 -0.2734 3.00208
-0.308641 0.798527 1.88363
-0.493575 0.487481 3.00622
-1.18067 -1.01658 3.30085
-0.86708 -0.227305 3.10841
0.404984 1.16366 2.84909
-0.798872 0.691624 1.95947
-2.09127 -0.767686 4.60077
1.13425 0.273976 2.8267
-1.14981 -0.469419 3.13971
-0.533933 0.695571 2.04281
-0.0120624 -1.45446 3.69525
1.09159 0.254732 2.90011
-0.711142 -0.43058 3.21851
0.435647 1.0722 2.85869
1.05693 -1.31608 3.39857
-1.33036 0.3759 3.00307
1.68576 -0.366915 2.76224
1.4882 0.940839 2.59692
-1.53469 -1.23503 3.33275
0.800052 0.314753 2.93782
1.09126 -0.983594 3.32061
0.967044 0.595071 2.91198
-0.165558 -0.146697 3.05215
0.142024 -0.937614 3.35323
-0.501923 0.591834 3.02847
-0.869713 -0.0981506 3.06277
0.597268 1.30458 2.87135
-0.918793 0.775648 2.79802
0.241367 0.681294 3.12571
0.874651 -0.0695433 2.96912
-0.483368 0.806728 2.42395
-1.21793 -0.872987 3.3448
1.32867 -0.291898 2.81748
0.516255 1.17685 2.86914
0.256297 -1.23563 3.58206
0.73546 0.473739 2.92781
0.807913 -0.27171 2.99397
-0.314733 0.784313 1.94953
-0.343722 0.450003 2.98555
-1.46691 -1.05409 3.19644
0.376579 -1.08627 3.41735
1.27501 0.510472 2.82251
1.80539 -0.222731 2.75926
-0.568366 0.853002 1.88067
-1.42098 -0.965616 3.21573
-0.913704 0.512405 2.96231
-0.512192 -0.182048 3.06161
-0.413423 0.899507 2.65593
-1.27258 -1.25058 3.31785
-0.849425 -0.423663 3.19389
-0.798767 -1.25776 3.45513
0.698452 0.316869 2.92079
-0.400807 0.731203 1.99746
0.131893 1.12451 2.90892
1.82717 -0.362106 2.84799
0.70118 0.396305 2.91896
1.54376 0.943774 2.47698
-1.06224 -0.358512 3.23832
1.1622 0.348274 2.87828
1.66514 -1.12756 3.11728
0.457773 -0.591273 3.17123
0.903148 0.936748 2.88377
-0.181056 -1.46342 3.37539
-0.423478 0.232281 3.03398
0.43422 -0.549828 3.1628
0.228956 0.915746 2.97271
1.33536 -1.51095 3.57852
0.592916 0.175392 2.89391
-0.524072 -1.46699 3.64047
0.307806 0.292517 2.93521
1.55212 0.912975 2.60621
-0.524772 -0.497831 3.11821
-0.805149 -1.33122 3.42383
0.954814 0.260273 2.91372
0.349064 -0.463568 3.09401
0.432003 1.0075 2.96983
1.04071 -1.31221 3.51073
-0.505048 0.404964 2.97253
1.3758 -0.371786 2.85732
-0.483812 0.751168 1.93168
-0.360629 -1.23632 3.47451
-0.929901 0.362805 2.94105
0.718885 1.07234 2.85224
0.171034 -0.353537 3.07014
-0.710766 0.726115 1.81526
1.40742 -1.1205 3.18752
-0.568452 -0.305371 3.08393
-0.444792 0.445802 2.97027
0.0169053 1.00033 2.96009
0.821983 -0.540426 3.08044
-1.30299 0.281076 3.02212
-0.85835 -1.44419 3.52778
-0.824489 -0.484121 3.0666
0.111162 0.987098 3.03077
-1.2536 -1.33489 3.37454
-1.20164 0.232711 2.97583
-0.734355 -0.472411 3.23224
1.74277 0.294899 2.76624
-1.22386 -1.29099 3.36285
-0.617105 0.695417 1.95001
-0.580377 -1.29606 3.42557
-1.03526 0.305048 3.00146
-0.27901 0.749125 2.11718
0.972862 -0.421509 3.0204
1.24262 -1.657 3.56793
1.32079 0.132283 2.80642
-0.159759 -0.677043 3.25885
-0.690388 -1.55283 3.25848
0.600987 0.873621 2.94118
0.800603 0.104517 2.93042
-0.929195 -1.50556 3.40404
1.07526 -0.613913 3.04372
0.365522 0.849247 3.00233
-0.634492 1.13515 2.85884
1.51786 0.799096 2.59448
-0.641417 0.18837 2.98714
-1.39685 -0.591242 3.20202
-2.30699 -2.44226 5.48962
0.611328 -0.0342554 2.94772
-0.353304 0.783954 3.16956
-1.03915 0.11226 3.04586
-1.34986 -0.809769 3.19532
-0.746299 0.0090149 3.02033
2.16079 1.01002 3.04237
-1.00256 0.681248 2.9059
0.522855 -0.797874 3.24222
0.368446 0.0761209 2.93665
0.230529 -0.763118 3.27658
0.709884 0.795453 2.93302
0.0454329 1.32001 2.85232
1.22797 0.0259215 2.80548
0.877637 0.752432 2.90659
0.834034 -0.702738 3.15666
-0.233683 1.00447 2.74478
-0.321358 0.763748 2.97777
0.0885947 -0.806005 3.28641
0.35383 0.0287929 2.97091
-0.279432 0.568599 1.83388
0.409624 0.738605 3.03641
-1.11822 -1.03319 3.33581
1.04253 -0.742415 3.09846
1.71612 -0.0128798 3.11201
-0.0755366 -0.719816 3.26617
1.0374 0.0956548 2.87106
0.161433 0.846413 3.01792
1.37875 0.194669 2.01439
1.57354 0.698584 2.6073
-0.844097 -1.59814 3.44969
1.87047 -0.278226 2.7216
0.898761 0.0640349 2.91848
-1.01629 -0.683755 3.28112
1.49085 0.572595 2.6726
0.702529 -0.934529 3.28765
0.624093 -0.114372 2.9938
0.565233 -1.78236 3.7306
-0.958374 -0.884324 3.3341
1.42624 0.544612 2.70353
-0.622535 -0.0680427 3.07074
1.78258 -1.06049 3.00016
1.20424 1.24161 2.72863
0.100902 0.688609 3.00001
1.29732 -0.0455939 2.82367
-0.97316 -1.35311 3.41087
0.559133 -0.867564 3.336
-0.0428906 -0.269625 3.05168
-0.56364 0.777648 1.84839
0.678053 -1.14826 3.42827
-0.82364 0.524926 3.05267
-0.688723 -0.231246 3.09502
0.320456 1.18797 2.92135
0.654554 0.463506 2.9255
1.2605 -1.0408 3.21021
-0.914603 0.624577 3.23344
-0.197999 -0.192421 3.0549
1.28152 1.20453 2.69332
-0.882985 -1.02633 3.40353
0.447022 -1.00886 3.42473
0.943427 0.522951 2.89557
1.46817 -0.152935 2.78285
0.000739425 1.23032 2.72951
-1.16764 -1.17797 3.25931
-1.00723 0.395383 2.91775
-1.3304 -0.39815 3.1872
0.0652824 1.12844 2.92888
0.434707 -1.27569 3.54207
-1.38763 0.370538 3.00213
-0.54373 0.734232 1.95064
0.293575 -0.365625 3.08991
0.922809 1.10033 2.76785
0.906848 0.43145 2.93868
-1.35598 -0.326762 3.16853
-0.0387567 -1.20301 3.47546
1.35678 -0.22838 2.82087
-0.483744 0.824693 1.89043
1.15423 -1.0775 3.33254
-0.339887 0.548959 3.03803
-0.0378113 -0.196055 3.06113
0.757248 1.18223 2.81956
1.14993 1.24295 2.72779
0.81992 -1.01315 3.26337
1.27616 0.480919 2.84004
0.650262 -0.157636 2.99162
1.75892 -0.898849 3.02171
-0.0440549 0.660722 3.21301
-0.451121 -0.110885 3.04063
0.506681 1.31935 2.87503
-1.4067 -0.903221 3.23041
1.50121 0.510719 2.69541
-1.50475 -1.18762 3.29819
-0.809836 0.439785 3.00821
1.05747 -0.355972 2.93639
-0.472112 0.747648 1.89724
0.00237392 -1.19388 3.4404
1.62025 0.350009 2.68775
0.655762 1.11218 2.897
0.187888 -0.323256 3.08102
0.412074 -1.19044 3.56456
1.05715 -0.272351 2.8992
-0.51223 0.467918 2.95698
0.139187 1.17005 2.88301
0.382003 1.03394 2.96839
0.253049 -0.509856 3.12941
1.35494 0.268437 2.80706
1.02342 -1.43227 3.47574
1.3098 -0.450844 2.88801
1.02498 0.941574 2.78949
1.07709 -1.39452 3.4859
0.111609 0.258011 2.92292
-1.18319 -0.438917 3.20612
0.877036 0.349134 2.92044
0.546684 -1.38594 3.58687
0.00949699 1.08632 2.91801
-1.00613 -1.27428 3.46157
0.720527 1.03047 2.85525
1.62929 -0.367185 2.75846
-1.37809 0.325444 2.95922
1.72243 0.163525 2.74575
-1.27042 -1.42184 3.16121
1.48983 0.796038 2.60546
0.0716065 -0.639953 3.2097
-0.486912 -1.49098 3.47915
-1.17535 0.145745 2.95695
1.70081 -0.542979 2.79211
0.154608 0.877869 2.98398
1.25638 -1.60043 3.75234
-0.0913723 0.971642 3.02742
-0.0412755 -0.555307 3.16737
1.73175 0.202174 2.74677
1.49001 0.427112 2.70685
1.01218 -0.312205 2.94313
-0.638768 0.757717 1.86741
1.53527 -1.15671 3.26768
0.224978 -1.16061 3.50258
-0.20215 0.785191 1.96111
0.919093 -0.275 2.98411
-1.03093 0.454822 3.04756
-0.27325 -1.05941 3.34581
-0.883192 0.563884 3.08191
1.39289 -0.226772 2.83324
-0.567785 0.835244 1.87882
-0.54845 0.513354 2.97961
-0.489941 -1.08907 3.56818
1.08953 1.14264 2.70903
1.76639 -0.192961 2.80523
-0.362388 -1.33013 3.48114
0.257342 1.07922 2.96809
1.43923 -0.405933 2.84231
-0.216393 0.324768 2.97501
1.25123 1.05495 2.72737
0.0310221 -0.38907 3.0942
1.48661 0.389726 2.92902
0.248333 -1.31829 3.54831
1.41691 0.986772 2.62766
1.25704 -0.346872 2.86433
-0.986813 0.36266 2.96189
-0.881836 -1.20348 3.38299
-0.9402 -0.577934 3.15033
-0.100679 0.224298 2.97432
-1.00141 -1.42265 3.30924
1.28305 0.888872 2.75116
-0.32067 0.930404 3.0374
1.0125 -1.58471 3.746
1.74192 0.154673 2.74455
0.338163 -0.548724 3.13987
-0.601513 -1.63086 3.42236
-0.161906 0.293909 2.96608
0.936372 -1.5705 3.81949
1.04492 -0.485296 2.93615
-0.0817335 1.04592 2.99503
0.531894 -1.48917 3.74417
-0.328707 0.266307 2.97474
-0.215857 -0.469263 3.1567
-0.728359 0.676287 1.98476
-0.0146634 0.798711 2.97156
-0.6915 0.0772939 3.00815
-1.00199 -0.579438 3.27718
-0.690985 -0.736025 3.37572
-0.822781 0.668905 2.25702
0.454965 -0.665925 3.14726
-0.566271 0.145629 2.97127
0.379627 -1.64347 3.56879
-0.918432 -0.664159 3.389
1.34063 0.762677 2.70736
-0.508302 -1.55867 3.50559
0.480332 0.102411 2.92679
1.23527 0.924257 2.74629
-1.34141 -0.561384 3.2301
2.20017 0.971773 3.04391
-1.75037 -1.50448 3.52941
1.49215 0.248063 2.85814
0.482553 -0.516714 3.15552
-0.413754 0.684936 2.10552
-2.22352 -1.91726 4.62604
-1.12509 0.233411 3.05333
-0.836245 0.320761 2.96648
-0.998941 -1.37561 3.46272
0.368592 1.07388 2.96392
1.59858 -0.450692 2.86712
-0.761126 -1.32158 3.49444
-1.32937 0.309546 3.01652
-0.707714 0.69414 1.97161
-0.0416613 -0.439538 3.16198
0.884561 -1.70939 3.68048
1.25613 -0.648123 2.99797
-1.37872 0.118659 3.08407
-0.571049 0.834083 2.94876
1.2995 1.03268 2.72534
1.31978 -0.585338 2.86285
-0.665245 0.643281 2.07408
1.18228 -1.7197 3.78445
-0.208644 0.182356 2.97652
0.495444 -0.605246 3.21582
1.08488 0.833421 2.82733
1.68557 0.122851 2.77432
-0.0786235 -1.57578 3.62939
-0.0616665 0.721654 2.95905
1.1712 -0.0424201 2.84427
0.0867054 1.28038 2.76926
-0.561015 0.00415877 3.03717
1.41125 -0.773545 2.93604
-0.915681 0.674446 2.93904
2.28369 0.936356 3.20507
0.887673 -0.786363 3.16533
1.45558 0.0604057 2.87992
-0.561953 -0.765695 3.28782
-0.326596 0.811298 3.01707
0.802861 -1.55184 3.7311
-0.935249 0.041765 3.06704
-1.10954 0.229129 3.0297
-1.00851 0.775297 2.99947
0.0347161 -0.716448 3.24776
-0.101228 -0.980097 3.3681
0.314537 -1.72296 3.62573
-0.193545 -0.151418 3.03934
0.0701305 1.2372 2.78096
0.970207 0.556825 2.90402
0.265888 1.33391 2.90747
1.82404 0.88418 2.55452
-1.16353 -0.109106 3.12657
-0.512367 0.658416 3.04141
1.50315 -0.823382 2.844
-0.286007 -0.072257 3.04319
1.66469 -0.806031 2.90308
1.22731 0.564661 2.80554
-1.25618 -0.910625 3.26698
-1.30577 -0.114594 3.10074
1.80892 0.505211 2.65692
0.200213 0.587901 2.93132
-0.650363 0.703271 2.20442
0.59099 -0.0788061 2.95209
0.518456 1.28944 2.87795
-0.615804 0.695198 3.04194
0.266563 -0.905518 3.32692
-1.26544 -0.0421404 3.08051
1.04153 -0.863707 3.28242
0.618364 0.636267 2.99187
-1.28927 -0.287711 3.19929
-0.745702 0.752392 1.79274
-0.740499 -1.12001 3.4003
-0.292327 0.504141 2.97798
-0.214702 -0.23507 3.07984
0.437843 1.1714 2.88444
-3.40985 1.10839 7.05097
0.594579 -1.09501 3.39227
-0.789565 -1.05276 3.45827
1.00871 0.55125 2.91119
0.66825 -0.200072 2.97336
-0.32226 0.800773 2.09879
0.0591492 0.536049 2.96961
1.14957 -0.990986 3.29954
-0.30506 0.898205 1.93697
-0.765062 -0.154166 3.06855
0.870895 -1.38196 3.68683
-0.98484 -0.395036 3.15375
-0.0790826 0.35696 2.9775
-0.762932 0.706307 1.89747
1.76117 -0.347821 2.73405
1.61415 1.00493 2.54389
1.55482 0.366956 2.51135
-1.07433 -1.10003 3.09171
-0.671716 0.733013 1.92055
0.413642 -0.329668 3.08758
-0.265589 0.387488 2.92848
0.495228 -1.29255 3.69398
0.140018 -0.559695 3.16388
-0.238666 0.257672 2.98058
-0.736645 -1.45796 3.52486
1.68665 0.856331 2.55921
1.38917 0.848962 2.64883
-0.92822 -1.39539 3.48539
-0.0550835 0.218817 2.95273
0.883397 -0.510799 3.05423
-0.697003 -1.35328 3.44417
-0.794751 0.325916 3.00494
1.13628 -0.45069 2.89129
0.690665 1.03233 2.87025
-0.142742 -1.36755 3.56941
0.0858127 0.283074 2.91133
-0.760101 -0.429124 3.13952
0.625739 1.00561 2.89245
-1.3923 -1.14101 3.16723
0.0584841 0.424485 2.9363
1.16435 -0.357666 2.89269
-0.784899 0.730852 1.8483
0.589239 -1.23881 3.52479
0.269588 0.377518 2.90616
-0.827717 0.716452 1.85854
1.0916 -0.320052 2.89342
0.204525 1.1894 2.94046
1.36448 0.436628 2.81017
-0.483749 -0.282798 3.08309
-0.663267 -1.11626 3.37681
1.34362 -0.483739 2.84706
-0.491105 0.701573 2.02319
1.23186 0.272339 2.86561
0.5254 -1.51518 3.67711
-1.38019 -0.494313 3.24437
0.635162 0.978854 2.91653
-0.954466 -1.39211 3.55923
0.665028 0.246997 2.93472
-0.623027 0.353029 2.95365
1.40356 -1.32477 3.36542
0.0458021 1.08044 2.91873
-0.658377 -0.436573 3.16021
0.631965 0.307816 2.9229
0.426932 -1.30599 3.49758
-0.79603 0.684459 1.88429
0.565977 -0.399111 3.05622
-0.0689267 -1.5833 3.52731
-0.536601 0.178889 2.97181
-1.44068 -0.614741 3.04716
0.785097 0.875905 2.87077
0.8699 0.129638 2.91391
-0.80886 -1.44977 3.35503
0.374582 -1.74562 3.63813
-0.564337 -0.577798 3.09791
0.361178 0.873088 2.97774
-0.45206 0.678813 2.10565
1.32656 0.197156 2.80399
1.27637 -0.537419 2.93352
0.791845 -1.72119 4.03877
1.34644 0.694679 2.7369
2.258 -0.195671 3.57872
-0.281463 0.0317098 3.01186
0.405883 -0.818891 3.31572
-0.254019 0.747177 3.0861
-0.0881695 1.10478 2.94384
0.712016 -0.0159971 2.94461
-0.813931 -0.804978 3.42042
0.918753 0.0956212 2.90717
1.67685 -0.768059 2.55868
1.04077 -0.688746 3.04345
-0.113012 0.849157 3.05195
-0.26145 0.0672128 3.03021
-0.807357 -1.60305 3.44705
1.86284 -0.499175 2.75124
1.65625 0.708947 2.65614
-0.930888 -0.692526 3.29547
-0.196368 0.768722 2.10857
-0.577379 0.325486 3.0113
0.469187 -0.430151 3.06189
-1.05064 -1.25213 3.29652
0.980631 -0.391016 2.99615
-0.346634 0.766223 1.98102
1.33512 -1.23675 3.27168
0.598238 0.385717 2.95502
0.705231 -0.36394 3.03274
1.45045 0.984031 2.6403
1.49324 -1.23416 3.35983
0.516142 0.342064 2.88335
0.804654 -1.72698 3.91568
1.1883 0.202957 2.81796
0.157181 -0.599275 3.18674
-0.362012 0.918267 2.7804
-0.174948 -1.51667 3.61798
0.970479 0.163665 2.87819
1.59032 -0.503469 2.76331
1.0823 0.865321 2.82964
1.41567 -1.4119 3.38965
1.42544 0.266755 2.78833
0.658555 -0.515989 3.12545
-0.33161 0.726409 2.06491
-1.45773 -1.23005 3.06677
-1.37964 0.282463 3.08954
-0.764367 -0.472682 3.18002
0.381941 0.99435 2.96298
0.137562 0.812664 3.03983
-2.48476 -1.26761 5.22427
-0.100307 1.32773 2.89586
0.450242 0.0646057 2.94444
-0.522163 0.773272 3.02256
-0.307669 -0.714473 3.23631
-0.172071 0.0338951 2.99741
1.06657 -0.659545 3.04656
-0.506591 0.808822 2.76364
-0.0872168 -1.69275 3.63665
1.73318 0.11809 2.74837
1.84633 -0.327581 2.72448
1.56647 -0.591356 2.85933
-0.516885 0.840371 3.00183
-0.471059 0.107963 3.01063
0.710358 -1.75084 3.87753
0.739905 -1.59371 3.75322
0.408881 -0.887607 3.26816
-0.998346 0.78664 2.84642
-0.829224 0.704887 3.05935
-0.860732 -0.0672969 3.06191
0.0371792 -0.846324 3.28292
0.558065 0.637023 2.96955
-0.579027 -0.0370823 3.06366
1.26627 -1.79479 3.71663
-2.15819 -1.1022 4.39083
-0.283758 0.883733 2.43393
-0.30451 0.952959 2.74774
0.130242 -0.00588304 2.96421
-1.13198 0.724386 2.94486
-3.14285 -3.24878 6.92852
1.09578 0.781895 2.80484
1.46377 -0.64054 2.92314
-1.18674 0.118998 3.13699
-0.101769 -1.69848 3.5255
1.24743 0.830047 2.73318
-0.198823 -0.647832 3.26033
-0.072405 0.177152 2.96947
-0.879473 -1.52634 3.42641
1.2075 -0.585814 3.02734
1.43106 0.762044 2.61298
0.183952 -1.53039 3.52656
-0.234618 0.14029 2.99276
-0.214318 1.16527 2.95548
0.294657 -0.0416541 2.96536
-0.233473 -0.00667707 3.04847
0.0157651 1.19262 2.88058
1.44017 -0.77346 2.91409
0.139422 0.734955 3.02822
2.32426 -1.52616 4.21113
1.15907 -0.781053 3.1123
-1.16223 0.670174 2.89067
0.318017 -0.787209 3.31392
1.78332 0.0594246 2.76887
-1.00428 0.79265 2.91933
1.52979 -1.50042 3.45113
1.64143 -0.827721 2.7296
1.61119 0.0261582 2.67378
-1.33561 -0.718932 3.27628
1.71726 0.700536 2.71444
0.247032 1.27255 2.91889
-1.19936 0.534979 2.76319
1.27774 1.14589 2.68264
-1.02012 -0.158169 3.15297
0.295445 -1.00383 3.40072
1.8666 0.992354 2.54819
-0.070873 -0.112946 3.03622
0.192701 -0.935 3.31502
-0.717788 0.640781 2.98937
-1.20111 -0.0739962 3.10071
-1.07136 0.590061 2.90579
1.32093 -0.847376 3.04403
-0.917876 0.466833 2.96074
-0.74449 -1.1688 3.40109
1.6031 -0.297401 2.73645
0.836933 1.13609 2.79618
1.49946 0.391045 2.7318
-1.04977 -1.07859 3.30784
-0.301635 -0.276439 3.06581
-0.0924804 0.832476 2.11994
-0.0198336 -1.07899 3.39418
-1.09348 0.532945 2.93606
-0.519486 -0.234875 3.08049
-0.458283 0.873202 1.89729
0.188928 -1.11294 3.61932
-1.71161 0.622165 3.63977
-1.04449 -0.197159 3.11275
-0.136412 0.84262 2.00492
0.39144 0.483895 2.93375
1.26855 -0.280045 2.86553
-0.156334 0.839289 1.99258
-1.11459 -1.09888 3.324
-1.31312 -1.03599 3.25759
0.753605 1.13661 2.81019
1.56779 -0.24747 2.85098
-1.10344 0.460743 2.92463
0.804097 -1.0741 3.42213
-0.954982 0.557577 2.95485
-1.35381 -0.207174 3.08635
-0.607946 0.841751 1.87088
1.38423 0.498669 2.81128
1.18167 -0.968628 3.22397
-0.892589 -0.162026 3.0966
0.950157 1.03415 2.79847
0.132179 1.33031 2.88447
1.06591 0.339875 2.90133
-1.06383 -0.405686 3.16621
0.626223 -1.30821 3.48053
-1.35572 -0.38201 3.17953
0.311309 1.1813 2.97549
-1.37073 -1.16416 3.25189
1.79681 0.400642 2.79324
-0.267649 0.775308 2.01052
0.504102 -0.331267 3.03826
0.403637 -1.24283 3.53232
1.50365 0.345482 2.74587
-0.0104116 -1.53597 3.63592
-0.792536 0.256615 3.0296
1.51575 -0.507334 2.7317
-0.694507 0.66973 2.04262
0.807284 -1.71793 4.13181
-0.757666 0.217103 2.95113
0.763668 -0.519523 3.07512
-0.769362 0.64648 2.0337
-0.337084 0.317611 2.9655
1.40923 -1.67936 3.55657
1.40898 -1.52531 3.74094
0.919209 -0.47405 3.02528
-0.00293824 1.05069 2.93645
0.442615 -1.41294 3.62704
0.841758 0.274085 2.9051
-1.03086 -0.438148 3.17508
1.67102 0.877592 2.56611
1.64953 0.742824 2.67396
0.0406511 0.0992998 3.0019
-1.4031 -0.674426 3.15296
0.579512 0.896254 2.9466
0.131365 -0.650106 3.21667
0.636726 0.164668 2.90282
-1.04761 -1.5518 3.44299
1.26065 -2.02019 4.11628
0.990539 -0.591608 3.04847
0.739135 0.845602 2.89701
0.484253 -1.64829 3.76194
-0.747018 0.13924 2.99135
-0.278682 0.971916 2.38086
0.284821 -0.526047 3.12877
0.165573 0.278931 2.9298
-0.186927 -1.46356 3.56423
0.887038 0.979003 2.85049
-1.34522 -0.497317 3.22934
-0.198206 0.984163 2.96938
0.0998633 -1.39655 3.48888
-1.38794 0.255317 3.01369
-0.533074 0.356597 3.00647
-0.341252 -1.35883 3.53237
-1.43299 -0.458204 3.19718
-0.342576 0.746526 2.00972
-0.47356 -1.31416 3.54096
0.332886 0.306513 2.92654
-0.527805 -0.416694 3.25106
1.30771 0.980968 2.73841
-0.280476 -1.63233 3.63736
1.44543 -0.595122 2.84705
0.953241 0.12404 2.90188
-0.375821 0.891929 3.05234
0.629643 -0.606081 3.15439
0.977628 0.910886 2.85788
0.0422135 -1.54033 3.53334
1.6484 0.185464 2.70153
-0.96476 -0.564779 3.15285
-0.798739 0.638245 2.10681
-0.290699 -1.48823 3.54444
-0.311938 0.174131 2.97144
1.19648 0.0127149 2.79107
1.5372 -1.018 3.28522
1.26042 -0.765649 3.01324
-0.237311 0.772981 3.04938
-1.19387 -0.768047 3.28022
-0.0230881 0.731055 3.04268
-0.276481 1.04846 2.86695
0.156499 -0.0146494 2.96447
-0.767187 0.107653 3.02848
-0.723058 0.822406 2.95751
1.00743 -1.74424 3.68477
-0.475073 -0.737946 3.27701
1.62329 0.601115 2.54735
-1.19012 0.0685395 2.97234
0.493747 -0.694058 3.21354
0.40181 0.799882 2.9942
1.29703 -0.890136 3.05677
1.00062 0.583854 2.92838
-0.546798 -1.61757 3.44876
-0.462809 0.717303 1.93727
1.43218 -0.128636 2.75469
1.92065 0.442709 2.6487
1.18948 -0.0821025 2.77368
0.854759 0.659248 2.90925
0.977246 -0.921867 3.32322
-0.0406392 -0.0488108 3.01935
-0.678439 0.632412 2.98123
0.43764 1.30177 2.88255
1.74223 -0.735056 2.76298
0.256929 0.211573 2.9622
1.04905 -1.5747 3.57031
0.615862 0.94177 2.94526
-1.39357 -0.632391 3.33365
-1.20995 -1.41337 3.36826
-0.408308 -1.59065 3.42856
1.41868 0.157799 2.83824
-0.144915 -0.558626 3.14263
-0.46008 0.8907 2.89399
-1.08899 -1.32682 3.30135
0.896759 -1.78335 3.64982
-0.911543 -0.50687 3.14494
-0.0104486 0.248028 2.94914
-0.309023 0.744246 2.19631
1.23572 0.74112 2.77077
1.41076 -0.729535 2.98157
0.805841 0.057074 2.89646
-0.163177 0.952593 3.02014
-0.734004 -0.734711 3.29236
1.15802 0.720977 2.83418
-0.836464 0.0348695 3.06806
-1.22277 -0.714807 3.39058
1.75582 0.11124 2.74011
-1.2191 0.831896 2.82223
-0.274556 0.840691 3.01949
1.82927 -0.533561 2.79117
-1.18534 -1.561 3.4518
-0.307857 0.103229 2.95694
1.00219 -0.622992 3.02828
1.14251 -2.12673 4.83416
-0.545975 -0.950819 3.52449
-0.0279036 -0.0749132 3.00945
-0.504026 0.701651 3.08142
-0.330065 0.656283 3.07859
1.20115 -0.82848 3.12084
-1.17994 0.0101946 3.09088
1.0804 -0.0515044 2.87984
1.74916 0.985249 2.54532
-1.60794 -0.83297 3.34436
1.30005 0.664986 2.77397
-1.04972 -0.00816858 3.05202
1.86993 0.517122 2.64265
-0.386056 -0.239441 3.05805
-0.0155579 1.22639 2.64658
-1.34772 -1.00967 3.16885
0.69712 0.524907 2.95091
0.982231 1.15848 2.76956
0.00651994 -0.202381 3.04867
1.03173 1.22786 2.75272
0.146754 0.489463 2.91892
-1.286 -1.05581 3.40002
-0.591711 0.629871 3.11397
1.12238 -0.157943 2.83304
0.97589 -0.97861 3.26329
-0.148553 -0.952664 3.39827
0.313678 1.26804 2.90543
0.909491 -0.122399 2.94051
0.0206452 0.583023 3.0415
1.87378 -0.548135 2.76304
-0.387169 -0.866135 3.35497
0.4547 -0.0169367 2.97888
-1.04965 -0.0402972 3.11146
-0.751883 0.7213 3.00169
-0.151445 -0.814802 3.31747
1.09749 0.655621 2.89356
-0.775466 0.0748365 3.05824
1.89559 0.142146 2.74216
-1.13768 -0.787706 3.34771
-0.77722 0.799162 3.00818
-0.342283 0.0280843 2.97312
-1.01899 0.783415 2.83075
0.951937 0.731507 2.87475
1.12025 -0.696077 3.01748
-0.603357 -0.203237 3.10321
-0.654658 0.793302 1.86477
-1.82991 -1.1823 3.78325
0.192711 0.548075 2.91106
0.909297 1.206 2.77852
1.53911 -0.164747 2.81116
-0.595437 0.827256 1.87271
-0.991027 -0.974201 3.35144
0.886436 0.241923 1.36439
-1.0417 0.789633 2.85292
-0.417272 -0.116371 3.01509
-0.584305 0.643694 3.03751
0.276516 -0.966023 3.39633
-2.66445 -0.26506 5.76574
1.3964 -0.801957 2.87193
-1.21517 0.590349 2.90006
0.135951 0.457217 2.92833
1.49603 -1.1623 3.24426
-0.849591 -0.335366 3.18044
-0.661927 0.745041 1.84559
1.40736 -1.15955 3.38565
-0.0988179 0.429301 2.97098
0.815598 1.11295 2.82551
-1.07366 -0.285375 3.14982
-0.564398 -1.14306 3.57968
1.40704 -0.231732 2.75146
1.69393 0.471504 2.85783
0.355488 1.21429 2.90201
0.992536 0.998251 2.7786
-0.998786 -0.462707 3.09405
-0.14757 0.31721 2.9742
-0.54298 -1.36747 3.45658
0.838224 0.978328 2.83396
-0.466959 -0.449664 3.24455
1.13087 -1.33472 3.39967
-0.898196 0.290462 3.00438
0.363556 -0.407562 3.11982
0.677491 1.10148 2.88841
-1.15393 -1.23057 3.34333
0.469463 0.372761 2.89041
-0.650034 0.719997 1.92824
0.369463 -0.376245 3.13267
0.114933 -1.28458 3.56135
1.56091 0.306803 2.68357
0.167143 1.0832 2.94951
0.978599 -0.443503 3.01224
-1.14966 0.352317 2.99076
0.701529 -1.41115 3.60495
-0.479905 0.715394 1.98404
1.50367 -0.383885 2.78383
0.514214 -1.36735 3.62188
-0.425471 0.310385 2.95262
0.648159 -0.365314 2.96388
-0.361401 0.764057 1.94932
0.0934207 -1.294 3.56413
-1.2358 0.430225 2.99415
1.57473 0.983655 2.55912
-0.270658 -0.335893 3.11579
1.36491 -1.19884 3.33643
0.183342 0.371693 2.91894
1.07768 0.23297 2.89783
-1.04141 -1.38258 3.27542
-0.377589 0.708805 2.11913
1.51513 -0.540682 2.87715
0.615238 -1.53471 3.71416
0.645147 0.200865 2.90741
-0.594284 -0.531127 3.20833
-0.588185 0.654605 2.05026
1.24894 -1.49285 3.65804
1.57071 -0.450509 2.75574
1.00788 0.269966 2.91265
-0.250898 0.906655 2.58451
1.29631 -0.680395 2.90654
1.39552 0.750699 2.71626
1.71207 0.0889262 2.76223
-1.1771 0.737237 2.73776
1.36133 -0.660865 2.98517
1.65397 0.0432999 2.81362
0.740942 -0.646449 3.12723
1.06728 0.154958 2.84656
1.43724 -1.66761 3.62669
-0.829811 0.632459 2.08632
0.67819 0.859354 2.95904
1.35398 -0.572146 2.89602
2.40781 -0.965718 3.83142
-0.595407 0.132264 2.99975
1.21452 -1.69818 3.83201
-0.277238 1.08585 2.45641
0.875296 -0.856794 3.23145
-1.16591 -0.0155882 3.0874
0.518921 -1.47176 3.5715
-0.0763586 -0.0509542 3.02061
1.35082 0.647602 2.7201
-0.199364 -0.808447 3.28718
1.47187 0.610903 2.74035
0.74098 -1.88569 3.97005
1.00182 -0.787811 3.2401
1.9038 0.375675 2.67774
1.59243 -1.4836 3.40189
1.64025 0.00929916 2.75909
0.0480564 0.763512 3.03527
-0.760495 0.626127 2.15697
-0.21021 -1.68183 3.60839
-1.3247 0.139514 3.08831
1.64983 -0.606245 2.84833
0.209445 -1.68442 3.70359
-0.478482 0.679734 2.12436
-0.227626 -0.613043 3.20059
-1.05933 0.217397 3.02874
1.1434 -1.49493 3.36526
0.934664 -0.559784 3.02158
-1.1393 0.745894 2.45969
-1.16404 -1.40434 3.32469
-0.720661 0.171795 2.95459
1.09135 -0.789484 3.10944
-0.868443 -1.26588 4.48825
0.912638 0.0148656 2.90936
1.49431 -0.0296798 2.80076
1.26608 0.696683 2.78024
-0.599483 -0.756882 3.20167
-0.251984 1.08073 2.45388
1.14757 0.679742 2.84397
0.0114581 0.0935483 2.97483
1.56844 -1.37761 3.19725
0.795083 -0.7333 3.17157
1.12228 0.776681 2.80999
0.960054 0.0479659 2.90328
-0.525982 0.78032 2.26796
0.498559 0.774966 2.92071
1.66393 -0.632963 2.82272
-0.384347 0.607261 3.04439
1.82676 1.03905 2.55017
1.36197 -0.127864 2.71047
-0.0471997 1.07 2.40805
1.37294 -0.905852 3.08967
1.89047 0.0829264 2.72152
-0.319435 0.687066 3.05884
-0.542784 -0.0843994 3.06795
1.40913 -0.851164 3.01682
1.7372 -0.0567762 2.77601
-0.085895 -0.875742 3.333
1.4605 0.560719 2.68756
1.02832 -1.13184 3.30875
0.568169 0.481756 2.93836
0.503307 1.25998 2.87759
0.737511 -0.290575 3.03426
1.00798 1.14535 2.75054
1.47432 0.426335 2.79985
-1.15139 -1.04519 3.28669
-0.722534 -0.244361 3.05005
0.722046 1.15491 2.86343
-0.594543 -1.11285 3.60016
1.32685 0.516922 2.79137
-0.788556 -0.205002 3.05827
-0.159819 -0.996033 3.36396
-0.767689 0.536557 3.04106
-1.43871 -0.171181 3.088
-0.443713 0.899866 1.87767
-0.114256 0.793244 2.98651
-0.360981 0.843172 1.92765
1.30646 -0.731233 2.97869
1.09638 0.0499972 2.82735
-0.588573 0.769098 3.03842
-1.35773 -0.725996 3.21653
-0.0447559 0.0236124 2.95791
-1.41057 0.136623 3.05333
1.95042 0.70782 2.583
-0.734572 -0.691784 3.26489
-0.66917 0.857397 2.89341
-1.1116 0.112698 3.12218
-0.443625 -1.60905 3.56746
0.270646 -0.0857754 0.144047
0.637188 -0.653834 3.18795
1.50477 0.728261 2.63323
1.10977 -0.859328 3.08794
-0.185156 0.67171 2.95221
1.86895 0.106661 2.72906
0.974636 -0.0817895 2.91549
-1.28941 -0.824192 3.18784
0.782636 0.617044 2.93258
-1.47618 -1.58449 3.36436
1.48491 -0.0583392 2.84358
1.52475 0.378915 2.28268
1.79331 0.956626 2.54227
-0.861552 0.713455 2.97693
-1.00502 -0.00448218 3.07337
1.18234 -0.776867 3.07375
-1.09396 -0.249879 3.14157
-0.548552 0.819918 1.88862
0.786012 -1.09296 3.35308
1.6821 0.453997 2.60452
0.976334 -0.209516 2.93166
-0.716879 0.781934 1.86342
-0.125541 0.684598 1.64051
-0.576176 -1.05272 3.41419
-0.392356 0.497164 2.97478
-0.488524 -0.995533 3.36422
0.0963838 0.60152 2.99742
-1.46778 -0.167418 3.0931
-0.997568 -0.919458 3.28913
0.515094 0.540365 2.89719
-0.679073 -0.122757 3.0502
-0.653145 0.857668 1.86069
1.37617 -1.22832 3.3239
0.331427 -0.374876 3.09485
1.28512 0.362419 2.84571
-0.540035 0.74827 1.9445
0.048576 -0.331149 3.06447
-0.315016 0.790245 1.968
-0.557081 0.464081 2.97804
-1.52238 -1.14864 3.26503
1.00424 1.12053 2.84694
0.117947 -0.28715 3.06147
1.82278 0.393695 2.7869
0.539699 -1.19288 3.53079
-0.251467 -0.210392 3.08248
-0.262611 0.869326 1.95665
0.442717 -1.07258 3.43287
0.377595 1.34798 2.89666
-0.859754 0.599913 3.162
-0.283234 0.921988 1.9355
1.76094 0.730675 2.59724
-0.439566 -0.167336 3.08
0.277687 0.516391 2.93351
0.207618 -1.05391 3.54533
-0.199618 0.654138 3.08456
-0.554427 -0.130119 3.07566
-1.3227 -0.922027 3.26124
-0.491441 -0.95894 3.50684
-0.0713279 -0.0823673 3.02438
-0.129946 0.603381 2.99431
0.726253 -1.23249 3.4804
1.73151 0.420771 2.696
0.968358 -0.325171 2.90977
1.48352 1.02877 2.52998
0.484359 0.409795 2.91282
1.36035 -1.15135 3.34073
1.13178 -0.280326 2.8541
0.104026 1.13443 2.90264
1.19647 1.12641 2.69484
1.5402 0.436969 2.70259
0.98722 -0.25016 2.93604
0.198209 -1.11795 3.4596
0.883673 -0.486013 3.06887
-0.0596555 1.0696 2.98448
1.54253 0.276552 2.71417
-1.07499 -1.30943 3.3488
-0.961912 -0.461074 3.25303
-0.0430513 1.02421 2.96938
-1.44797 -1.19888 3.08482
1.72103 0.252223 2.6809
-1.12941 -0.421153 3.25361
0.078143 0.375602 2.91509
1.52718 -1.31649 3.42717
0.279054 1.13418 2.97425
1.61534 -1.1954 3.21675
-1.48035 -0.385226 3.21888
-0.758138 0.70642 1.89606
0.180561 0.342517 2.92544
0.565698 -1.57931 3.6087
-1.2695 0.222942 3.02592
-1.4303 -0.605547 3.1667
1.57753 0.82162 2.59635
0.514945 -1.59311 3.74294
-1.1059 0.171329 2.92567
1.5128 -0.568431 3.05557
1.41155 0.812895 2.69925
0.986403 0.94703 2.85712
0.598849 0.238035 2.90896
0.0510176 -0.532443 3.17545
-1.35806 -1.32646 3.25689
0.634081 0.231289 2.92941
-1.18207 -1.36405 3.22739
0.184669 0.981852 2.99228
0.677408 -0.576728 3.12494
-0.413554 -1.47828 3.57668
-0.823092 0.209788 2.96635
-1.27442 -0.541749 3.25634
-0.269002 0.951772 3.02603
0.114321 1.01201 2.96096
-1.03163 -1.62978 3.45937
0.437054 0.270474 2.90695
-1.06118 -0.485758 3.09076
0.308206 -1.47404 3.64684
-1.12888 0.77059 2.76615
-1.08073 -0.765955 3.33729
-0.230852 0.0936273 3.01954
-0.0477047 -0.701596 3.24754
-0.0434683 0.784015 2.98201
-0.725675 0.0626041 3.02283
0.371921 -0.649767 3.1562
-0.114759 0.166404 3.00975
-0.33942 -1.59384 3.52051
-0.17754 0.898736 3.01932
0.0902977 0.70482 3.34377
-0.743605 0.861899 2.93904
-1.03317 -1.46144 3.30643
1.41722 0.111745 2.86859
1.44826 -0.586311 2.94348
-0.298409 0.858929 1.9311
-0.854331 -0.997631 3.7705
-0.958014 0.699852 2.944
-0.152808 -0.0511403 3.01559
1.51094 -0.681115 2.66972
-0.97405 0.728643 3.25019
0.30719 -0.0197776 2.97114
-0.212204 1.01318 2.76517
1.8185 0.351441 2.6719
0.70746 0.73915 2.956
-1.20406 0.0249272 3.09143
1.51559 0.406715 2.27159
1.46141 -0.725891 2.93771
0.435461 -0.212771 3.00016
-0.129502 0.942663 2.14989
0.352797 1.28059 2.89887
-0.45675 -1.09296 3.48553
-0.987684 0.55402 2.96334
1.33489 -0.172017 2.80561
-0.633037 0.807645 1.86557
1.69799 1.11181 2.56109
-1.10889 -0.967978 3.26557
-0.359236 0.524101 2.98533
-0.592558 -0.983396 3.43431
-1.12846 0.606026 2.8669
-1.03534 -0.132677 3.16647
1.7134 -0.794403 2.8063
1.56903 0.528874 2.69812
-0.746991 -0.0843219 3.01772
0.685633 -0.80818 3.18514
1.05371 0.0106682 2.89817
2.55709 0.00386401 3.78261
0.934891 -0.026815 2.90299
-0.30426 0.771388 3.08663
0.221512 -0.788264 3.27851
1.03476 0.68578 2.8855
1.85746 -1.40646 3.26873
-1.38592 -0.723442 3.14278
-0.869566 0.766737 2.65009
-0.363389 0.0513474 2.97436
1.35148 0.711914 2.72576
-1.38726 -0.173111 3.08305
1.35576 -0.940082 3.06866
-0.39954 0.58942 2.98422
1.90059 0.587058 2.63333
1.55068 -0.138982 2.7568
-0.547124 0.855084 1.88399
1.88364 0.366488 2.66548
-1.43748 -0.910697 3.17817
0.615627 0.543914 2.93669
0.871648 -0.0949323 2.96999
1.39736 0.598559 2.71653
-0.103795 -0.916122 3.33052
0.784743 1.27956 2.83385
0.643549 -0.0602905 2.95253
-1.40452 -0.824811 3.13209
1.7415 0.561785 2.71615
1.15645 -1.1656 3.38212
1.74932 0.449847 2.74466
0.0748293 -0.293328 3.06709
-0.451032 0.775919 1.86275
-0.704768 0.472177 3.06674
0.09965 -1.1546 3.54951
0.000273956 0.844452 2.09144
0.473473 -0.259097 2.98334
1.5905 -1.00237 3.13505
1.66414 -0.20685 2.73345
0.619695 0.510013 2.93522
-0.691954 0.71162 1.91368
1.33198 -0.416794 2.75723
0.973629 1.02441 2.78884
1.30136 -1.37239 3.44748
1.40625 0.313337 2.80501
-0.258147 -0.416838 3.15783
0.526874 1.0341 2.91917
0.333153 -1.32082 3.49553
0.24607 0.302178 2.9323
1.55428 0.364959 2.64902
1.28292 -0.365376 2.87065
0.699065 -1.28825 3.50195
1.1935 1.06849 2.73165
-0.621011 -1.19715 3.43396
1.817 -0.338069 2.827
1.34462 1.01664 2.68077
1.23397 0.356863 2.86503
0.774116 -0.89908 3.22359
1.56105 -0.0949093 2.85107
1.93199 0.000323432 2.73698
0.0836018 0.658974 3.12616
1.04403 -1.75229 3.69285
1.26396 -0.05847 2.79779
1.65201 1.14291 2.56437
0.368995 0.723733 3.02654
-0.48304 -0.87566 3.34212
0.784468 -0.0230465 2.92837
-1.2318 0.657128 2.88305
0.228564 -0.83212 3.31162
1.32855 0.499178 2.86052
1.24775 -0.244149 2.79152
-0.262005 0.878341 1.97248
-1.22837 -1.05677 3.3061
-1.27342 -1.01478 3.30419
-0.383125 0.779096 2.02934
0.843059 1.16861 2.80576
1.55986 -0.216615 2.87992
-0.467991 0.49759 3.00396
-0.678827 -1.00133 3.4071
-0.898634 0.596521 2.99914
0.0587001 -0.168602 3.03506
0.274355 0.550819 2.93346
-0.293653 -0.94787 3.33959
-0.607955 0.872411 1.88271
0.511072 -0.133441 2.96344
0.905973 1.06368 2.78943
-0.64945 0.384647 2.99685
-1.00594 -0.371999 3.14344
-1.15787 -1.21301 3.34447
1.61357 -0.327362 2.85055
-0.474812 0.756778 1.87749
1.12897 -1.21883 3.42139
0.59978 0.450442 2.92539
-0.76635 0.7273 1.85147
-0.512885 -0.289727 3.08148
0.805762 0.411178 2.93299
1.00916 -1.20435 3.50913
1.47299 -0.490423 2.81274
-0.585943 0.28333 2.97839
-0.444504 -1.4411 3.51844
1.08478 0.953593 2.77709
1.36649 0.889198 2.69985
0.971513 -1.53424 3.77379
-0.320234 0.245524 2.99372
1.26459 -0.480302 2.94905
-1.41191 -1.22748 3.1667
-1.09426 0.348625 2.94983
0.398198 -0.447347 3.09218
-0.695664 0.720306 1.93799
-0.17695 -1.33469 3.57474
1.0044 0.295368 2.93544
1.0642 -0.396702 2.93222
0.172104 1.03605 2.91672
0.739783 -1.16609 3.27745
0.993291 0.445391 2.91945
0.0223929 -0.338812 3.07773
-0.529577 0.423158 2.99121
0.379421 -1.20405 3.54074
1.01973 1.08967 2.78139
-0.994195 -0.292343 3.13421
0.216842 1.20881 2.89057
-0.842414 0.499781 3.0222
-1.3126 -0.258394 3.14438
1.55097 1.02693 2.55174
-0.956675 -1.02368 3.1619
-0.244734 -0.496349 3.1607
1.3548 0.95602 2.69277
0.597368 0.29659 2.9087
-0.871227 -1.40748 3.52766
-1.30651 -0.452151 3.15984
1.47229 0.882141 2.57926
0.402757 -1.38807 3.55169
0.872447 0.265688 2.89298
1.66153 0.334752 2.67061
0.907549 -1.32541 3.49287
-0.185149 0.790448 2.06965
0.23472 -0.409812 3.10008
-1.07447 0.352164 3.02482
1.26424 -1.24839 3.3593
1.11921 1.01454 2.75947
1.59708 -0.361904 2.83133
-0.967213 -1.48667 3.41114
-1.33858 -0.644854 3.37301
0.394961 0.16097 2.92324
-0.401075 0.904831 3.01406
-0.478522 -1.60469 3.41447
-1.44955 -0.579636 3.18469
-0.852529 0.668017 2.01882
0.815886 -1.53201 3.5737
-0.832594 0.24132 2.98526
-1.00049 -0.544175 3.21812
1.67484 0.806164 2.55438
0.810269 -1.57545 3.78573
1.24461 0.187942 2.80511
-0.0369556 0.0535915 2.96029
-0.229832 1.06848 2.45275
0.994373 0.764279 2.89243
1.68417 -0.712487 2.8626
0.98532 -0.73711 3.15557
0.025453 0.758075 3.03188
0.683712 0.0149833 2.92537
0.76296 0.117857 2.88545
-0.298996 0.874403 3.02937
1.82787 0.720587 2.58523
0.873571 -0.688201 3.13813
0.627326 -1.79174 3.90245
0.275375 0.0882791 2.96526
1.05921 -0.641545 3.07768
2.50779 0.0251041 3.75921
0.764297 0.807832 2.91058
0.711169 -0.739877 3.16946
1.19917 0.761612 2.78236
-0.0422256 1.14118 2.92983
1.06879 0.0757153 2.82441
1.39723 0.696085 2.67554
1.47803 -0.642191 2.85849
1.14649 0.0351176 2.86161
-0.607975 -1.57219 3.46118
-0.68003 0.159786 2.96245
2.06529 1.16269 2.80725
-1.37156 -0.647619 3.16487
-0.115998 0.923977 3.09505
-0.266271 0.120993 2.98832
-0.678103 -1.54497 3.51879
2.12366 1.06626 2.77484
0.227885 -0.629542 3.22329
1.6473 0.741017 2.61319
1.11738 -0.824497 3.07324
0.791991 -0.0625739 2.92278
0.591389 -1.7986 3.73782
-0.277631 0.698471 3.15543
1.9203 0.641574 2.62851
-1.4296 -0.0233483 3.08517
-0.904012 -1.61898 3.41758
0.113541 0.753855 3.03885
1.91282 -0.167091 2.73628
0.812877 -0.81581 3.18893
1.2588 0.00559077 2.78655
0.336897 0.717027 3.02872
-0.41617 -0.790022 3.30699
1.29807 0.518986 2.82371
0.16473 -0.222506 3.05245
-0.278069 0.909576 1.96615
0.0480606 -1.06891 3.4098
-0.647758 -1.00281 3.38339
-0.447503 0.756806 2.22485
-0.684305 0.801805 1.86578
0.995237 -0.183512 2.94544
0.827243 0.514764 2.97816
-0.548847 -0.956776 3.32685
1.05164 0.600798 2.90009
-0.395625 -0.141066 3.08794
0.441546 0.569468 2.91441
1.22174 -0.894731 3.16155
0.676492 1.25802 2.85509
0.412572 -0.0991843 2.9797
-1.03294 -1.2189 3.49318
-0.379763 -0.347354 3.11257
-1.31516 0.420547 2.95399
-0.393525 0.7593 1.94391
1.66052 -0.276726 2.6277
1.17076 1.12513 2.71184
0.298098 -1.2124 3.54796
0.357452 0.470896 2.88685
1.14254 -0.255585 2.85153
0.396648 1.14669 2.8654
-0.592759 0.454458 2.96668
0.447213 -1.15823 3.52997
1.26947 -0.176205 2.79002
-0.422397 0.723903 1.96896
0.306981 1.32138 2.90329
-0.947744 -0.987126 3.35976
1.13308 0.557156 2.85763
-0.685026 0.856499 1.8654
-0.814782 -0.1352 3.06708
-0.561467 0.56185 3.02695
1.83487 0.661976 2.60659
-0.778902 -0.947621 3.34134
-0.580427 -0.0955388 3.08257
-0.892287 -0.89597 3.27611
-0.1179 0.694551 3.12167
-0.190462 -0.89671 3.42193
-0.327483 -0.0589522 3.04845
1.39178 0.567491 2.76967
-1.42953 -1.08678 3.20487
0.0365825 0.493463 3.0054
0.826186 -0.302791 3.00225
0.622246 1.19969 2.88804
1.42138 0.417421 2.78486
-0.390825 -1.19842 3.67307
-0.341105 -0.262304 3.09255
1.42684 1.05989 2.6427
-0.369231 0.850351 2.41277
0.093518 0.514389 2.96623
1.29938 -0.21488 2.81508
0.692541 -1.09205 3.42061
-0.911101 -0.459573 3.19736
0.825074 1.04266 2.84769
0.198197 -1.43062 3.64318
1.66754 0.298331 2.74063
-0.312573 -0.420515 3.16242
1.13033 0.990327 2.79829
0.682263 -1.38094 3.62019
0.913922 0.290842 2.88372
1.53701 0.369339 2.71638
1.64907 -1.21525 3.22763
1.53103 0.985951 2.53597
1.23566 -0.375 2.93702
-0.00222482 0.370776 2.95898
1.67248 -1.10337 3.06596
-0.808091 0.706946 1.87053
-0.728827 -0.345991 3.11108
-0.730823 -1.47699 3.49445
1.10142 -0.548191 2.92909
-1.36514 -1.29866 3.10457
-0.267411 0.192604 2.95918
1.65267 -0.50155 2.83232
-0.659709 0.644836 2.08339
0.738526 0.982119 2.88503
0.249412 0.271715 2.94295
-0.0455325 -0.510628 3.18195
0.969566 0.938622 2.87225
-0.5877 -1.39826 3.48074
1.51265 0.203742 2.7205
1.12247 -1.11424 3.36603
-0.518751 0.523825 2.98816
-0.071647 -0.258929 3.07504
-0.317597 0.863958 1.94197
1.1993 0.462922 2.84526
-0.747631 -1.06513 3.43657
-1.13586 -0.220573 3.16095
1.55041 1.03476 2.48493
-1.51935 -0.956563 3.17289
1.66834 0.540916 2.77152
1.25397 1.17222 2.70328
-0.245788 -0.176398 3.07029
-1.12992 -0.915115 3.20844
-0.0261089 0.563006 3.0229
0.311349 -0.138244 2.98144
-0.515678 0.853849 1.88441
0.880305 1.07583 2.8308
-1.101 0.378381 2.99407
1.17991 0.998857 2.72328
-0.49306 -0.374098 3.07809
0.98083 0.32861 2.93986
0.0559085 -1.32373 3.62471
-1.13705 -0.361335 3.26694
1.54778 1.00371 2.50388
-1.25913 -1.15913 3.33459
0.75523 0.448877 2.93995
0.256919 1.14297 2.94176
0.447431 -0.292802 3.00288
1.32939 0.389972 2.81077
-0.617065 -1.17882 3.49553
-1.21071 -1.32634 3.24308
1.53109 0.238857 2.59003
1.31805 0.940264 2.74555
1.31331 -0.511276 2.91608
-0.677925 -1.40202 3.49819
-0.623697 0.234647 2.91687
0.998556 -0.491053 3.01797
-0.46678 0.687049 2.08122
0.732132 -1.40485 3.56609
0.696595 -0.457863 3.09385
-0.0336869 -1.34852 3.57328
0.766426 -1.81142 3.81853
1.50699 0.275747 2.76962
-0.194734 -0.417608 3.13052
-0.545804 0.699421 2.00116
-1.46123 -0.69239 3.19233
-0.644266 0.860154 2.98008
-0.125946 0.125233 2.9975
0.0629978 0.83193 3.02868
-0.723723 -0.682944 3.37662
-0.993491 0.10572 3.22786
0.0795136 -1.58702 3.47725
0.746304 -0.612105 3.12278
0.188185 0.948602 3.0167
0.637887 -1.65759 3.73018
1.53671 0.179355 2.81103
-0.178626 1.11824 2.87394
-0.735583 -0.569215 3.1861
1.59927 0.76692 2.58401
-1.34595 -1.40376 3.32542
-1.03971 0.167355 3.00203
1.0038 -0.481747 2.94798
1.08437 0.293892 2.91702
-0.69272 0.706165 1.97822
1.06961 -1.36323 3.33697
-1.0911 -1.27994 3.33062
1.24043 0.256862 2.83365
1.51631 0.885894 2.60923
0.0767311 -0.455195 3.11907
-1.48341 -1.23678 3.29133
1.09019 0.356927 2.89446
-1.3311 -0.431946 3.24046
-0.231642 0.776785 2.03586
-0.932521 -1.23951 3.41639
-1.36019 0.343717 2.99125
1.48901 -0.365668 2.83145
-0.42152 0.736629 1.99578
1.23197 0.830778 2.77927
-0.421022 0.159667 2.98922
-0.766752 -0.622927 3.26215
0.110095 -1.63548 3.69311
-0.709643 0.662478 2.00633
1.47124 -0.568964 3.01737
-0.354303 0.240203 3.04765
-0.179304 -1.54061 3.60271
-0.435755 -0.54172 3.22138
1.36052 0.846661 2.7122
0.225228 -1.46864 3.54032
-0.892605 0.196104 2.97444
-0.247113 1.01584 2.23591
0.492841 0.0454774 2.93485
-1.10036 -0.793746 3.36853
-0.617993 0.772184 2.9457
-0.570846 -1.03266 3.57876
-1.07296 0.748982 2.97518
-1.41462 0.0209041 3.16808
1.39205 -0.709706 2.99744
0.389029 0.115554 2.93493
1.4676 0.330083 2.1891
0.570001 0.839913 2.93202
-0.86417 -0.699766 3.23477
0.138421 -1.58574 3.46422
-0.829445 0.0924593 3.02724
1.91673 1.12815 2.95053
-1.06975 0.787777 2.8377
0.178854 -0.663437 3.21104
1.28424 0.575437 2.78187
1.84249 0.320645 2.68443
-0.370918 -0.0914639 3.0616
0.0146493 -1.7142 3.68333
-0.988078 -0.902606 3.3322
1.67293 -1.06705 2.94595
-0.663083 -0.0582508 3.06676
1.76602 0.665922 2.80464
1.48398 -0.80227 2.95993
-0.692902 -0.0214328 3.05211
-1.05359 0.661263 2.97496
-1.20345 0.238155 3.00156
-1.18662 -0.794738 3.20053
0.0177677 0.716998 3.24393
0.0351453 1.26545 2.85567
-0.474884 -0.0609237 3.06656
-0.386022 0.866366 2.36069
0.114286 -0.881994 3.33637
-1.45425 -0.0286193 3.08773
-1.2 0.729524 2.91628
-1.23605 -0.789088 3.15122
1.44097 -0.00575576 2.80446
-0.69911 0.703648 3.01908
1.76228 0.930427 2.55181
-0.0918359 -0.799893 3.3132
1.71195 0.48365 2.64187
0.332009 -0.228884 3.04763
-0.377161 0.846988 1.91256
-0.985848 -1.05168 3.3927
1.30843 -0.953758 3.10798
0.464271 0.495735 2.89828
-0.135685 0.992415 2.64358
1.15831 -0.176466 2.78764
-0.354958 0.869008 2.45738
1.84576 -0.861109 2.91416
-1.02252 0.611674 2.97352
0.982937 -0.149862 2.92159
-0.758999 -1.0156 3.6301
0.377883 0.565482 2.9327
0.480109 -0.10382 2.98824
0.926401 1.25351 2.77988
-0.553087 0.745637 1.90837
0.917057 0.398296 2.9364
0.468951 -0.348048 3.04494
1.22171 -1.18556 3.29088
1.59108 -0.30563 2.96532
1.64906 1.04945 2.54663
1.12692 -1.20453 3.47485
1.12095 0.464637 2.89039
1.33157 1.05821 2.64119
-1.42535 -0.270369 3.11291
-0.260629 0.455345 2.98891
0.597536 -1.11848 3.37743
0.405707 -1.44016 3.5425
1.1725 0.278684 2.81955
-0.799785 0.692975 1.96871
1.19258 -0.477318 2.88284
-0.20957 -1.39707 3.56367
-0.69036 0.271059 2.97169
-0.366517 0.720926 2.09565
0.736228 -0.454042 3.018
0.0702271 -1.34642 3.55113
0.446936 0.355621 2.88942
0.703408 -0.419348 3.04385
-0.4521 0.741319 1.95256
-0.112682 -1.27024 3.47294
-0.969687 0.328258 2.96013
-0.240527 -0.384952 3.13395
1.50857 0.939215 2.57712
0.870257 -1.17382 3.38752
-1.50975 -0.321261 3.22292
0.4535 0.43523 2.90844
-0.294192 0.781421 1.96586
1.0892 -0.260364 2.85213
-0.696444 0.684897 1.9361
-1.35136 -1.06488 3.2319
-0.432266 0.520204 3.00065
-0.754836 -0.219751 3.05947
1.10369 1.11002 2.70319
0.913769 0.472565 2.93181
0.406262 -1.07921 3.40113
1.51159 -0.435916 2.82022
1.15842 0.304525 2.8274
-0.599709 0.697547 1.94523
-0.437318 -1.35797 3.48079
-0.893955 -1.28179 3.40728
-0.0357024 0.29736 2.93769
-0.660605 0.693995 1.95878
-0.590001 -0.429454 3.22508
-0.743626 -1.25681 3.45505
-0.92874 0.407329 2.95729
-1.09574 -0.37046 3.02538
0.397063 1.10911 2.86767
-1.06255 -1.18445 3.34904
1.67749 0.326911 2.71151
-0.610361 0.723529 1.91001
-0.787407 -0.352634 3.16843
0.881842 -1.50675 3.46435
0.890092 -0.574912 3.0592
0.292758 0.183967 2.94032
0.292874 0.938644 3.03616
0.817397 0.975273 2.88119
1.03125 -0.529842 3.0014
0.199122 -1.69552 3.59895
-1.53939 -1.38462 3.31474
1.14209 0.250832 2.83534
-0.181439 -0.508452 3.16776
1.11176 0.897247 2.77034
0.0177793 -1.44015 3.55717
0.357007 0.219415 2.92011
0.932093 -0.733519 3.12434
1.55446 0.0724033 2.9757
-0.458653 1.05522 2.85706
-0.53648 0.815862 2.99992
1.36547 0.694951 2.68755
0.283616 0.0376817 2.96378
1.10031 -0.677212 3.02753
0.201031 0.147231 2.96878
-0.566744 -1.56219 3.4349
1.38851 -1.35934 3.26648
0.966759 0.849383 2.8708
-1.35197 -0.665363 3.21196
-0.220164 -1.58851 3.58799
0.237752 0.113333 2.96644
-1.23651 -0.650299 3.34766
2.27004 1.07057 3.02124
-0.395096 0.871383 3.06792
0.480678 1.08056 2.86818
-1.24393 -0.418707 3.1647
1.47853 0.349365 2.8718
0.957995 -1.50298 3.92714
-0.225691 0.764304 2.06991
0.171471 -0.380358 3.08034
0.885516 0.320826 2.92946
0.935904 -1.33206 3.58153
-0.0187454 0.451067 2.97002
1.34282 -0.328012 2.77751
-0.412132 -1.24607 3.53538
0.483194 1.14452 2.86082
-0.420162 -1.19237 3.50779
1.11965 1.0447 2.6849
-1.12973 -0.303664 3.18932
0.757421 0.402376 2.92547
-0.0852934 0.271425 2.95945
0.875513 -1.50384 3.58873
-1.16299 -0.562089 3.34225
0.451439 1.00167 2.94397
-0.808716 -1.39286 3.47089
0.227148 0.225855 2.93554
-1.16686 -0.513 3.24705
0.385971 0.958591 2.94284
-0.404982 -1.37313 3.53453
0.652702 -0.460471 3.0802
-1.35385 0.304563 2.95481
1.47315 0.909907 2.58284
0.400857 0.848246 2.97829
0.124084 -0.707818 3.2369
1.00056 0.106937 2.88139
0.56112 -0.669581 3.2111
0.44201 0.81184 2.95663
1.13703 -1.75748 3.78994
-0.478824 0.0858317 2.97047
-0.459572 -0.633944 3.2948
1.16041 0.173653 2.80745
-1.21103 -1.42293 3.22923
1.76169 0.0769684 3.30634
0.889042 0.908695 2.90831
1.70199 0.778792 2.63146
-1.11351 -1.41868 3.32504
-0.269407 0.153886 2.95027
-0.672762 0.79802 2.9659
-0.488922 -0.594997 3.29147
-1.24765 0.0180588 3.12593
-0.349486 -0.843707 3.3744
0.90366 0.71585 2.8915
1.71539 -0.0373527 2.71692
-1.41879 -0.77238 3.19803
-0.537962 0.718909 3.06584
-0.785016 -1.26193 4.36702
1.54789 0.0507781 2.37198
0.606011 0.788682 2.99943
-0.610299 0.0505672 3.02378
1.09865 -1.67317 3.51851
0.0273849 1.222 2.8856
-0.0929097 -0.747592 3.25529
-0.574065 0.823939 2.73082
1.13657 0.13732 2.83338
-0.521311 -0.630396 3.25619
0.256882 0.864959 3.04773
-0.804274 -1.55566 3.52023
-0.940098 -1.62989 3.44006
1.68529 0.0956846 2.76812
0.554704 -0.591009 3.18689
-0.564111 0.68391 2.09054
0.260082 -1.55928 3.62337
-1.00371 0.239867 3.01805
-0.155186 1.07747 2.97397
-1.22206 -0.560087 3.29915
1.20722 0.859046 2.77388
-0.0907933 -1.49205 3.59839
-1.42676 0.199966 3.08526
2.14959 1.06515 2.93278
0.188724 -0.796443 3.28624
1.6389 0.0308175 2.71562
-1.13093 0.781941 2.96833
-0.60343 0.0135249 3.03832
-0.694462 0.730764 2.95883
-1.18682 -0.725379 3.18959
-0.358847 0.982415 2.70355
1.63251 -0.665002 2.93307
1.56256 0.0634685 2.7085
0.668536 -1.85065 4.01866
1.97294 0.109832 2.62855
-1.25399 -0.678596 3.31223
0.0846765 0.822366 3.01705
1.61569 -0.145706 2.79896
1.44366 -0.872069 2.93627
1.07771 0.591756 2.88426
1.93539 0.541286 2.63892
1.15345 -0.0999327 2.78435
0.391755 1.31626 2.89706
-0.0702922 -0.922059 3.32872
-0.645316 0.604963 3.09046
1.88897 -1.02722 2.90698
1.61955 0.616069 2.64816
-0.739226 -0.0578436 3.04604
1.5347 -0.802345 2.95198
0.872315 0.635581 2.91168
-1.38956 -0.022546 3.11351
1.52061 -0.760053 2.92382
1.19363 -1.2932 3.39828
-2.54676 -1.9648 5.52484
0.644186 0.502554 2.92464
0.62129 -0.264843 2.96579
-0.790044 0.735677 2.37372
-0.10155 0.485855 2.96999
0.484527 -1.09618 3.45238
-0.411878 0.772542 1.87237
0.487823 -0.221165 2.98453
1.4767 -0.886608 2.87416
0.0821611 -0.180227 3.02977
-1.28686 0.532451 2.87086
0.156059 1.30057 2.89516
-1.09533 -1.01986 3.2439
0.456429 0.524191 2.90795
-0.299357 -0.228055 3.10487
-0.611645 0.896036 1.86309
-0.127284 -1.03699 3.44097
1.14317 0.492121 2.89541
0.945775 -0.193471 2.92809
-0.232859 0.814696 1.92897
-0.0540525 -0.977384 3.35302
1.79809 -0.151574 2.80707
-1.33571 0.566818 2.89898
1.06217 1.23217 2.73713
-0.756424 0.7275 1.87359
1.11026 -0.370478 2.89895
-0.755516 0.404984 2.97637
-0.39717 -1.2962 3.53529
0.632994 1.08471 2.88793
0.0872249 -0.355986 3.09937
-1.23118 0.374537 2.99753
0.519767 -1.29612 3.60662
0.933206 -0.307523 2.96192
1.37132 1.07661 2.62387
-1.04216 -1.13262 3.34922
-0.89464 0.478543 2.95742
0.849661 -0.278234 3.00936
1.63044 1.00126 2.49048
0.264576 0.429527 2.89231
0.0164679 -1.13243 3.43252
1.63132 0.259212 2.63582
1.37039 -1.42058 3.44166
