ply
format ascii 1.0
element vertex 1833
property float x
property float y
property float z
end_header
1.4945 0.759305 2.61744
0.233016 -1.61742 3.70732
2.39757 0.939682 2.93572
1.6523 0.126471 3.08912
-0.838613 -0.608106 3.28364
-0.676466 0.234616 2.94951
-1.25215 -1.37677 3.22891
0.0306471 1.28135 2.89919
-0.265588 0.925358 2.84765
-0.846362 -0.585479 3.32953
-1.06031 -1.33207 3.25406
-1.33659 0.222342 3.02502
-0.541516 1.39629 2.96882
0.686416 -0.531412 3.11176
-0.561802 0.668993 2.08825
1.1998 0.701042 2.79689
0.80098 0.0132573 2.88311
2.46654 -1.51076 4.26469
-0.670744 -0.775209 3.32201
-0.376632 0.843114 1.91827
0.91162 0.794826 2.87423
1.26759 -0.702802 2.99743
-0.562107 0.0901716 3.00085
0.945378 -0.670973 3.06191
1.18995 0.726055 2.75746
-0.596363 0.844044 2.53766
0.664355 0.0473563 2.93038
1.89669 0.418317 2.6437
0.642693 0.615673 2.98206
0.945114 -0.132107 2.91816
-0.287772 -1.68781 3.6282
0.634439 -0.950898 3.30627
1.12139 -0.914988 3.27921
1.21891 -1.54006 3.61304
-0.644608 -0.0842893 3.06171
-0.589149 0.589661 3.01168
-0.139182 -0.867423 3.36716
1.46546 -0.0616715 2.86141
0.783018 0.695116 2.93525
0.885718 1.23263 2.77787
0.781955 -0.807339 3.19142
-0.648263 0.675161 3.05532
1.58435 1.11986 2.5596
1.09412 -0.0261692 2.8319
-0.0306039 0.0837743 2.97372
0.116886 -0.741569 3.25527
-0.360771 0.860219 1.917
-0.503406 0.0510355 3.00226
0.913379 0.756844 2.87684
0.184826 -0.693996 3.20843
0.694893 -1.59267 3.63097
2.62775 -0.00128062 3.80269
1.17116 0.812423 2.80961
0.572206 0.113821 2.89302
0.399388 -0.642547 3.13638
0.21429 0.838421 3.06438
0.302178 -1.64613 3.63911
-0.0541874 0.724408 3.26014
0.916685 -1.60578 3.69377
0.216503 -0.0962953 3.00729
0.496175 -0.912192 3.30962
0.0562926 -0.0528944 3.00158
1.59566 0.526561 2.43414
-0.562702 -0.91904 3.52502
-0.963436 0.611797 2.91668
-0.581053 -0.809049 3.25419
0.598629 0.0153368 2.92349
1.82833 0.602628 2.63222
0.332882 -0.0260873 2.96654
-0.517272 -1.61351 3.43218
-0.640675 0.719434 2.94578
1.49221 -0.710837 2.88088
1.89199 0.0012618 2.74327
0.235958 0.718684 3.03804
0.113356 -1.04657 3.39589
1.08771 -0.205672 2.83614
0.754136 0.508944 2.92833
-0.048357 1.19588 2.60632
0.71292 1.24428 2.84572
0.031805 -0.168272 3.01096
-1.05025 -0.985063 3.35539
-0.961573 0.590419 2.93923
-0.918013 -0.129748 3.12501
-0.0484796 1.08297 2.68395
-0.334999 -0.953982 3.38073
-0.895722 0.550559 2.95224
0.450143 0.401542 2.8944
-1.06695 -0.378658 3.22026
1.21844 1.07133 2.728
1.55837 -1.20717 3.24646
0.198632 1.10809 2.94227
1.00343 -1.21371 3.40717
0.123314 -0.339679 3.07236
-0.956211 0.378242 2.94497
0.78756 -1.133 3.32968
-0.703834 0.499091 3.08628
-0.721603 -0.290545 3.1084
0.58961 1.20531 2.90017
-0.411201 0.457062 3.00425
0.367294 -1.12342 3.48767
-0.532344 0.763131 1.88562
0.649607 -0.251101 2.98512
-0.586436 -0.344741 3.06344
-0.229081 0.796596 1.97492
1.69648 -1.09882 3.04733
1.53796 0.398074 2.68152
-0.504598 0.742512 1.90422
0.955464 -0.295118 2.92497
1.24449 0.386617 2.81963
0.053354 -1.15206 3.40725
-0.341956 -1.17706 3.61147
0.314489 0.494562 2.88565
0.0722698 -0.266804 3.075
-0.183757 0.892009 2.00249
0.223329 0.471549 2.90751
-0.618849 -1.04574 3.40056
1.55766 -0.22891 2.93355
0.930141 1.14632 2.77349
-1.41417 -1.26026 3.23989
-0.417649 -0.462043 3.19641
0.961339 0.291449 2.91289
1.15625 0.985182 2.78479
1.63418 0.95486 2.49931
0.883494 -0.411313 3.00595
0.0575627 0.541727 1.23705
0.802785 0.361695 2.94956
1.24894 -1.30436 3.39672
-0.478443 0.727034 1.96882
1.30285 -0.362928 2.84337
-0.053375 0.325126 2.95748
0.369349 -1.28584 3.51899
0.266458 -0.643795 3.28967
2.43294 0.566098 2.74752
1.5753 0.176541 2.81152
-0.300375 -1.66145 3.7658
1.12693 0.881437 2.81206
0.917474 0.861123 2.88764
1.09008 -1.7588 3.72045
-0.0245505 0.532863 1.288
-0.624412 0.156384 3.00755
-0.680414 -1.44286 3.40705
1.35392 -0.555415 2.93973
0.801753 0.265921 2.90228
-0.668185 -1.40167 3.44913
-1.07738 -0.701206 3.33631
1.70068 -0.485777 2.74749
1.16136 0.9373 2.75183
0.222007 -1.44374 3.59443
-1.19167 0.248799 3.1191
2.61373 0.918988 2.90376
0.825956 -0.495702 3.05034
1.63919 0.843493 2.56408
1.09407 -0.721626 3.07425
2.4429 -1.15942 4.09483
1.19848 0.0299266 2.8203
-1.16632 0.790816 2.98415
-0.989741 -0.534003 3.20352
2.20465 -1.51605 4.1502
-0.805786 0.854851 2.96734
-1.00697 -0.732816 3.42134
0.319453 0.113563 2.94086
-1.16702 0.838398 3.01831
-0.809543 -0.672859 3.3565
-1.30681 0.0965779 3.0419
-0.187508 -1.71942 3.74062
0.134848 0.575212 1.30517
0.811344 0.93908 2.88824
-0.359683 -0.594429 3.29199
0.486306 0.216239 2.90005
-0.928438 -1.46775 3.4404
-0.211627 -0.533028 3.17294
-0.922169 0.659169 2.08947
0.0949033 0.610798 1.50111
1.41502 -1.55573 3.68798
1.74926 0.177159 2.74889
-0.327384 -0.508666 3.2095
-0.692068 0.302447 3.04391
-0.750658 -1.39543 3.5068
1.59575 0.894667 2.52853
1.76697 -1.91707 3.67889
0.107478 -1.36132 3.49756
-0.83302 0.27721 2.97627
0.470777 0.988663 2.93325
-1.06855 -1.65082 3.48329
-1.38332 -0.464657 3.18769
-0.8175 0.124267 3.03539
2.14767 0.512607 2.59688
0.910762 -0.686634 3.09616
1.55632 0.747243 2.61555
0.60747 0.0739801 2.91436
-0.90727 -1.53963 3.37534
0.637719 0.816813 2.98616
0.800935 -0.655086 3.13851
-0.672887 0.88342 2.95039
2.18644 1.11082 2.89112
-0.131042 0.904427 3.06362
0.524983 0.139076 2.88383
0.119401 0.628247 2.99615
-0.0792277 -0.621325 3.20393
-1.13853 -1.40165 3.20178
0.544981 0.686863 2.95262
0.011209 1.24793 2.65232
0.71514 -0.0556365 2.898
0.728664 -0.867422 3.26453
-1.30294 0.637163 2.86804
1.9511 -0.0323651 2.98128
2.53536 0.218716 3.66832
0.102345 -0.833894 3.31438
-0.472594 -0.801976 3.36697
0.710717 0.041838 2.92768
1.94538 0.215745 2.71108
1.04182 0.740975 2.8287
0.0604029 0.0156273 2.96635
1.6172 -1.07415 2.95417
-0.127866 0.724458 2.96279
0.38617 -0.746332 3.23692
-0.771033 -0.977695 3.33048
-0.797841 -0.173457 3.06813
-0.850369 -0.964776 3.42952
1.09051 0.529328 2.87998
-0.340917 0.851524 1.92855
1.78984 0.831919 2.55517
-0.525032 -0.144184 3.11222
-0.475044 0.619536 3.05238
0.0595067 -0.0992795 3.00365
0.641683 1.28615 2.86234
-0.781345 -0.978198 3.59634
-0.0276362 0.601118 3.06811
2.47413 0.82345 2.882
0.392855 -1.64154 3.51985
-1.42506 -1.50169 3.26297
1.08368 0.139746 2.80233
0.770669 -0.651201 3.14147
1.34876 0.803108 2.69044
-0.962676 0.129683 3.06798
0.374141 -1.57804 3.60031
1.854 -0.976203 3.22913
-0.567622 -0.625292 3.28899
-0.843541 0.669601 2.3312
1.1489 -1.61752 3.73736
-0.194052 0.233361 2.98425
-1.17261 -1.14863 3.3878
-0.914784 -0.568298 3.21874
1.56481 0.851996 2.59329
1.25742 -1.53237 3.64975
0.428295 0.185842 2.91261
-0.672926 0.889708 2.95045
-0.285628 -0.533925 3.18078
1.55323 0.813411 2.58616
-0.731751 0.740135 2.9933
2.69804 -1.28014 4.29147
-1.11724 0.0266377 3.06717
-1.11624 0.727734 3.03606
-0.179567 1.08997 2.88075
-0.588608 -0.77408 3.28491
1.5977 -0.700315 2.93249
-1.04018 0.78379 2.81556
1.13167 0.0767134 2.82583
1.56209 -0.0158779 2.78969
-0.218132 0.795186 3.06188
0.310571 -0.703437 3.23013
1.35039 0.0326959 2.74359
1.95602 0.645356 2.60538
0.354894 -0.971525 3.39164
-1.18397 0.612833 2.91705
1.87333 0.306199 2.67731
1.53614 -0.13834 2.78722
-0.383871 -0.922572 3.4158
-0.735932 0.606335 3.09671
0.178376 -0.0923551 3.01827
1.33601 1.20246 2.64947
1.66271 -0.776016 2.84194
0.136826 -0.0610526 2.98056
0.18912 -0.830782 3.32474
-0.916891 0.754175 2.58566
1.30477 0.610521 2.75719
0.255905 -0.0277069 2.982
1.66857 -0.301025 2.92039
-0.514512 0.774606 1.85322
0.93585 -1.18048 3.45113
1.66236 0.46159 2.81365
0.442592 -0.256649 2.99632
1.65742 1.02541 2.53694
1.63133 0.398697 2.6291
-0.81489 -1.06047 3.34401
1.17803 -0.207639 2.79408
-0.563644 0.827969 1.88046
-0.12943 -1.06808 3.46391
0.351537 0.534813 2.90383
0.234011 -0.175742 3.01909
0.0751563 1.28343 2.88089
-0.191209 -0.995586 3.36615
0.438693 0.497752 2.892
-0.320808 -0.0940269 3.04341
1.6488 -1.06698 2.94957
1.24953 -0.850842 3.01967
0.192886 0.679219 3.07485
-0.63284 0.830894 2.52371
1.24318 -0.810834 3.00586
1.31564 -0.0641589 2.6774
0.881148 0.602464 2.91055
1.57074 -0.724677 2.81845
1.33036 0.00181572 2.72648
-0.832268 -0.0224079 3.08647
1.31416 0.683112 2.74439
1.80899 0.591536 2.64375
1.90628 0.278867 2.68967
0.745138 -0.770793 3.18344
0.201741 0.729174 3.12251
-0.255288 0.912715 1.9714
1.10749 0.496137 2.87513
0.718975 -0.223705 3.00245
-1.30509 -1.00151 3.2345
-0.60629 -0.178068 3.13218
0.665711 1.28329 2.8567
0.390151 -1.02931 3.45184
1.54702 0.527139 2.68255
0.118667 0.169564 2.95772
0.113102 -0.137138 2.99138
-0.726687 0.586216 3.17504
-0.42107 -0.979481 3.45986
-0.960623 -0.377532 3.20934
-0.173515 0.4011 2.94137
-0.887332 -1.22726 3.43128
0.229894 1.13196 2.94313
-1.29747 -1.10322 3.16516
-0.0476654 -0.341414 3.08306
0.391017 1.09215 2.90105
-1.13864 0.381016 2.99083
1.39224 -1.26417 3.67261
0.427157 0.472113 2.91735
-1.36744 -0.297174 3.08411
1.04582 1.13431 2.7345
0.380132 0.439697 2.91852
0.873996 -1.15421 3.50968
-1.3353 -0.265718 3.13737
0.978995 0.969733 2.83381
0.892313 1.11061 2.7703
-0.00464645 0.512913 1.41732
1.40377 0.252126 2.81642
-0.640154 -0.527641 3.35711
-1.06373 -1.34244 3.40264
0.559604 -0.453906 3.09402
0.210376 1.07799 2.9711
-0.071963 -1.39114 3.59255
-0.867773 0.339134 2.98462
-0.376025 -0.421242 3.19052
-0.584649 0.684455 1.94567
-0.016113 0.563016 1.22706
-1.37164 -1.24829 3.33704
1.28418 0.282639 2.81627
0.591678 1.00881 2.89024
0.218587 0.289292 2.91774
0.180605 -0.462142 3.1066
-0.279017 -1.37944 3.56596
0.586187 -0.418184 3.06205
-0.56778 0.730849 1.92934
0.0294548 -1.30861 3.49365
-0.31458 0.355893 2.94959
-0.812212 -0.381883 3.12344
0.550128 1.05377 2.91792
0.0141692 0.60254 1.57732
-0.19655 -1.3134 3.61644
1.26372 0.303241 2.81381
-0.697357 -0.64341 3.34844
1.42718 0.177824 2.78279
1.92384 0.216204 2.8099
-0.193379 -1.66701 3.75201
-0.437638 0.906893 2.88373
1.32705 -1.54003 3.5328
2.36992 0.812888 2.90515
0.564466 0.138647 2.88815
-1.41657 -0.63871 3.4619
1.56955 0.774037 2.5965
-0.923955 0.274327 2.96261
-0.783284 -1.46855 3.59958
-0.0389067 1.37039 2.89125
1.84074 -0.515836 2.92446
-0.635005 0.680572 2.01382
0.140804 -1.45823 3.62743
0.781773 0.214899 2.88279
1.80138 -0.285303 2.71426
-0.0888979 -0.505794 3.15781
-0.629268 0.67028 2.03385
1.70902 0.665133 2.55376
0.636356 0.0342011 2.93621
2.18627 1.0697 2.92069
-1.48262 -0.734469 3.15152
-0.981502 -1.33448 3.43825
-0.0225357 0.858029 3.05791
1.58588 -0.665238 2.95491
1.31971 0.0960339 2.78222
1.44231 -0.635905 2.94675
-0.569521 0.791595 2.93824
-0.525819 -1.58615 3.48079
1.66421 0.0652298 3.10199
1.36869 -1.55552 3.37256
-0.627194 -0.935747 3.37207
1.91306 0.0543196 2.64831
1.00747 -0.104619 2.89519
0.701382 0.637884 2.97143
-0.966961 -1.58674 3.34174
0.328997 -0.869784 3.30041
0.702582 0.599666 2.95911
0.0172193 1.27783 2.88544
-0.393199 -0.0636769 3.00559
-0.446582 0.00771959 3.01153
-0.509208 0.719331 1.96062
-1.21033 -0.842061 3.38003
-1.00499 0.724173 2.89857
0.0752994 -0.0288949 2.99971
-0.0635994 -0.787018 3.29063
1.91376 0.182605 2.74631
-0.382974 0.698519 3.0415
1.28558 -0.650782 2.87176
-0.469333 -1.04551 3.52438
0.576391 0.0733779 2.90934
-0.67789 0.807047 2.96468
-0.996346 -0.611487 3.30554
2.23764 1.00477 2.98643
1.35752 -0.618893 2.88415
0.264553 0.906434 3.06783
-1.22349 -1.57321 3.42197
-0.500941 0.143985 2.98657
1.69744 -0.577672 2.83047
1.40878 0.757303 2.67606
-0.383939 0.112171 2.96247
-1.07352 -1.4722 3.33306
-0.798089 -0.0614606 3.04547
-0.915741 0.777072 2.80796
-0.0376735 -0.88784 3.37719
1.21492 0.654158 2.82726
1.57173 -0.763418 2.9157
-0.810882 0.667031 3.05274
2.00573 0.0106822 2.6238
1.69329 -0.0368979 2.69812
-0.718876 -0.792674 3.34434
0.146043 0.0357851 2.96063
1.07339 0.731902 2.82515
-0.819962 -0.870912 3.37822
0.100074 1.32366 2.88292
-0.149561 -0.747651 3.2725
0.989306 -0.00117457 2.86207
0.0669862 -1.67082 3.55727
1.18037 0.695335 2.81054
0.721685 -1.00564 3.31504
0.616116 -0.186197 2.98976
1.61101 0.467975 2.59417
1.76219 0.825107 2.55793
-0.714834 0.871725 1.86062
0.445286 -0.145799 2.9736
0.0504607 -0.968845 3.3567
1.65376 0.542998 2.65848
-0.774044 0.699434 2.29267
-1.38208 -0.0998756 3.11506
-1.08354 -0.900965 3.35157
0.140929 0.562176 2.93213
0.802912 0.433715 2.90703
-0.200718 -0.348164 3.11633
-0.29748 -1.24031 3.55996
1.14637 1.07843 2.7006
-0.169027 -1.09903 3.26699
1.06642 1.07 2.76496
-0.000799242 -0.298192 3.07019
0.512975 0.39368 2.89809
-0.627147 -1.09764 3.39097
-0.0824978 0.510349 2.97756
1.39216 -0.262397 2.83822
-0.383508 0.721932 2.10708
1.06333 0.464069 2.88449
1.12654 -1.07333 3.36285
-0.894076 0.811342 1.96059
0.091171 -0.223638 3.04778
0.819465 0.71795 2.92015
0.233709 -0.0303132 3.00542
1.80266 -2.10338 4.54352
-1.40138 -0.804898 3.20753
1.64869 0.0102607 2.77794
-0.558028 0.69481 3.01195
0.785669 -1.45292 3.41393
1.07968 -0.758297 3.08587
-1.01514 -0.762205 3.35869
-0.725504 0.0855861 3.02041
-0.947568 0.786848 2.83595
1.52809 -0.031583 2.25804
1.29043 0.722196 2.74881
-0.922717 0.748529 2.71925
-0.638051 0.0471876 3.04415
-0.817991 -0.727753 3.41413
1.4795 -0.86592 2.94899
1.92846 0.247558 2.69205
1.20277 0.581544 2.83062
-1.29193 -0.13847 3.10228
-0.323222 -1.66525 3.51527
0.306686 0.564629 2.92257
1.0748 -0.968895 3.42804
-0.40008 0.757412 2.07543
-1.33976 -0.0973123 3.22966
-0.270947 -0.869704 3.36765
-0.68015 -0.059179 3.04655
1.75203 0.848488 2.55562
1.19069 0.62084 2.84127
-0.910178 -0.300299 3.13497
-0.388859 0.782165 1.90483
0.198302 -1.2297 3.57518
0.879116 0.466473 2.88974
1.26459 1.09534 2.72276
1.55369 -0.272521 2.94232
0.187857 0.438392 2.91821
-0.484276 -1.11718 3.46234
-1.06286 0.553962 2.99191
0.866693 -0.22651 2.99118
-0.427071 0.898959 2.65707
0.654205 -1.07081 3.38352
-1.28906 -0.949503 3.20375
-0.749792 0.676347 2.06743
1.08639 -0.179089 2.8423
1.35646 0.486834 2.79389
-1.48316 -1.2068 3.17723
-0.0523896 0.363296 2.96208
-0.737757 -0.425333 3.20692
1.07151 1.03748 2.75167
1.5673 -1.27959 3.41191
1.49345 0.301771 2.74213
0.868042 -0.371833 3.0016
-0.101527 0.957716 2.55827
1.44632 1.00975 2.58495
0.982068 0.396303 2.90516
-1.27445 -0.356132 3.1706
0.651649 -1.18383 3.32875
-0.774329 -0.256187 3.04195
-0.688678 0.687041 1.96447
0.590881 0.502317 2.9414
0.60588 -0.224596 2.95147
-0.611208 0.759243 1.86665
1.4072 0.485724 3.04378
-0.95739 -1.07897 3.50291
0.42007 1.33845 2.89306
-1.29305 -0.181898 3.12582
0.861578 -0.982272 3.23263
0.722871 0.559653 2.9112
-0.58279 -0.141046 3.08431
-0.409925 0.895206 1.91591
-1.08738 -0.97997 3.45454
0.754934 0.533674 2.93646
-0.958801 0.408416 2.94952
0.203022 -1.30576 3.57549
0.35225 1.11788 2.89794
-0.20747 -0.378018 3.11389
0.76596 0.353097 2.90908
-0.639011 -1.16625 3.35925
-0.0763404 0.916668 2.37899
1.13084 -0.336414 2.90536
-0.962377 -1.12543 3.36832
-1.22517 -0.302613 3.1612
-0.232955 -1.10488 3.40256
-0.0485297 0.447279 2.97199
-0.398413 0.771284 1.92177
-0.215232 0.974392 2.89151
0.482922 -0.546382 3.17486
0.264754 -1.54704 3.75264
-0.160395 0.264927 2.96745
0.0436482 0.537039 1.34569
1.51602 -0.473332 2.83006
0.324449 0.974982 3.01142
0.994376 -1.53937 3.77036
-0.801109 0.231671 2.98481
0.800888 -0.453593 3.04928
-0.360596 0.740499 2.01194
2.32203 0.126717 2.95139
0.960579 -1.40878 3.56012
0.129451 0.31481 2.91173
1.17227 -0.400386 2.87502
0.940981 0.984685 2.81588
0.372514 -1.32384 3.49792
1.81263 0.27603 2.7715
2.07872 0.601709 2.65098
2.03188 0.366265 2.73877
1.53926 0.140429 2.84778
1.07899 -1.7544 3.81349
1.41803 0.78877 2.64229
-0.0291288 -0.669148 3.24805
1.06009 -1.58769 3.56969
0.621941 0.105613 2.91232
-1.27778 -0.64144 3.31891
0.032528 0.852988 3.02123
0.406626 -1.5181 3.54539
1.68263 0.621653 2.62534
-1.40148 -0.603882 3.3053
-0.879256 0.196622 3.03982
-0.293716 1.40985 2.92508
-0.54747 0.671654 2.15701
0.419658 -1.60956 3.61833
0.566669 0.170533 2.89217
2.1176 0.285557 2.73562
1.23485 0.849303 2.74741
-1.13676 -0.646782 3.28527
1.60894 0.126427 2.71838
1.26669 -1.67345 3.49627
1.21584 -1.59314 3.65013
1.24933 -0.576912 3.03395
-0.255518 0.873073 3.00706
0.346491 -1.49093 3.58387
-0.402773 0.98425 2.96067
1.69794 -0.501659 2.81355
1.51024 0.199902 2.76879
-0.286993 -1.41166 3.53474
2.27992 0.240072 2.7365
-0.691174 0.664553 2.0312
-0.369208 0.768827 3.01655
0.128346 -0.794933 3.26225
2.40291 -1.53419 4.44556
-0.89133 0.0443609 3.07497
0.857866 0.703351 2.87597
-0.246963 -0.773822 3.35794
-0.992266 -1.10592 3.40096
1.12945 -0.00693706 2.81926
0.527073 -0.718876 3.25363
0.0904482 0.851465 3.04218
1.48624 0.093741 2.92667
-0.899855 0.775997 2.67336
-0.469893 0.820642 3.06811
1.55212 -0.620449 2.86753
1.79607 0.071234 2.8296
0.0319647 -1.65139 3.61087
1.95596 -0.0451373 2.63136
-0.236352 -0.942771 3.43307
-0.164915 0.910843 1.95835
-0.0408967 -0.106388 3.00741
-0.00891873 0.827615 3.736
0.249099 0.604363 2.93772
-0.350909 -0.887416 3.38103
1.42508 -0.0738148 2.8324
0.363142 -0.840125 3.31413
1.76801 1.04687 2.55561
-0.911708 -0.0270307 3.10066
1.80336 0.894396 2.54095
0.828074 0.6668 2.90267
1.18792 -0.259853 2.87138
-0.732385 0.687928 1.97572
-0.45845 -1.1682 3.59273
1.49418 0.475096 2.76427
-0.688166 0.757374 1.8391
0.401522 -0.228944 3.05288
-1.03732 -1.02005 3.26772
-0.60216 0.48381 2.99795
-0.70888 0.607263 3.18341
-0.677514 -0.185368 3.06984
1.44771 1.15463 2.59903
0.496684 -1.02584 3.38985
0.240778 -1.0193 3.52306
-0.467409 0.83472 1.89963
0.838365 -0.14954 2.94897
0.778688 0.526534 2.92931
0.762804 -1.63665 3.74704
0.0936816 -0.0692131 2.9808
-1.2583 -0.839177 3.17731
0.963188 0.664878 2.89591
1.48228 -0.762239 2.89354
-0.986417 0.235092 2.99431
-0.946124 -0.0285783 3.08275
1.69297 0.577801 2.67202
-1.07126 0.04377 3.01083
-0.488793 0.714141 1.98687
-0.943968 -0.799915 3.33735
0.202835 0.78561 3.07493
0.514111 0.000915744 2.96966
-1.4064 -0.757761 3.2587
-0.0979728 0.950685 2.03509
0.300622 0.744852 3.03027
0.0113534 1.22462 2.80178
-0.0557353 0.539194 2.99978
0.873465 -0.194381 2.98097
-1.49506 -0.99237 3.26894
1.7354 0.765017 2.57878
1.05692 -0.150919 2.85059
-0.217008 -0.969284 3.37953
0.362208 0.601746 3.00277
-0.12724 -0.115123 3.08351
1.72882 0.510793 2.64974
0.389452 1.24742 2.90225
0.387928 -0.915027 3.28491
0.212892 0.42844 2.91444
0.359974 -1.28736 3.60608
-0.175912 -0.357457 3.12792
1.37275 1.04244 2.60727
-0.890572 0.403001 2.94838
-0.502518 -1.21282 3.56452
1.35836 1.01166 2.6001
-0.0662254 -0.307847 3.08692
-0.855892 -1.08008 3.34628
1.05457 0.490944 2.90242
0.588259 -0.274583 2.99523
-0.308641 0.798527 1.88363
-0.491743 0.482598 3.01402
-1.18067 -1.01658 3.30085
-0.862486 -0.226684 3.12774
0.406038 1.15958 2.85109
-0.798872 0.691624 1.95947
-2.09127 -0.767686 4.60077
1.13424 0.272139 2.81243
0.0735965 0.763212 1.54631
-1.14981 -0.469419 3.13971
-0.533933 0.695571 2.04281
-0.0200177 -1.44307 3.70819
1.0898 0.251306 2.88494
-0.707232 -0.432541 3.23491
0.434828 1.06797 2.86047
2.43571 0.82993 2.89835
1.05409 -1.31277 3.39861
-1.33036 0.3759 3.00307
1.68905 -0.368714 2.75529
1.48878 0.940731 2.58817
-1.53469 -1.23503 3.33275
2.30519 1.02714 2.97904
0.798756 0.310817 2.9258
1.08821 -0.980393 3.31694
0.967834 0.590769 2.90053
-0.166162 -0.148318 3.05722
0.142878 -0.935171 3.35726
-0.505914 0.581098 3.03632
-0.866331 -0.0989697 3.07867
0.594013 1.29658 2.86456
-0.918793 0.775648 2.79802
0.239893 0.672694 3.12731
0.873767 -0.0726509 2.95624
-0.483368 0.806728 2.42395
-1.21793 -0.872987 3.3448
1.32703 -0.29032 2.80803
0.513139 1.17045 2.87208
0.253098 -1.23148 3.59131
0.734454 0.468833 2.91558
0.804353 -0.271283 2.9838
-0.314733 0.784313 1.94953
-0.340021 0.443718 2.98795
-1.46691 -1.05409 3.19644
0.369311 -1.08049 3.42688
1.27494 0.508614 2.80568
1.81077 -0.219105 2.74789
-0.568366 0.853002 1.88067
-1.42098 -0.965616 3.21573
-0.913704 0.512405 2.96231
-0.509429 -0.183466 3.07155
-0.413423 0.899507 2.65593
-1.27258 -1.25058 3.31785
-0.843559 -0.425511 3.20337
-0.789813 -1.25765 3.46655
0.698288 0.312642 2.90907
-0.400807 0.731203 1.99746
0.133724 1.11739 2.91082
1.82717 -0.362106 2.84799
0.70039 0.391558 2.90754
1.54376 0.943774 2.47698
-1.06224 -0.358512 3.23832
1.16072 0.345661 2.86399
1.66514 -1.12756 3.11728
0.455305 -0.589648 3.17221
0.902206 0.93168 2.87701
2.20467 0.335834 2.61567
-0.181056 -1.46342 3.37539
-0.421282 0.225029 3.04188
0.433842 -0.54784 3.16183
0.228927 0.907543 2.97694
-0.0978231 0.461541 1.42319
1.33457 -1.50851 3.57809
0.589653 0.171168 2.88209
-0.515998 -1.46085 3.65783
0.308012 0.284807 2.92904
2.17164 0.255818 2.63441
1.55336 0.91465 2.59649
-0.520379 -0.495526 3.13121
-0.804516 -1.32339 3.43592
0.953299 0.257277 2.89818
0.34935 -0.462545 3.09148
0.432342 1.0028 2.97201
2.32285 0.536939 2.68345
1.03914 -1.30821 3.51084
-0.503389 0.396901 2.98071
1.37435 -0.371412 2.84815
-0.483812 0.751168 1.93168
-0.354932 -1.23337 3.48907
-0.929901 0.362805 2.94105
0.716343 1.06493 2.84788
0.172117 -0.353486 3.06911
-0.710766 0.726115 1.81526
1.40876 -1.11642 3.18526
-0.563464 -0.310383 3.09774
-0.442374 0.438029 2.977
0.0189968 0.994064 2.9678
0.822369 -0.535927 3.07964
-1.30299 0.281076 3.02212
-0.85835 -1.44419 3.52778
1.91842 0.423723 2.63902
-0.812839 -0.483031 3.08111
0.113877 0.97945 3.03607
2.68936 -2.00516 3.6534
-1.2536 -1.33489 3.37454
-1.20164 0.232711 2.97583
-0.73003 -0.47459 3.24761
1.74957 0.29662 2.74865
-1.22386 -1.29099 3.36285
-0.617105 0.695417 1.95001
1.97471 0.0594362 3.00743
-0.578082 -1.29314 3.43615
-1.03526 0.305048 3.00146
-0.27901 0.749125 2.11718
1.971 0.496371 2.62577
0.966662 -0.420094 3.01047
1.24262 -1.657 3.56793
1.32072 0.129535 2.79262
-0.155845 -0.675605 3.26753
-0.690388 -1.55283 3.25848
0.599938 0.86601 2.93411
0.798849 0.102659 2.9194
-0.929195 -1.50556 3.40404
1.07107 -0.611866 3.0361
0.366223 0.841527 3.00285
2.05104 0.480909 2.608
-0.634492 1.13515 2.85884
1.51934 0.801415 2.58286
-0.635498 0.181924 2.99764
-0.316993 1.41548 2.94107
-1.39685 -0.591242 3.20202
-2.30699 -2.44226 5.48962
0.608359 -0.0350894 2.94065
-0.358756 0.773391 3.1764
-1.03915 0.11226 3.04586
-1.34986 -0.809769 3.19532
-0.739186 0.00338049 3.03737
2.15406 1.00927 3.03837
-1.00256 0.681248 2.9059
0.51961 -0.794626 3.24571
0.366865 0.0727524 2.93045
0.22923 -0.75848 3.28262
0.710002 0.78903 2.92921
0.0454329 1.32001 2.85232
1.22499 0.0229348 2.79268
0.877943 0.747339 2.899
0.832185 -0.697657 3.1558
-0.233683 1.00447 2.74478
-0.318829 0.753643 2.98494
0.0880205 -0.802552 3.29158
0.351435 0.0248712 2.96486
-0.279432 0.568599 1.83388
0.41294 0.731725 3.03554
-1.11805 -1.03136 3.33893
1.03726 -0.739269 3.09493
1.70459 -0.0150675 3.10429
-0.0740118 -0.716186 3.27345
1.03633 0.0926602 2.85456
0.162767 0.838576 3.02145
1.37875 0.194669 2.01439
1.57518 0.699767 2.59618
-0.844097 -1.59814 3.44969
1.87861 -0.284162 2.70993
0.897885 0.0611545 2.90534
-1.00959 -0.677012 3.30035
1.49668 0.574926 2.65742
0.702753 -0.931369 3.28981
0.621319 -0.114957 2.98649
0.558029 -1.77343 3.73964
-0.948908 -0.877608 3.35702
1.42507 0.545021 2.68922
-0.618981 -0.0740429 3.0805
1.78258 -1.06049 3.00016
1.20424 1.24161 2.72863
0.100664 0.682856 3.00346
1.29492 -0.0489606 2.80971
-0.97316 -1.35311 3.41087
0.558134 -0.863307 3.33886
-0.045815 -0.268312 3.0557
-0.56364 0.777648 1.84839
0.676529 -1.14309 3.4331
-0.819362 0.521573 3.05848
-0.682526 -0.234861 3.1084
0.318067 1.18042 2.92323
0.654289 0.457629 2.91404
1.25784 -1.03638 3.20756
-0.914603 0.624577 3.23344
-0.196179 -0.19561 3.05927
1.28152 1.20453 2.69332
-0.873786 -1.02302 3.42261
0.445011 -1.00516 3.43115
0.941804 0.520762 2.88257
1.46703 -0.154518 2.77301
0.000739425 1.23032 2.72951
-1.16069 -1.1756 3.26927
-1.00723 0.395383 2.91775
-1.3304 -0.39815 3.1872
0.0662103 1.12074 2.9323
0.424139 -1.26936 3.55098
-1.38763 0.370538 3.00213
-0.54373 0.734232 1.95064
0.292037 -0.363647 3.08582
0.920819 1.09545 2.75929
0.906927 0.428694 2.92475
-1.35598 -0.326762 3.16853
-0.0347138 -1.19686 3.48591
1.35524 -0.227595 2.80976
-0.483744 0.824693 1.89043
1.15163 -1.07453 3.3294
-0.335557 0.542036 3.0407
-0.0365511 -0.198368 3.06456
0.754147 1.17592 2.81442
1.14993 1.24295 2.72779
0.819301 -1.00962 3.26349
1.27719 0.478236 2.82353
0.647101 -0.157418 2.98417
1.75892 -0.898849 3.02171
-0.0440549 0.660722 3.21301
-0.449482 -0.112699 3.04969
0.502648 1.31123 2.87705
-1.4067 -0.903221 3.23041
1.50315 0.512437 2.68102
-1.50475 -1.18762 3.29819
-0.80847 0.438791 3.01068
1.05546 -0.353654 2.92642
-0.472112 0.747648 1.89724
0.00219134 -1.18847 3.44674
1.62617 0.350441 2.67107
0.656008 1.10508 2.89509
0.189599 -0.323322 3.07823
0.403787 -1.18614 3.57204
1.05255 -0.270894 2.8869
-0.509221 0.462808 2.9643
0.139174 1.161 2.88715
0.384419 1.02924 2.97345
0.252727 -0.507116 3.12867
1.35542 0.266039 2.7915
1.01795 -1.42545 3.47755
-1.12304 -0.61912 3.31044
1.30702 -0.450224 2.87976
1.02508 0.940008 2.77963
1.07221 -1.38832 3.48896
0.111446 0.250784 2.92203
-1.18319 -0.438917 3.20612
0.875982 0.344868 2.91008
0.539842 -1.37911 3.59537
0.00951495 1.07802 2.92061
2.11192 0.448662 2.61666
-0.996521 -1.26538 3.48144
0.719452 1.02265 2.84957
2.19028 -0.116375 3.17525
1.63161 -0.365622 2.75142
-1.37809 0.325444 2.95922
1.72243 0.163525 2.74575
-1.27042 -1.42184 3.16121
1.49083 0.797116 2.59449
0.0714389 -0.638663 3.21118
-0.486912 -1.49098 3.47915
-1.17535 0.145745 2.95695
1.70506 -0.542154 2.78419
2.16714 0.194039 2.86541
0.154664 0.870387 2.98836
1.24806 -1.59638 3.7511
0.698044 -1.4683 3.58087
-0.0897519 0.961603 3.03061
-0.0384543 -0.55317 3.17674
1.73175 0.202174 2.74677
2.12269 0.33269 2.63391
1.49302 0.428475 2.69215
1.00673 -0.312749 2.93193
-0.638768 0.757717 1.86741
1.53964 -1.15294 3.26339
0.222309 -1.15473 3.51175
-0.20215 0.785191 1.96111
0.915477 -0.272862 2.9735
-1.03093 0.454822 3.04756
-0.269537 -1.05393 3.36167
-0.883192 0.563884 3.08191
1.39061 -0.226368 2.82355
-0.567785 0.835244 1.87882
-0.544603 0.508202 2.98574
-0.489941 -1.08907 3.56818
1.087 1.14115 2.69714
1.76873 -0.191971 2.79307
-0.359954 -1.32203 3.49929
0.257082 1.07333 2.97233
1.43861 -0.403108 2.83416
-0.213648 0.319556 2.98509
1.24851 1.05417 2.72102
0.0324577 -0.386491 3.10075
1.48531 0.388549 2.91416
0.244118 -1.30897 3.55717
1.41687 0.987056 2.6187
1.25342 -0.348209 2.85212
0.0510374 0.920362 1.88635
-0.986813 0.36266 2.96189
-0.866822 -1.1946 3.40977
-0.9402 -0.577934 3.15033
2.09234 0.42223 2.62092
-0.0990795 0.217138 2.97455
-1.00141 -1.42265 3.30924
1.28186 0.885188 2.7387
-0.318232 0.92195 3.04617
1.0125 -1.58471 3.746
2.44059 1.08278 2.91808
1.74779 0.158741 2.72998
0.336402 -0.545345 3.14177
-0.601513 -1.63086 3.42236
-0.15995 0.287051 2.97176
0.926107 -1.56759 3.82437
2.43923 1.10903 2.8632
1.04153 -0.482967 2.92805
-0.0777582 1.03806 3.00227
2.33952 0.617388 2.75035
0.528707 -1.48126 3.75422
-0.327375 0.26077 2.98342
-0.215474 -0.46853 3.16981
-0.728359 0.676287 1.98476
-0.010703 0.793107 2.97564
-0.686822 0.0706182 3.0187
-0.987638 -0.574579 3.29706
-0.688588 -0.735556 3.38838
-0.112716 1.35311 2.90413
-0.822781 0.668905 2.25702
0.451817 -0.661692 3.15012
-0.562702 0.138899 2.98118
0.372986 -1.6378 3.57767
-0.91688 -0.656955 3.40456
1.34056 0.761073 2.69329
-0.508302 -1.55867 3.50559
0.477399 0.0977066 2.914
1.23291 0.921263 2.73563
-1.34141 -0.561384 3.2301
2.19469 0.971993 3.03665
1.956 -0.474345 2.78785
-1.75037 -1.50448 3.52941
1.49289 0.246203 2.84287
0.480251 -0.51504 3.15455
-0.413754 0.684936 2.10552
0.0767679 0.696416 1.45497
-2.22352 -1.91726 4.62604
-1.12509 0.233411 3.05333
-0.836245 0.320761 2.96648
-0.998941 -1.37561 3.46272
0.373773 1.07124 2.96819
2.32877 0.96343 2.93214
1.59523 -0.450106 2.86273
-0.755642 -1.31873 3.50478
-1.32937 0.309546 3.01652
-0.707714 0.69414 1.97161
-0.0422478 -0.436079 3.1674
2.12009 0.357409 2.62483
0.87691 -1.70312 3.68349
1.25332 -0.644835 2.98951
0.774829 -1.68134 3.65223
-1.37872 0.118659 3.08407
-0.565571 0.82736 2.95538
2.23521 0.271271 2.62824
1.29767 1.03194 2.71457
1.31622 -0.583624 2.85391
-0.665245 0.643281 2.07408
1.18228 -1.7197 3.78445
-0.207854 0.179777 2.98511
0.493899 -0.602971 3.21686
1.08547 0.829509 2.81481
1.69122 0.125592 2.76021
-0.0800245 -1.56893 3.63691
-0.058229 0.714356 2.96519
1.16843 -0.0434792 2.82994
0.0867054 1.28038 2.76926
-0.557166 0.000541096 3.0484
1.40903 -0.768545 2.92837
-0.915681 0.674446 2.93904
2.2767 0.93741 3.20229
0.884056 -0.783109 3.16111
1.45176 0.0549031 2.86846
-0.557818 -0.766236 3.30507
-0.322883 0.803282 3.02348
0.791656 -1.54335 3.73684
-0.935249 0.041765 3.06704
-1.10954 0.229129 3.0297
-1.00851 0.775297 2.99947
0.0365248 -0.713551 3.2542
-0.103653 -0.972133 3.37992
0.314537 -1.72296 3.62573
-0.192291 -0.153598 3.04334
0.0701305 1.2372 2.78096
0.970175 0.552989 2.89038
0.263574 1.32425 2.90888
1.82498 0.887034 2.54451
-1.16353 -0.109106 3.12657
-0.507905 0.650214 3.05537
1.50734 -0.820939 2.83554
-0.283578 -0.0763849 3.05193
1.66076 -0.807692 2.89636
1.22603 0.562459 2.79212
-1.25618 -0.910625 3.26698
-1.30577 -0.114594 3.10074
1.81276 0.511977 2.63876
0.202068 0.584195 2.93411
-0.650363 0.703271 2.20442
0.588806 -0.0784838 2.94598
0.516907 1.28496 2.88018
-0.610536 0.686628 3.05247
0.264203 -0.902702 3.33122
-1.26544 -0.0421404 3.08051
1.03608 -0.858422 3.28001
0.618287 0.628728 2.98597
-1.28927 -0.287711 3.19929
-0.745702 0.752392 1.79274
-0.733424 -1.11685 3.41767
-0.290868 0.497011 2.97874
-0.212726 -0.236879 3.08669
0.438797 1.16636 2.88783
-3.40985 1.10839 7.05097
0.589522 -1.0915 3.39733
-0.779391 -1.05192 3.47956
1.00769 0.547469 2.89805
0.665951 -0.199653 2.9661
-0.32226 0.800773 2.09879
0.0596303 0.531768 2.9676
1.14607 -0.986957 3.29624
-0.30506 0.898205 1.93697
-0.760366 -0.155615 3.0808
0.861335 -1.37234 3.68676
-0.985182 -0.392723 3.15349
-0.0766684 0.350118 2.97704
-0.762932 0.706307 1.89747
1.7666 -0.350475 2.72729
1.61574 1.00713 2.53291
1.55482 0.366956 2.51135
-1.06231 -1.09054 3.10158
-0.671716 0.733013 1.92055
0.409488 -0.327794 3.08559
-0.263244 0.379039 2.93448
0.488125 -1.28717 3.70214
0.140413 -0.556482 3.16723
2.35134 -0.154322 3.01521
-0.238131 0.250923 2.9894
-0.736645 -1.45796 3.52486
1.6878 0.859249 2.54468
1.3889 0.84859 2.63727
-0.92822 -1.39539 3.48539
0.286049 1.38877 2.90655
-0.0537623 0.213902 2.95255
0.880552 -0.509301 3.04687
-0.685478 -1.35064 3.46463
-0.794763 0.32562 3.00606
1.13438 -0.448082 2.88303
0.691081 1.0253 2.86553
2.29067 0.631265 2.75613
-0.142483 -1.35941 3.58198
0.0862059 0.275691 2.91063
2.38745 0.896742 2.9287
-0.751754 -0.430105 3.15442
0.627478 1.00065 2.88866
-1.3923 -1.14101 3.16723
0.0576864 0.417541 2.93328
1.16187 -0.358364 2.88051
-0.784899 0.730852 1.8483
0.582438 -1.23316 3.53284
0.269892 0.371659 2.90126
-0.827717 0.716452 1.85854
1.08731 -0.319646 2.88171
0.202906 1.18258 2.94553
1.3657 0.435901 2.79392
-0.478605 -0.286852 3.09337
-0.659482 -1.11321 3.39238
0.386362 -1.4316 3.56714
1.33962 -0.482017 2.83928
-0.491105 0.701573 2.02319
1.23231 0.271669 2.85076
0.523663 -1.51014 3.6847
-1.38019 -0.494313 3.24437
0.63591 0.974184 2.91383
-0.952135 -1.38858 3.56705
0.663528 0.240808 2.92229
-0.619197 0.347505 2.96123
1.40275 -1.31888 3.36482
0.046925 1.07337 2.92239
2.35043 0.230305 2.73612
-0.652699 -0.441081 3.17356
0.631573 0.301012 2.91203
0.422031 -1.29829 3.50502
-0.79603 0.684459 1.88429
0.564589 -0.397455 3.05293
1.08679 -1.67261 3.63981
-0.0694101 -1.58 3.53295
-0.532316 0.172303 2.98164
-1.44068 -0.614741 3.04716
0.785442 0.873027 2.86389
0.869187 0.126772 2.90001
-0.80886 -1.44977 3.35503
0.374582 -1.74562 3.63813
-0.557258 -0.575424 3.10955
0.360946 0.865954 2.97859
2.02332 -0.796325 3.26306
0.667534 -1.62481 3.62416
-0.45206 0.678813 2.10565
1.32623 0.195646 2.78969
1.8391 0.324253 2.80133
1.27073 -0.536664 2.92504
0.78132 -1.71833 4.0414
1.34582 0.692941 2.72231
2.24876 -0.19613 3.57465
-0.280131 0.0275217 3.0209
0.400915 -0.814576 3.3208
-0.250556 0.738249 3.09389
-0.0860234 1.09768 2.95299
0.710678 -0.0151149 2.93573
-0.804724 -0.799931 3.4402
0.917783 0.0940357 2.89317
1.67685 -0.768059 2.55868
1.03699 -0.685056 3.03955
-0.109945 0.842289 3.05815
-0.25834 0.0615691 3.03869
-0.807357 -1.60305 3.44705
1.87045 -0.501765 2.74128
1.65808 0.708014 2.64537
-0.924126 -0.690764 3.30945
-0.196368 0.768722 2.10857
-0.572881 0.320632 3.02045
0.466073 -0.429231 3.06193
-1.05064 -1.25213 3.29652
0.975263 -0.388551 2.98735
-0.346634 0.766223 1.98102
1.33869 -1.23133 3.26961
0.596269 0.380918 2.94408
0.704255 -0.36298 3.02987
1.4519 0.983681 2.63001
1.49321 -1.23034 3.35777
0.515296 0.336919 2.87262
2.52122 0.301331 2.64384
0.788325 -1.71405 3.91547
1.18731 0.201987 2.80451
2.27889 0.139687 2.95736
0.158018 -0.596381 3.18888
-0.362012 0.918267 2.7804
-0.177478 -1.50669 3.62968
0.967743 0.160295 2.86076
2.37884 -0.0943838 2.97378
1.59059 -0.503453 2.75797
1.08301 0.860691 2.81899
1.41567 -1.4119 3.38965
1.42548 0.266983 2.77306
2.19318 0.287113 2.62718
0.655768 -0.513954 3.12264
-0.33161 0.726409 2.06491
-1.45773 -1.23005 3.06677
-1.37964 0.282463 3.08954
-0.00240713 1.32235 2.89784
-0.757097 -0.474365 3.1935
0.384676 0.9897 2.96788
0.138461 0.804583 3.0417
-2.48476 -1.26761 5.22427
-0.100307 1.32773 2.89586
0.448003 0.0596707 2.93299
-0.518417 0.766451 3.03332
-0.306862 -0.713581 3.24634
-0.672113 -0.989465 3.57295
-0.170991 0.0293915 3.00408
1.06212 -0.657272 3.03979
-0.501141 0.800464 2.76978
-0.0872168 -1.69275 3.63665
1.74063 0.122574 2.73343
1.85606 -0.325397 2.71191
1.56571 -0.591244 2.85187
-0.511869 0.830501 3.00952
-0.466081 0.101395 3.01834
0.692641 -1.74278 3.88417
0.719994 -1.58337 3.75915
0.405292 -0.88369 3.27445
-0.998346 0.78664 2.84642
-0.829224 0.704887 3.05935
-0.855826 -0.0683219 3.08168
0.037175 -0.842835 3.2919
0.560144 0.63224 2.96039
-0.578786 -0.0377338 3.07698
1.26544 -1.79428 3.71414
-2.15819 -1.1022 4.39083
-0.283758 0.883733 2.43393
-0.30451 0.952959 2.74774
0.130816 -0.00964097 2.95924
-1.13198 0.724386 2.94486
-3.14285 -3.24878 6.92852
1.0945 0.777545 2.7925
1.46213 -0.638085 2.91551
-1.18674 0.118998 3.13699
-0.101769 -1.69848 3.5255
0.610971 -1.47485 3.58716
2.1995 0.312871 2.619
1.24655 0.825949 2.71882
-0.19675 -0.646025 3.27075
-0.0721061 0.173105 2.97142
-0.879473 -1.52634 3.42641
1.20465 -0.584505 3.01795
1.4324 0.762403 2.60015
0.180412 -1.52436 3.53377
-0.234238 0.13576 3.00141
-0.218716 1.1575 2.9594
0.293922 -0.0442227 2.96106
-0.231498 -0.0111441 3.05544
0.0164484 1.18077 2.88259
1.44065 -0.770143 2.90631
0.139894 0.727955 3.0315
2.32237 -1.52607 4.21309
1.15533 -0.776251 3.10633
-1.16223 0.670174 2.89067
0.316308 -0.783699 3.31805
1.78332 0.0594246 2.76887
-1.00428 0.79265 2.91933
1.53041 -1.49328 3.44649
1.64143 -0.827721 2.7296
1.61119 0.0261582 2.67378
-1.33561 -0.718932 3.27628
1.71726 0.700536 2.71444
0.244589 1.26471 2.92444
-1.19936 0.534979 2.76319
1.27457 1.14407 2.67583
-1.02012 -0.158169 3.15297
0.290151 -0.999196 3.40827
1.86414 0.996907 2.54647
-0.070961 -0.115055 3.03847
0.18914 -0.929629 3.31875
-0.711208 0.636835 2.99344
-1.20111 -0.0739962 3.10071
-1.07136 0.590061 2.90579
1.3187 -0.843984 3.03903
-0.917876 0.466833 2.96074
-0.740719 -1.1641 3.41273
1.6031 -0.297401 2.73645
0.833601 1.12958 2.78714
1.49889 0.391635 2.71573
-1.04235 -1.07057 3.32585
-0.299968 -0.279088 3.07543
-0.0924804 0.832476 2.11994
-0.021705 -1.07354 3.40523
-1.09348 0.532945 2.93606
-0.51481 -0.239346 3.08957
-0.458283 0.873202 1.89729
0.183806 -1.10529 3.629
-1.71161 0.622165 3.63977
-1.04449 -0.197159 3.11275
-0.136412 0.84262 2.00492
0.391583 0.479092 2.92904
1.26582 -0.279799 2.855
-0.156334 0.839289 1.99258
-1.11054 -1.09282 3.32988
-1.31312 -1.03599 3.25759
0.7527 1.13065 2.80572
1.56555 -0.247715 2.84209
-1.10344 0.460743 2.92463
0.800791 -1.06949 3.42433
-0.954982 0.557577 2.95485
-1.35381 -0.207174 3.08635
-0.607946 0.841751 1.87088
1.38524 0.498079 2.79569
1.18006 -0.963038 3.22198
-0.887316 -0.163161 3.11333
0.947444 1.02853 2.78897
0.132179 1.33031 2.88447
1.06322 0.337542 2.88499
-1.06383 -0.405686 3.16621
0.618628 -1.3036 3.49034
-1.35572 -0.38201 3.17953
0.309908 1.17497 2.9791
-1.37073 -1.16416 3.25189
1.799 0.402921 2.78113
-0.267649 0.775308 2.01052
0.502024 -0.330349 3.0361
0.3939 -1.23611 3.53992
1.50579 0.345338 2.73081
-0.015999 -1.52707 3.64642
-0.787188 0.25039 3.038
2.15278 -1.10094 3.52421
1.51764 -0.505437 2.72391
-0.694507 0.66973 2.04262
0.7904 -1.71231 4.13595
-0.754973 0.214391 2.95891
1.31661 -1.72108 3.72325
0.762377 -0.517596 3.0726
-0.769362 0.64648 2.0337
-0.335843 0.312088 2.97319
1.40923 -1.67936 3.55657
1.41198 -1.52488 3.73825
2.07595 0.268674 2.7537
0.916688 -0.47016 3.02094
-0.0027176 1.04359 2.9399
0.437495 -1.40471 3.63709
0.841008 0.272772 2.88856
1.87984 0.681839 2.64663
-1.03086 -0.438148 3.17508
1.67323 0.880076 2.55755
1.65185 0.743657 2.662
1.01316 -1.58929 3.62402
0.0409335 0.095508 3.00125
-1.4031 -0.674426 3.15296
0.500156 0.632575 2.94879
0.578806 0.888824 2.94135
0.131716 -0.646512 3.22009
0.635327 0.16027 2.88895
-1.04761 -1.5518 3.44299
1.25441 -2.00997 4.11736
0.985815 -0.5887 3.04214
0.737998 0.838737 2.89272
0.470024 -1.63814 3.77354
-0.738073 0.13187 3.00417
-0.278682 0.971916 2.38086
0.284877 -0.524692 3.12598
-0.075616 0.479293 1.47232
0.165587 0.270346 2.9231
-0.19016 -1.45225 3.57834
0.885802 0.975038 2.84438
-1.34522 -0.497317 3.22934
-0.197419 0.978695 2.97895
0.0981525 -1.39012 3.4997
-1.38794 0.255317 3.01369
-0.529548 0.349158 3.01618
-0.337221 -1.35252 3.54587
-1.43299 -0.458204 3.19718
-0.342576 0.746526 2.00972
2.10217 0.490768 2.59911
-0.468411 -1.31152 3.55536
0.331933 0.297896 2.91546
2.02164 -0.450073 2.77889
-0.522306 -0.415911 3.26538
1.30604 0.97889 2.72754
-0.280476 -1.63233 3.63736
1.44483 -0.592121 2.83845
-0.894635 -0.32082 3.16181
0.951165 0.123411 2.88511
-0.372723 0.883431 3.06056
2.01885 0.292729 2.76356
-0.692726 0.958431 2.94597
0.625982 -0.602988 3.15556
0.975718 0.906434 2.84708
0.0331465 -1.53156 3.54493
1.65819 0.188812 2.68466
-0.96476 -0.564779 3.15285
-0.798739 0.638245 2.10681
-0.290676 -1.48155 3.55485
-0.312635 0.167768 2.97796
1.19408 0.0106441 2.77725
1.5314 -1.01278 3.28507
1.25755 -0.763591 3.00532
-0.235913 0.766239 3.05803
-1.19387 -0.768047 3.28022
-0.0212872 0.725248 3.04895
-0.276481 1.04846 2.86695
0.157079 -0.0188489 2.95873
-0.763936 0.10023 3.04069
-0.723058 0.822406 2.95751
1.00014 -1.73861 3.68688
-0.469595 -0.73459 3.29112
1.62329 0.601115 2.54735
-1.19012 0.0685395 2.97234
0.49204 -0.69144 3.21553
0.403993 0.793769 2.99301
1.29686 -0.887497 3.05221
1.00076 0.578605 2.91731
-0.546798 -1.61757 3.44876
-0.462809 0.717303 1.93727
1.43099 -0.130321 2.74372
1.92295 0.439442 2.63841
1.18655 -0.0845045 2.76004
0.854145 0.653613 2.89892
0.97089 -0.917997 3.32191
-0.0396129 -0.0511066 3.02399
-0.673236 0.624071 2.99019
0.434885 1.29621 2.88207
1.74223 -0.735056 2.76298
0.254817 0.204841 2.95823
1.04837 -1.56708 3.57194
1.77628 -0.440585 2.73865
0.617929 0.933426 2.94068
-1.39357 -0.632391 3.33365
-1.20995 -1.41337 3.36826
-0.408308 -1.59065 3.42856
1.41829 0.155918 2.82363
-0.147277 -0.553388 3.15352
-0.456447 0.88097 2.90002
-1.08899 -1.32682 3.30135
-0.849817 -0.50649 3.19356
0.896759 -1.78335 3.64982
-0.901227 -0.506376 3.15707
-0.00909656 0.24087 2.94803
2.37193 0.103717 2.94479
-0.309023 0.744246 2.19631
1.235 0.739002 2.75672
1.4076 -0.725976 2.9747
0.804722 0.0558743 2.88474
-0.162646 0.945103 3.02815
-0.730186 -0.731234 3.30519
1.15782 0.719772 2.82081
0.65087 -1.46569 3.55985
-0.831425 0.0335295 3.07981
-1.22277 -0.714807 3.39058
1.76283 0.114458 2.72438
-1.2191 0.831896 2.82223
-0.272188 0.833937 3.02673
1.82927 -0.533561 2.79117
-1.18534 -1.561 3.4518
-0.303679 0.100496 2.96406
0.999354 -0.619797 3.02288
1.12554 -2.11138 4.83931
-0.546597 -0.947006 3.54038
-0.0266268 -0.0759341 3.01242
-0.502042 0.692305 3.09314
-0.336238 0.645482 3.08818
1.19675 -0.824682 3.11511
-1.17994 0.0101946 3.09088
1.07556 -0.0513215 2.8639
1.74859 0.987331 2.53286
-1.60794 -0.83297 3.34436
1.29973 0.663578 2.75952
-1.04972 -0.00816858 3.05202
1.8759 0.519085 2.62726
-0.38224 -0.242251 3.06631
-0.0155579 1.22639 2.64658
-1.34772 -1.00967 3.16885
0.695795 0.519209 2.94083
0.980047 1.15335 2.76081
0.00912163 -0.204688 3.05126
1.02895 1.21861 2.74284
0.147349 0.485305 2.91748
-1.286 -1.05581 3.40002
-0.592925 0.620282 3.12571
1.11808 -0.158576 2.81893
0.975064 -0.973351 3.2603
-0.15012 -0.944172 3.40932
0.310854 1.25998 2.90835
0.90564 -0.124471 2.92513
0.0181091 0.574932 3.03926
1.88067 -0.552891 2.75072
-0.389266 -0.860116 3.368
0.453227 -0.0209359 2.97052
-1.04965 -0.0402972 3.11146
-0.749517 0.719222 3.00594
-0.153865 -0.808612 3.32675
1.09701 0.652542 2.88197
-0.770859 0.0666892 3.07077
1.89559 0.142146 2.74216
-1.13768 -0.787706 3.34771
-0.77722 0.799162 3.00818
-0.339021 0.0240432 2.97922
-1.01899 0.783415 2.83075
0.951723 0.727201 2.86487
1.11513 -0.693929 3.01073
-0.59836 -0.205732 3.11748
-0.654658 0.793302 1.86477
-1.82991 -1.1823 3.78325
0.195621 0.545497 2.91167
0.906213 1.19945 2.77114
1.53754 -0.164271 2.80104
-0.595437 0.827256 1.87271
-0.991027 -0.974201 3.35144
0.886436 0.241923 1.36439
-1.0417 0.789633 2.85292
-0.414766 -0.119388 3.02478
-0.583241 0.634171 3.04979
0.274114 -0.962955 3.40129
-2.66445 -0.26506 5.76574
1.39569 -0.797768 2.86375
-1.21517 0.590349 2.90006
0.136299 0.450463 2.92577
1.49784 -1.15975 3.24275
-0.844397 -0.340352 3.19276
-0.661927 0.745041 1.84559
1.40718 -1.15697 3.38565
-0.0976033 0.421799 2.97005
0.8129 1.10589 2.81564
-1.07366 -0.285375 3.14982
-0.559607 -1.13724 3.59844
1.40671 -0.232093 2.7425
1.69393 0.471504 2.85783
0.355241 1.20807 2.90522
0.989961 0.994643 2.76591
-0.998786 -0.462707 3.09405
-0.144445 0.309821 2.97969
-0.538357 -1.35948 3.47391
0.836295 0.973815 2.82712
-0.463238 -0.45081 3.25869
1.12523 -1.33483 3.39812
-0.898196 0.290462 3.00438
0.360413 -0.404552 3.11739
0.676733 1.09315 2.88551
-1.145 -1.22162 3.3547
2.33977 -0.00636621 2.87761
0.468719 0.368182 2.88153
-0.650034 0.719997 1.92824
0.364776 -0.374198 3.13139
0.113083 -1.2754 3.56879
1.73117 -0.142674 2.8223
1.56564 0.30584 2.66998
0.165512 1.07583 2.95335
0.973297 -0.443133 3.00228
-1.14966 0.352317 2.99076
0.695235 -1.40586 3.61054
-0.479905 0.715394 1.98404
1.50384 -0.383487 2.77548
0.507558 -1.36061 3.6306
-0.42276 0.304366 2.95864
0.64746 -0.365036 2.96105
-0.361401 0.764057 1.94932
-0.0445022 0.528654 1.333
0.0943221 -1.28782 3.57785
-1.2358 0.430225 2.99415
1.57473 0.983655 2.55912
-0.268359 -0.334943 3.12754
1.36522 -1.19482 3.33527
0.184711 0.36389 2.91827
1.07606 0.229691 2.882
-1.04141 -1.38258 3.27542
-0.0173986 0.559286 1.27937
-0.377589 0.708805 2.11913
1.51386 -0.539592 2.8692
0.615238 -1.53471 3.71416
0.642354 0.196487 2.8956
-0.587632 -0.533019 3.22433
-0.588185 0.654605 2.05026
1.23698 -1.48626 3.65934
2.06223 0.34684 2.63423
1.57235 -0.451021 2.74986
1.00582 0.26585 2.89747
2.2422 0.470003 2.59733
-0.250898 0.906655 2.58451
1.29226 -0.67842 2.89839
1.39578 0.748616 2.70206
0.551895 -1.46662 3.59403
1.71207 0.0889262 2.76223
-1.1771 0.737237 2.73776
1.35631 -0.65823 2.97864
-0.666929 0.79171 2.97624
1.65647 0.0443859 2.80149
0.737561 -0.644219 3.12603
1.06499 0.152941 2.82983
1.43724 -1.66761 3.62669
-0.829811 0.632459 2.08632
0.676956 0.852625 2.95381
1.35071 -0.570998 2.88721
2.40354 -0.961331 3.83335
-0.590624 0.12602 3.01136
1.20993 -1.6899 3.83142
-0.277238 1.08585 2.45641
0.870862 -0.853551 3.22883
-1.16591 -0.0155882 3.0874
0.51096 -1.46446 3.57943
-0.0756534 -0.0538732 3.02406
1.34997 0.646227 2.70458
-0.203328 -0.797762 3.30039
1.47158 0.611337 2.726
0.74098 -1.88569 3.97005
0.996805 -0.786277 3.23609
1.9038 0.375675 2.67774
1.59473 -1.47979 3.3989
1.64093 0.0104148 2.74792
0.0502043 0.758098 3.04149
-0.760495 0.626127 2.15697
-0.21021 -1.68183 3.60839
-1.3247 0.139514 3.08831
-0.486514 1.38187 2.96069
1.64879 -0.607854 2.84022
2.23495 0.227959 2.74716
0.197276 -1.67293 3.71229
-0.478482 0.679734 2.12436
-0.226232 -0.614627 3.20784
-1.05933 0.217397 3.02874
1.1434 -1.49493 3.36526
0.929742 -0.558145 3.01468
-1.1393 0.745894 2.45969
-1.16404 -1.40434 3.32469
-0.716196 0.16677 2.96374
1.8658 0.994441 2.5504
1.08624 -0.786047 3.10529
-0.864382 -1.26664 4.49831
0.910991 0.0133774 2.8945
1.49376 -0.0310329 2.78849
1.26655 0.696461 2.76621
-0.595997 -0.754176 3.21484
-0.251984 1.08073 2.45388
1.14681 0.678132 2.83229
0.0132816 0.089578 2.9737
1.56844 -1.37761 3.19725
0.794313 -0.729717 3.16976
1.12089 0.771762 2.79754
0.958827 0.0481881 2.88815
-0.525982 0.78032 2.26796
0.497848 0.768812 2.91724
1.66549 -0.633869 2.8164
-0.386452 0.596993 3.05413
1.82676 1.03905 2.55017
1.36212 -0.129621 2.69837
-0.0471997 1.07 2.40805
1.37243 -0.903371 3.0842
1.89798 0.0846523 2.70267
-0.321884 0.675416 3.06626
-0.537312 -0.0881587 3.08124
1.40649 -0.847697 3.00859
1.7372 -0.0567762 2.77601
-0.0876211 -0.870469 3.34493
1.46531 0.56418 2.67072
1.02389 -1.12673 3.30823
0.568761 0.476914 2.92611
0.502254 1.25498 2.87942
0.735397 -0.288203 3.02793
1.00552 1.14076 2.74142
1.47513 0.424845 2.78524
-1.14221 -1.03321 3.30316
-0.715549 -0.24617 3.06461
0.720761 1.14833 2.85874
-0.591746 -1.10696 3.61831
1.32553 0.515952 2.77616
-0.785819 -0.204877 3.07036
-0.159562 -0.992111 3.3739
-0.769785 0.526621 3.04543
-1.43871 -0.171181 3.088
-0.443713 0.899866 1.87767
-0.113248 0.786114 2.99236
-0.360981 0.843172 1.92765
1.30282 -0.728294 2.9701
1.09481 0.0488043 2.81186
-0.583054 0.761875 3.04684
-1.35773 -0.725996 3.21653
0.510084 -1.46726 3.58758
-0.0441762 0.0196278 2.96545
-1.41057 0.136623 3.05333
1.95491 0.713144 2.56799
-0.729379 -0.684863 3.28335
-0.66917 0.857397 2.89341
-1.1116 0.112698 3.12218
-0.443625 -1.60905 3.56746
0.270646 -0.0857754 0.144047
0.635727 -0.651472 3.18803
1.50654 0.728731 2.62022
1.10661 -0.854629 3.08375
-0.184477 0.663491 2.95944
1.87794 0.11109 2.71006
0.969136 -0.0817117 2.89991
-1.28941 -0.824192 3.18784
0.782696 0.611071 2.9252
-1.47618 -1.58449 3.36436
1.4822 -0.0582761 2.83198
1.5268 0.377351 2.27681
1.79506 0.958962 2.52945
-0.861552 0.713455 2.97693
-1.00502 -0.00448218 3.07337
1.17995 -0.772963 3.06778
-1.09396 -0.249879 3.14157
-0.548552 0.819918 1.88862
0.783157 -1.08738 3.35536
1.68868 0.456608 2.58731
0.973019 -0.208374 2.91815
-0.716879 0.781934 1.86342
-0.125541 0.684598 1.64051
-0.570782 -1.04989 3.43331
-0.391401 0.488868 2.97915
-0.488524 -0.995533 3.36422
0.0905308 0.598375 3.00093
-1.46778 -0.167418 3.0931
-0.992777 -0.914895 3.30301
0.511776 0.536601 2.89019
-0.67364 -0.127567 3.06048
-0.653145 0.857668 1.86069
1.37804 -1.22449 3.32194
0.327843 -0.37148 3.09311
1.28669 0.361033 2.83068
-0.540035 0.74827 1.9445
0.0486372 -0.330978 3.06666
-0.315016 0.790245 1.968
-0.553432 0.457959 2.9867
-1.52238 -1.14864 3.26503
1.00514 1.11509 2.83706
0.118514 -0.287127 3.06206
1.82887 0.392718 2.76588
0.534358 -1.18742 3.53621
-0.24958 -0.212933 3.0891
-0.262611 0.869326 1.95665
0.438773 -1.06729 3.44174
0.373736 1.33866 2.88964
-0.858306 0.594701 3.16789
-0.283234 0.921988 1.9355
1.76454 0.732717 2.58432
-0.434794 -0.168738 3.09066
0.277569 0.511984 2.9307
0.200377 -1.04592 3.55356
-0.200904 0.643617 3.0895
-0.550394 -0.133852 3.08844
-1.3227 -0.922027 3.26124
-0.488652 -0.954697 3.52629
-0.071532 -0.0854522 3.02478
-0.128236 0.595003 2.99831
0.721854 -1.22708 3.48608
1.73151 0.420771 2.696
0.964032 -0.323804 2.89893
1.48352 1.02877 2.52998
0.483552 0.405754 2.9031
1.3599 -1.14752 3.33949
1.12895 -0.280225 2.84185
0.10307 1.12547 2.90576
1.19384 1.12413 2.68884
1.54565 0.433997 2.69015
0.983807 -0.249153 2.92483
0.192613 -1.11147 3.46926
0.880764 -0.483937 3.06153
-0.0555383 1.06173 2.99244
1.54906 0.278038 2.70252
-1.07499 -1.30943 3.3488
-0.95321 -0.460804 3.26446
-0.042438 1.0183 2.97237
-1.44797 -1.19888 3.08482
1.72103 0.252223 2.6809
-1.12941 -0.421153 3.25361
0.0779416 0.366219 2.91527
1.52342 -1.31195 3.42705
0.280072 1.12784 2.97819
-0.00965703 0.531795 1.20984
1.62108 -1.19146 3.21248
-1.48035 -0.385226 3.21888
-0.758138 0.70642 1.89606
0.0206583 0.58535 1.46154
0.180753 0.334781 2.92288
0.562256 -1.57192 3.61916
-1.2695 0.222942 3.02592
-1.4303 -0.605547 3.1667
1.58 0.822433 2.58448
0.505996 -1.58548 3.75378
-1.1059 0.171329 2.92567
2.45195 0.650639 2.78292
1.5059 -0.568456 3.04859
1.41085 0.810502 2.68703
-0.49019 1.44518 2.95956
0.984549 0.941624 2.84516
0.596533 0.232316 2.89857
0.0503992 -0.529339 3.18036
2.16755 -0.707478 3.22303
-1.35806 -1.32646 3.25689
0.631205 0.226512 2.91873
-1.18207 -1.36405 3.22739
0.184645 0.972778 2.99563
0.673378 -0.574724 3.12323
-0.413194 -1.46965 3.59166
