ply
format ascii 1.0
element vertex 1836
property float x
property float y
property float z
end_header
-0.446461 -0.105724 3.03916
0.494577 1.29949 2.87691
-1.4067 -0.903221 3.23041
1.48658 0.50837 2.68862
-1.50475 -1.18762 3.29819
-0.80847 0.438791 3.01068
-0.0740264 -0.0340229 1.01377
1.05649 -0.345182 2.92408
-0.472112 0.747648 1.89724
0.0067897 -1.18374 3.43916
1.61666 0.344723 2.67067
0.655257 1.09358 2.89968
0.196724 -0.318589 3.0664
0.0664792 1.39647 2.49519
0.406821 -1.18066 3.55767
1.04806 -0.261533 2.88383
-0.499981 0.463843 2.96906
0.10044 1.31632 2.64882
0.138032 1.14283 2.88311
0.382669 1.01933 2.98317
0.259058 -0.499864 3.12335
1.34363 0.257258 2.79014
1.01382 -1.41944 3.46864
-1.12169 -0.616011 3.31003
0.0149559 0.610138 1.52841
1.30621 -0.444369 2.87867
1.01775 0.93307 2.78283
1.07547 -1.38495 3.47819
0.117169 0.252825 2.91388
-1.18319 -0.438917 3.20612
0.870334 0.337775 2.91729
0.537337 -1.37378 3.58351
0.0127091 1.0667 2.91638
2.09501 0.451336 2.63018
-0.996521 -1.26538 3.48144
0.712033 1.00872 2.85196
2.18352 -0.115537 3.1833
1.62077 -0.364515 2.75582
-1.37809 0.325444 2.95922
1.72243 0.163525 2.74575
-1.27042 -1.42184 3.16121
1.47282 0.78806 2.59958
0.0750732 -0.634109 3.20145
-0.486912 -1.49098 3.47915
-1.17535 0.145745 2.95695
1.69454 -0.541546 2.786
2.15051 0.1988 2.87662
0.157399 0.859236 2.99203
1.25328 -1.59022 3.74632
0.701992 -1.46149 3.57576
-0.0862266 0.945976 3.02794
-0.0292671 -0.55116 3.16816
1.73175 0.202174 2.74677
2.10526 0.3352 2.64395
1.48439 0.424378 2.69708
1.00345 -0.309487 2.92658
-0.638768 0.757717 1.86741
1.53631 -1.14942 3.25382
0.223296 -1.14818 3.50515
-0.20215 0.785191 1.96111
0.914245 -0.265368 2.97744
-1.03093 0.454822 3.04756
-0.259363 -1.05614 3.35838
-0.883192 0.563884 3.08191
1.38497 -0.220955 2.82334
0.0974073 1.36034 2.62329
-0.567785 0.835244 1.87882
-0.533263 0.504541 2.99636
-0.0597295 -0.0352258 0.998422
-0.489941 -1.08907 3.56818
1.07695 1.13435 2.69648
1.75608 -0.20808 2.80172
-0.354539 -1.31898 3.49879
0.253837 1.05963 2.97618
1.43185 -0.396605 2.83753
0.070856 0.610833 1.40337
-0.204071 0.320974 2.99156
0.196786 1.48422 2.64501
1.23266 1.05099 2.7373
0.0388857 -0.377003 3.10349
1.47171 0.38457 2.91912
0.250496 -1.30682 3.54861
1.40732 0.979301 2.62125
1.24753 -0.344898 2.85027
0.057259 0.933164 1.87593
-0.986813 0.36266 2.96189
-0.866822 -1.1946 3.40977
-0.9402 -0.577934 3.15033
2.07576 0.4231 2.63677
-0.0932393 0.215786 2.96238
-1.00141 -1.42265 3.30924
1.26992 0.87394 2.7411
-0.309726 0.91174 3.05312
1.0125 -1.58471 3.746
2.44059 1.08278 2.91808
1.73519 0.155011 2.73879
0.343185 -0.539337 3.13596
-0.601513 -1.63086 3.42236
-0.152882 0.29048 2.96665
0.930119 -1.56799 3.82058
2.43923 1.10903 2.8632
1.04024 -0.472865 2.92766
-0.0720456 1.02369 3.00129
2.32817 0.619669 2.75649
0.540898 -1.47982 3.74512
-0.317197 0.264675 2.99072
-0.210101 -0.464941 3.16382
-0.728359 0.676287 1.98476
-0.00910949 0.784052 2.98072
-0.679888 0.0723127 3.03342
-0.987727 -0.571009 3.30396
-0.685646 -0.735787 3.39399
-0.112716 1.35311 2.90413
-0.822781 0.668905 2.25702
0.45443 -0.656156 3.14878
-0.552273 0.138783 2.98699
0.394214 -1.6411 3.56259
-0.903103 -0.6599 3.41245
1.33104 0.753574 2.69424
-0.508302 -1.55867 3.50559
0.474513 0.0985871 2.9001
1.21533 0.912094 2.74395
-1.34141 -0.561384 3.2301
2.18857 0.964096 3.04347
1.93654 -0.489454 2.78331
-1.75037 -1.50448 3.52941
1.48048 0.243292 2.84851
0.48334 -0.513715 3.14602
-0.413754 0.684936 2.10552
0.0875241 0.695948 1.45821
-2.22352 -1.91726 4.62604
-1.12509 0.233411 3.05333
-0.836245 0.320761 2.96648
-0.998941 -1.37561 3.46272
0.370893 1.06349 2.9755
2.32476 0.964036 2.93273
1.58916 -0.443735 2.86654
-0.755642 -1.31873 3.50478
-1.32937 0.309546 3.01652
-0.707714 0.69414 1.97161
-0.0275119 -0.434561 3.1695
2.10343 0.354983 2.62693
0.876392 -1.69812 3.68166
1.25161 -0.636215 2.9852
0.779115 -1.6831 3.64953
-1.37872 0.118659 3.08407
-0.566742 0.821726 2.95681
2.21659 0.27285 2.63668
1.28314 1.02835 2.7134
1.30778 -0.580798 2.85215
-0.665245 0.643281 2.07408
1.18228 -1.7197 3.78445
-0.202056 0.190029 2.98921
0.501036 -0.59736 3.21301
1.07283 0.820322 2.81309
1.67999 0.120612 2.76788
-0.0800245 -1.56893 3.63691
-0.0562099 0.704144 2.97273
1.16169 -0.0407074 2.8219
0.0867054 1.28038 2.76926
-0.550342 0.00542796 3.04722
1.40599 -0.760052 2.92383
-0.915681 0.674446 2.93904
2.26489 0.937399 3.2062
0.88437 -0.777605 3.15388
1.43992 0.0528573 2.87298
-0.544377 -0.770274 3.30549
-0.314236 0.792512 3.03103
0.795717 -1.5394 3.73247
-0.935249 0.041765 3.06704
-1.10954 0.229129 3.0297
-1.00851 0.775297 2.99947
0.0453072 -0.711372 3.24412
-0.0967822 -0.966926 3.37561
0.314537 -1.72296 3.62573
-0.185704 -0.146141 3.04086
0.0701305 1.2372 2.78096
0.962417 0.549364 2.89089
0.258151 1.31273 2.90892
1.82176 0.885538 2.54455
-1.16353 -0.109106 3.12657
-0.500522 0.64701 3.06093
1.50281 -0.820003 2.83502
-0.274701 -0.073315 3.0501
1.6519 -0.804824 2.89612
1.21354 0.554736 2.79899
-1.25618 -0.910625 3.26698
-1.30577 -0.114594 3.10074
1.79366 0.512883 2.6447
0.205943 0.580542 2.93509
-0.650363 0.703271 2.20442
0.590878 -0.0741297 2.94628
0.512429 1.27633 2.88219
-0.601369 0.682116 3.06401
0.266229 -0.899373 3.32014
-1.26544 -0.0421404 3.08051
1.03888 -0.850507 3.2737
0.607003 0.625742 2.98601
-1.28927 -0.287711 3.19929
-0.745702 0.752392 1.79274
-0.720501 -1.11883 3.42454
-0.282529 0.492241 2.98229
-0.206279 -0.229997 3.08932
0.434482 1.15609 2.89622
-3.40985 1.10839 7.05097
0.59598 -1.08996 3.38832
-0.774323 -1.05643 3.48412
0.997971 0.543169 2.89974
0.66361 -0.198254 2.96121
-0.854701 0.227351 3.03533
-0.32226 0.800773 2.09879
0.0634912 0.529126 2.96894
1.14624 -0.981858 3.28877
-0.30506 0.898205 1.93697
-0.74987 -0.150294 3.07936
0.859802 -1.36861 3.67689
-0.985182 -0.392723 3.15349
-0.273142 -1.12399 3.49633
-0.0662238 0.355035 2.97238
0.0471884 1.35724 2.64194
-0.762932 0.706307 1.89747
1.7597 -0.349187 2.73268
1.61288 1.00729 2.53237
2.50311 0.700273 2.7952
1.55482 0.366956 2.51135
-1.06231 -1.09054 3.10158
-0.671716 0.733013 1.92055
0.408195 -0.319705 3.07979
-0.253809 0.37742 2.939
0.491449 -1.28132 3.69503
0.148595 -0.554232 3.15491
2.34647 -0.156986 3.01762
-0.233946 0.250798 2.98388
-0.736645 -1.45796 3.52486
1.67921 0.853867 2.54614
1.37756 0.842852 2.64324
-0.92822 -1.39539 3.48539
0.284835 1.37733 2.9039
-0.0468116 0.21806 2.94451
0.881061 -0.506099 3.03929
-0.685478 -1.35064 3.46463
-0.794763 0.32562 3.00606
1.13314 -0.437221 2.88284
0.68231 1.01359 2.86455
2.28079 0.630687 2.7609
-0.135988 -1.35231 3.57177
0.0921091 0.275069 2.90099
2.38332 0.898159 2.93454
-0.735975 -0.431792 3.1524
0.6204 0.994395 2.89246
-1.3923 -1.14101 3.16723
0.0631642 0.420603 2.92528
1.15861 -0.354209 2.87349
-0.784899 0.730852 1.8483
0.590337 -1.23051 3.52507
0.27133 0.36757 2.89487
-1.06981 -0.130854 2.95957
-0.827717 0.716452 1.85854
1.08127 -0.31468 2.87461
0.19664 1.17278 2.9452
0.0795434 1.31176 2.44144
1.35458 0.429635 2.79648
-0.463416 -0.289477 3.08857
-0.996196 -0.0125981 3.10599
-0.652718 -1.11454 3.39485
0.390373 -1.42805 3.55409
1.33479 -0.474812 2.83991
-0.491105 0.701573 2.02319
1.22456 0.273815 2.85106
0.536035 -1.50513 3.67421
-1.38019 -0.494313 3.24437
0.630964 0.970442 2.91962
0.0596662 0.941967 1.95725
-0.952135 -1.38858 3.56705
0.661564 0.2349 2.91421
-0.606434 0.345797 2.97194
1.39654 -1.31912 3.35846
0.0524268 1.06237 2.91852
2.33915 0.244782 2.74376
-0.639482 -0.445126 3.17494
0.62957 0.294431 2.90771
0.437563 -1.29856 3.49722
-0.79603 0.684459 1.88429
0.567675 -0.392329 3.04793
1.09749 -1.67667 3.62394
-0.0694101 -1.58 3.53295
-0.522005 0.172214 2.98711
-1.44068 -0.614741 3.04716
0.781662 0.866268 2.86618
0.861725 0.120796 2.89761
-0.80886 -1.44977 3.35503
0.374582 -1.74562 3.63813
-0.544607 -0.571771 3.1128
0.354637 0.859309 2.98243
2.01181 -0.794326 3.26484
0.658224 -1.61905 3.62455
-0.45206 0.678813 2.10565
1.31407 0.195338 2.79186
1.82397 0.317447 2.81035
1.26556 -0.530902 2.92155
0.78132 -1.71833 4.0414
1.32797 0.680822 2.72176
2.23284 -0.1873 3.58394
-0.274552 0.0303444 3.01976
0.409372 -0.813826 3.31474
-0.240321 0.733696 3.10214
-0.0763529 1.09319 2.96285
0.712582 -0.0132513 2.93258
-0.793271 -0.797472 3.44982
0.910231 0.0951709 2.8896
1.67685 -0.768059 2.55868
1.03984 -0.677949 3.03812
-0.0994559 0.831881 3.06326
-0.25109 0.0648513 3.0409
-0.807357 -1.60305 3.44705
1.8534 -0.509389 2.74136
1.64383 0.698979 2.66029
-0.918519 -0.690562 3.31601
-0.196368 0.768722 2.10857
-0.55956 0.323 3.02852
-0.935795 0.0182341 3.08657
0.468234 -0.424603 3.05775
0.102176 1.24749 2.43893
-1.05064 -1.25213 3.29652
0.975596 -0.379155 2.98851
-0.346634 0.766223 1.98102
1.33936 -1.22859 3.26137
0.590668 0.375597 2.93823
0.70678 -0.359725 3.02534
1.44445 0.975505 2.63061
1.48822 -1.2257 3.35578
0.512532 0.333565 2.85911
2.50831 0.310539 2.64993
0.78843 -1.71313 3.91551
1.17773 0.20272 2.80323
2.26213 0.146278 2.96737
0.165412 -0.592244 3.17991
-0.362012 0.918267 2.7804
-0.177478 -1.50669 3.62968
0.954732 0.157253 2.84843
2.35845 -0.090167 2.98275
1.58371 -0.49372 2.76261
1.07344 0.850245 2.82269
1.41567 -1.4119 3.38965
1.40705 0.269535 2.77997
2.17632 0.289123 2.63877
0.656663 -0.50822 3.1193
-0.33161 0.726409 2.06491
-1.45773 -1.23005 3.06677
-1.37964 0.282463 3.08954
-0.0141412 1.32403 2.89494
-0.745841 -0.474265 3.19295
0.383582 0.9805 2.97526
0.133411 0.793758 3.04782
-2.48476 -1.26761 5.22427
-0.100307 1.32773 2.89586
0.447585 0.0584293 2.92018
-0.513952 0.767913 3.03684
-0.296072 -0.715027 3.23722
-0.677152 -0.984667 3.57578
-0.163095 0.0328606 3.0063
1.06067 -0.650777 3.03501
-0.499786 0.799854 2.76914
-0.0872168 -1.69275 3.63665
1.73102 0.118193 2.73929
1.84676 -0.321008 2.71273
1.55997 -0.58565 2.85028
-0.501827 0.819167 3.00729
-0.451632 0.100618 3.01699
0.695348 -1.74145 3.88721
0.714934 -1.58537 3.76221
0.405151 -0.876875 3.26508
-0.998346 0.78664 2.84642
-0.829224 0.704887 3.05935
-0.847026 -0.063038 3.08943
0.0417305 -0.837454 3.28735
0.559513 0.625732 2.94885
-0.563898 -0.0357355 3.07653
1.26525 -1.78827 3.70937
-2.15819 -1.1022 4.39083
-0.283758 0.883733 2.43393
-0.30451 0.952959 2.74774
0.136769 -0.00462607 2.94804
-1.13198 0.724386 2.94486
-3.14285 -3.24878 6.92852
1.08164 0.767086 2.79321
1.46023 -0.626276 2.91653
-1.18674 0.118998 3.13699
-0.101769 -1.69848 3.5255
0.617518 -1.47248 3.58291
2.18336 0.319988 2.63118
1.2317 0.813269 2.71771
-0.185032 -0.638734 3.26803
-0.067863 0.178586 2.96387
-0.879473 -1.52634 3.42641
1.20576 -0.576399 3.00989
1.41744 0.751045 2.60629
0.192938 -1.52896 3.52339
-0.22584 0.136779 3.00298
-0.216828 1.15673 2.95841
0.296453 -0.0352014 2.95833
-0.227082 -0.00639215 3.0515
0.0152663 1.16815 2.87386
1.43795 -0.768069 2.90218
0.139374 0.721102 3.03556
2.3089 -1.52285 4.22318
1.1551 -0.768154 3.10415
-1.16223 0.670174 2.89067
0.322679 -0.780991 3.30995
1.78332 0.0594246 2.76887
-1.00428 0.79265 2.91933
1.52365 -1.49214 3.43922
1.64143 -0.827721 2.7296
1.61119 0.0261582 2.67378
-1.33561 -0.718932 3.27628
1.71726 0.700536 2.71444
0.239208 1.25429 2.92985
-1.19936 0.534979 2.76319
1.27267 1.14238 2.67673
-1.01839 -0.158023 3.15434
0.288716 -0.996291 3.39753
1.86285 0.998359 2.54569
-0.0642988 -0.110345 3.03323
0.194314 -0.925087 3.30166
-0.711208 0.636835 2.99344
-1.20111 -0.0739962 3.10071
-1.07136 0.590061 2.90579
1.31414 -0.838696 3.03626
-0.917876 0.466833 2.96074
-0.738232 -1.16403 3.41774
1.6031 -0.297401 2.73645
0.825322 1.11823 2.78945
1.48028 0.385146 2.71728
-1.04235 -1.07057 3.32585
-0.297498 -0.274855 3.07287
-0.0924804 0.832476 2.11994
-0.141712 1.17389 2.84552
-0.012135 -1.07107 3.396
-1.09348 0.532945 2.93606
-0.504148 -0.240357 3.08201
-0.458283 0.873202 1.89729
-1.15525 -0.248218 2.96859
0.186366 -1.09724 3.6189
-1.71161 0.622165 3.63977
-1.04449 -0.197159 3.11275
-0.136412 0.84262 2.00492
0.39439 0.475889 2.9282
1.2605 -0.271461 2.8565
-0.156334 0.839289 1.99258
-1.11054 -1.09282 3.32988
-1.31312 -1.03599 3.25759
0.746461 1.11965 2.80974
1.5565 -0.241776 2.84518
-1.10344 0.460743 2.92463
0.803207 -1.06328 3.4155
-0.954982 0.557577 2.95485
-1.35381 -0.207174 3.08635
-0.607946 0.841751 1.87088
0.356026 -0.0667735 0.179623
1.37373 0.493222 2.79867
1.18303 -0.95459 3.21816
-0.878003 -0.165288 3.11689
0.937856 1.01767 2.79142
0.132179 1.33031 2.88447
1.05027 0.335633 2.87317
-0.0172135 1.07931 2.36594
-1.06383 -0.405686 3.16621
0.626017 -1.29812 3.48308
1.96253 0.508662 2.64209
-1.35572 -0.38201 3.17953
0.304209 1.16567 2.98396
-1.37073 -1.16416 3.25189
1.78546 0.39611 2.78743
-0.267649 0.775308 2.01052
0.505573 -0.323354 3.03631
2.64931 0.641449 2.72403
0.389421 -1.23135 3.5263
1.49255 0.339756 2.73512
-0.00771569 -1.51845 3.64619
-0.78247 0.257624 3.04169
2.15368 -1.09351 3.52114
1.51217 -0.497421 2.72414
-0.694507 0.66973 2.04262
0.7904 -1.71231 4.13595
-0.752444 0.217918 2.96604
1.31578 -1.7209 3.72193
0.761212 -0.514467 3.06823
-0.769362 0.64648 2.0337
-0.325556 0.314275 2.98176
1.40923 -1.67936 3.55657
1.40721 -1.51737 3.73304
2.06071 0.270173 2.76211
0.917497 -0.460798 3.02836
-0.00511877 1.02959 2.93117
0.437581 -1.40079 3.62845
0.835153 0.270221 2.87465
1.8782 0.675516 2.64674
-1.03086 -0.438148 3.17508
1.66535 0.873305 2.5619
1.63741 0.737251 2.67028
1.01557 -1.58916 3.62046
0.0448503 0.104707 2.98917
-1.4031 -0.674426 3.15296
0.493523 0.628113 2.94453
0.570345 0.881263 2.93982
0.139416 -0.640148 3.21537
0.634071 0.158112 2.87302
-1.04761 -1.5518 3.44299
1.26226 -2.00901 4.11637
0.982143 -0.582849 3.03797
0.730156 0.829075 2.89851
0.472545 -1.63313 3.76561
-0.732716 0.136053 3.01846
-0.278682 0.971916 2.38086
0.291777 -0.522109 3.1157
-0.0767301 0.481252 1.47176
0.169948 0.270549 2.91189
-0.186052 -1.4502 3.58013
0.881507 0.967562 2.85245
-1.34522 -0.497317 3.22934
-0.192679 0.970051 2.98631
2.66214 0.871705 2.8345
0.105574 -1.39014 3.49069
-1.38794 0.255317 3.01369
-0.514315 0.349489 3.02445
-0.328476 -1.34882 3.5488
-1.43299 -0.458204 3.19718
-0.342576 0.746526 2.00972
2.08496 0.49554 2.60383
-0.457155 -1.31141 3.56059
0.331632 0.295375 2.89599
2.00606 -0.456431 2.77941
-0.508252 -0.411839 3.26872
1.29142 0.967615 2.73247
-0.280476 -1.63233 3.63736
1.4398 -0.586278 2.83917
-0.878526 -0.321748 3.16195
0.943543 0.127456 2.87808
-0.366203 0.875925 3.06579
2.00362 0.303275 2.77189
-0.692726 0.958431 2.94597
0.628083 -0.598043 3.15268
0.965237 0.897932 2.85222
0.0331465 -1.53156 3.54493
1.64895 0.183844 2.69025
-0.96476 -0.564779 3.15285
-0.798739 0.638245 2.10681
-0.290676 -1.48155 3.55485
-0.307223 0.167381 2.98077
1.18542 0.00934774 2.7746
1.52441 -1.0024 3.28373
1.25213 -0.759397 2.99628
-0.222936 0.761973 3.06659
-1.19387 -0.768047 3.28022
-0.0236971 0.722347 3.05887
-0.276481 1.04846 2.86695
0.163967 -0.014702 2.94773
-0.758136 0.105453 3.05606
-0.723058 0.822406 2.95751
0.996702 -1.73579 3.68224
-0.455282 -0.733377 3.28605
1.62329 0.601115 2.54735
-1.19012 0.0685395 2.97234
0.497741 -0.687876 3.21218
0.403046 0.787574 2.99711
1.29632 -0.883038 3.04864
0.993162 0.570846 2.92383
-0.546798 -1.61757 3.44876
-0.462809 0.717303 1.93727
1.42118 -0.131616 2.74463
1.90896 0.43437 2.63662
1.17613 -0.085966 2.75482
0.845067 0.646303 2.90167
0.975146 -0.91184 3.31511
-0.0336808 -0.0512388 3.02007
-0.669666 0.620994 2.99429
0.42647 1.28853 2.87693
1.74223 -0.735056 2.76298
0.25789 0.209426 2.9544
1.04375 -1.56334 3.57145
1.76628 -0.44145 2.74105
0.616245 0.924134 2.93873
-1.39357 -0.632391 3.33365
-1.20995 -1.41337 3.36826
-0.408308 -1.59065 3.42856
1.40672 0.155892 2.82885
-0.13902 -0.553221 3.1514
-0.4542 0.876377 2.90144
-1.08899 -1.32682 3.30135
-0.845584 -0.503112 3.19896
0.896759 -1.78335 3.64982
-0.890858 -0.50595 3.15926
-0.000471067 0.240429 2.94263
2.35341 0.113301 2.95464
-0.309023 0.744246 2.19631
1.22601 0.727311 2.75824
1.40304 -0.720256 2.97368
0.800343 0.0516002 2.87488
-0.154149 0.931318 3.03317
-0.723398 -0.734459 3.31185
1.1506 0.717759 2.82634
0.647571 -1.46049 3.56133
-0.819544 0.0286916 3.09871
-1.22277 -0.714807 3.39058
1.75133 0.104959 2.73321
-1.2191 0.831896 2.82223
-0.26426 0.824751 3.03338
1.82927 -0.533561 2.79117
-1.18534 -1.561 3.4518
-0.292159 0.107506 2.96508
1.0002 -0.613363 3.02072
1.1341 -2.10419 4.83824
-0.529787 -0.951955 3.54826
-0.0177876 -0.0652058 3.00992
-0.495828 0.686091 3.10284
-0.333449 0.643356 3.10134
1.19399 -0.820514 3.11109
-1.17994 0.0101946 3.09088
1.06593 -0.0454009 2.85761
1.74759 0.986223 2.53273
-1.60794 -0.83297 3.34436
1.28752 0.658884 2.76455
-1.04972 -0.00816858 3.05202
1.85911 0.51667 2.63355
-0.371095 -0.239803 3.0618
-0.0155579 1.22639 2.64658
-1.34772 -1.00967 3.16885
0.688116 0.519133 2.94223
0.971941 1.14398 2.76358
0.0237409 -0.203529 3.04878
1.01706 1.20966 2.7414
0.148045 0.479272 2.91789
-1.286 -1.05581 3.40002
-0.592925 0.620282 3.12571
1.10801 -0.154334 2.81177
0.97698 -0.968264 3.25208
-0.140802 -0.939925 3.40667
0.303626 1.24925 2.90857
0.901907 -0.124131 2.91535
0.0252875 0.576151 3.03957
1.86808 -0.556531 2.75018
-0.383264 -0.858423 3.375
0.455189 -0.0207996 2.96204
-1.04965 -0.0402972 3.11146
-0.749517 0.719222 3.00594
-0.146286 -0.808359 3.31744
1.08884 0.650691 2.88989
-0.766151 0.0773021 3.08738
1.89559 0.142146 2.74216
-1.13768 -0.787706 3.34771
-0.77722 0.799162 3.00818
-0.325283 0.024529 2.97451
-1.01899 0.783415 2.83075
0.940296 0.723031 2.87
1.11122 -0.688438 3.00546
-0.584678 -0.202173 3.11865
-0.654658 0.793302 1.86477
-1.82991 -1.1823 3.78325
0.199867 0.54434 2.90999
0.896776 1.18896 2.77176
1.52925 -0.158203 2.80307
-0.595437 0.827256 1.87271
-0.991027 -0.974201 3.35144
0.886436 0.241923 1.36439
-1.0417 0.789633 2.85292
-0.406935 -0.117975 3.02247
-0.581066 0.629526 3.05981
0.272903 -0.959052 3.39084
-2.66445 -0.26506 5.76574
1.38778 -0.794397 2.86286
-1.21517 0.590349 2.90006
0.13904 0.441487 2.92978
1.48903 -1.15822 3.23886
-0.837582 -0.341472 3.1977
-0.661927 0.745041 1.84559
1.40942 -1.15567 3.3784
-0.0923703 0.420603 2.9643
0.804594 1.09598 2.81895
-1.07366 -0.285375 3.14982
-1.25228 -0.337797 3.18168
-0.536855 -1.14277 3.60344
1.39911 -0.227961 2.74278
1.69393 0.471504 2.85783
-1.01746 -0.271087 2.94854
0.352037 1.19717 2.91423
0.978112 0.983231 2.76471
-0.998786 -0.462707 3.09405
-0.13578 0.309972 2.97959
-0.538357 -1.35948 3.47391
0.832201 0.964102 2.83139
2.37654 0.464663 2.59385
-0.451651 -0.448492 3.26008
0.119932 1.4193 2.54877
1.11827 -1.33522 3.38036
-0.898196 0.290462 3.00438
0.365851 -0.40071 3.11041
0.675534 1.08118 2.89022
-1.145 -1.22162 3.3547
2.33062 0.00628414 2.8822
0.466477 0.361517 2.87403
-0.650034 0.719997 1.92824
0.368545 -0.370666 3.1256
0.11376 -1.27639 3.56553
1.72248 -0.146538 2.82555
1.55014 0.293624 2.67299
0.164119 1.06133 2.95476
0.97205 -0.439959 2.99929
-1.14966 0.352317 2.99076
0.701368 -1.40144 3.59854
-0.479905 0.715394 1.98404
0.00962844 1.13174 2.31639
1.49655 -0.38083 2.77701
0.506712 -1.35925 3.61814
-0.409639 0.308317 2.96097
1.87015 0.531091 2.63844
0.651149 -0.363396 2.95738
-0.361401 0.764057 1.94932
-0.0447284 0.538021 1.37143
0.0986318 -1.28389 3.5682
-1.2358 0.430225 2.99415
1.57473 0.983655 2.55912
-0.261513 -0.328887 3.12855
1.36575 -1.1906 3.32909
2.63194 0.690525 2.76086
0.187313 0.362058 2.92855
1.06596 0.225289 2.87625
-1.04141 -1.38258 3.27542
-0.0149509 0.560813 1.28744
-0.377589 0.708805 2.11913
1.50578 -0.53376 2.86869
0.617886 -1.53038 3.7154
0.636836 0.196316 2.88475
-0.576573 -0.532792 3.2306
-0.588185 0.654605 2.05026
1.23756 -1.48325 3.65079
2.04583 0.356512 2.64991
1.57056 -0.445901 2.75077
0.99496 0.260171 2.89223
2.22849 0.471431 2.60251
-0.250898 0.906655 2.58451
1.287 -0.674191 2.89378
1.38488 0.739713 2.70533
0.560826 -1.46187 3.58927
1.71207 0.0889262 2.76223
-1.1771 0.737237 2.73776
1.3547 -0.651679 2.9741
-0.666929 0.79171 2.97624
1.64716 0.0417326 2.80837
0.737415 -0.640876 3.12298
1.05354 0.151687 2.8208
1.43724 -1.66761 3.62669
-0.829811 0.632459 2.08632
0.670949 0.843934 2.95935
1.34145 -0.569888 2.88545
2.39934 -0.948894 3.83458
-0.579081 0.126612 3.01862
1.21179 -1.68775 3.82787
-0.277238 1.08585 2.45641
0.869716 -0.845588 3.22373
-1.16591 -0.0155882 3.0874
0.515078 -1.46183 3.57897
-0.0699583 -0.0536297 3.01761
1.33529 0.640544 2.7068
-0.193448 -0.795115 3.29543
1.45995 0.607715 2.72567
0.74098 -1.88569 3.97005
0.994105 -0.781688 3.23168
1.9038 0.375675 2.67774
1.59005 -1.48154 3.396
1.62474 0.0109592 2.75542
0.0528965 0.752597 3.05027
-0.760495 0.626127 2.15697
-0.21021 -1.68183 3.60839
-1.3247 0.139514 3.08831
-0.486514 1.38187 2.96069
1.64208 -0.60361 2.8413
2.2231 0.236965 2.75469
0.212348 -1.68086 3.69916
-0.478482 0.679734 2.12436
-0.213008 -0.619934 3.19695
-1.05933 0.217397 3.02874
1.1434 -1.49493 3.36526
0.927256 -0.556811 3.00805
-1.1393 0.745894 2.45969
-1.16404 -1.40434 3.32469
-0.710857 0.169252 2.97727
1.86463 0.995941 2.54951
1.08373 -0.781876 3.10094
-0.861469 -1.26357 4.49764
0.907981 0.0163576 2.8917
1.48358 -0.0344983 2.78831
1.25825 0.694467 2.7732
-0.587219 -0.758591 3.22232
-0.251984 1.08073 2.45388
1.13938 0.677967 2.84432
0.0199673 0.0943695 2.96964
1.56844 -1.37761 3.19725
0.795553 -0.720731 3.16758
1.10684 0.756691 2.7981
0.957507 0.0522442 2.88791
-0.525982 0.78032 2.26796
0.495822 0.760668 2.9229
1.65655 -0.630748 2.81878
-0.377147 0.594899 3.05968
1.82676 1.03905 2.55017
1.35303 -0.126232 2.69594
-0.0471997 1.07 2.40805
1.36965 -0.898117 3.08035
1.88432 0.0777355 2.71014
-0.315077 0.670036 3.0788
-0.523782 -0.0880922 3.0807
1.40003 -0.83965 3.00154
1.7372 -0.0567762 2.77601
-0.08211 -0.868215 3.33878
1.45608 0.559481 2.66894
1.02379 -1.12268 3.30196
0.565991 0.470512 2.92033
0.499637 1.24514 2.87933
0.734024 -0.278703 3.02865
0.993557 1.12889 2.74324
1.4609 0.417485 2.79097
-1.14221 -1.03321 3.30316
-0.707564 -0.240313 3.06573
0.712941 1.13945 2.8586
-1.10546 -0.088628 3.12752
-0.586413 -1.10577 3.61553
1.31083 0.5143 2.78537
-0.778373 -0.202888 3.06703
-0.146951 -0.992754 3.36797
-0.769785 0.526621 3.04543
-1.43871 -0.171181 3.088
-0.443713 0.899866 1.87767
-0.114848 0.775427 2.99384
-0.360981 0.843172 1.92765
1.2999 -0.719194 2.96638
1.08997 0.0488615 2.80368
-0.575653 0.757718 3.05287
-1.35773 -0.725996 3.21653
0.530111 -1.46702 3.57333
-0.0383165 0.0239182 2.96939
-1.41057 0.136623 3.05333
1.94812 0.712646 2.569
-0.722927 -0.68726 3.28807
-0.66917 0.857397 2.89341
-1.1116 0.112698 3.12218
-0.443625 -1.60905 3.56746
0.270646 -0.0857754 0.144047
0.643299 -0.645184 3.18638
1.49323 0.722215 2.62069
1.10457 -0.846275 3.08009
-0.175299 0.65713 2.96337
1.8672 0.103964 2.71516
0.961567 -0.0769557 2.8973
-1.28941 -0.824192 3.18784
0.777291 0.604307 2.92854
-1.47618 -1.58449 3.36436
1.47076 -0.0550735 2.83268
1.5268 0.377351 2.27681
1.79454 0.957757 2.52724
-0.861552 0.713455 2.97693
-1.00502 -0.00448218 3.07337
1.17994 -0.766658 3.0648
-1.09396 -0.249879 3.14157
-0.548552 0.819918 1.88862
0.787334 -1.08303 3.34547
1.67622 0.448065 2.59266
0.971709 -0.200547 2.91891
-0.716879 0.781934 1.86342
-0.125541 0.684598 1.64051
-0.544403 -1.06297 3.43899
-0.37953 0.490252 2.98173
-0.488524 -0.995533 3.36422
0.0958802 0.593209 3.00409
-1.46778 -0.167418 3.0931
-0.983951 -0.917942 3.30818
0.50982 0.52572 2.8814
-0.660502 -0.129774 3.05525
-0.653145 0.857668 1.86069
1.37809 -1.22241 3.31449
0.261306 1.39448 2.73617
0.329797 -0.367048 3.08867
1.28106 0.355754 2.83361
-0.158556 -0.0673481 1.14545
-0.540035 0.74827 1.9445
0.0530574 -0.321935 3.06123
-0.315016 0.790245 1.968
0.271276 1.52085 2.7881
-0.543118 0.456446 2.99541
-1.52238 -1.14864 3.26503
0.99513 1.10991 2.83677
0.126388 -0.281014 3.05426
1.81547 0.387486 2.77279
0.537997 -1.18265 3.52561
-0.243597 -0.205811 3.08749
-0.262611 0.869326 1.95665
0.448352 -1.06505 3.42806
0.373244 1.32669 2.89913
-0.858306 0.594701 3.16789
-0.283234 0.921988 1.9355
1.755 0.725498 2.58713
-0.419359 -0.166037 3.08923
0.276473 0.507635 2.9325
0.204588 -1.04278 3.54284
-0.193328 0.63993 3.09579
-0.539127 -0.13677 3.08525
-1.3227 -0.922027 3.26124
-0.472091 -0.961196 3.52901
-0.0673257 -0.0861697 3.01165
-0.117733 0.593406 3.00491
0.721647 -1.22526 3.47409
1.73151 0.420771 2.696
0.960261 -0.317535 2.89952
1.48352 1.02877 2.52998
0.482213 0.39912 2.89375
1.36205 -1.1419 3.33261
1.12408 -0.276245 2.83557
0.0996425 1.10876 2.9052
1.1848 1.11599 2.6909
2.48459 0.371275 2.60301
1.53673 0.415853 2.70587
0.981643 -0.243401 2.92501
-0.133762 -0.107644 1.03978
0.20656 -1.11228 3.45831
0.88201 -0.479831 3.05421
-0.0519479 1.04823 2.98915
1.53832 0.274435 2.71156
-1.07499 -1.30943 3.3488
2.50959 0.0302607 2.93438
0.246624 1.52808 2.72692
-0.938987 -0.46105 3.27541
-0.0456884 1.00755 2.95923
-1.44797 -1.19888 3.08482
1.72103 0.252223 2.6809
-1.12941 -0.421153 3.25361
0.0816751 0.361948 2.91685
1.51982 -1.31237 3.42087
0.276675 1.11574 2.9839
-0.00549808 0.530909 1.21694
1.61848 -1.18713 3.20495
-1.48035 -0.385226 3.21888
-0.758138 0.70642 1.89606
0.0289735 0.582558 1.46442
0.183658 0.334433 2.91925
0.575823 -1.56754 3.60869
-1.2695 0.222942 3.02592
-1.4303 -0.605547 3.1667
1.56948 0.811522 2.58887
0.506051 -1.57745 3.75221
-1.1059 0.171329 2.92567
2.43949 0.653367 2.78886
1.50172 -0.561147 3.04888
1.39713 0.800432 2.69237
-0.49019 1.44518 2.95956
0.975165 0.928854 2.84627
0.593643 0.229768 2.8896
0.0571949 -0.523812 3.17283
2.15298 -0.710384 3.22482
-1.35806 -1.32646 3.25689
0.625889 0.227286 2.90937
-1.18207 -1.36405 3.22739
0.188979 0.955917 2.99779
0.674443 -0.57223 3.11579
-0.413194 -1.46965 3.59166
-0.817738 0.206167 2.97199
-1.27442 -0.541749 3.25634
-0.258477 0.932241 3.04318
0.022995 0.710353 1.80127
0.116406 0.989571 2.96358
2.49773 0.818581 2.88013
-1.03163 -1.62978 3.45937
0.435666 0.260598 2.87208
-1.06118 -0.485758 3.09076
2.26583 0.028536 2.97049
0.318494 -1.46781 3.64921
-1.12888 0.77059 2.76615
-1.08073 -0.765955 3.33729
-0.223015 0.0920512 3.0322
0.056574 1.31679 2.88024
-0.0363179 -0.693997 3.24908
-0.412033 1.31602 2.95314
-0.0336136 0.765058 2.9933
-0.716132 0.0638376 3.04786
0.376436 -0.641988 3.15403
-0.104359 0.169668 3.00994
-0.33942 -1.59384 3.52051
-0.174462 0.877124 3.03546
0.0829985 0.697924 3.35236
-0.743605 0.861899 2.93904
-1.03317 -1.46144 3.30643
1.4036 0.105135 2.85668
1.43807 -0.574069 2.93574
-0.298409 0.858929 1.9311
-0.838886 -0.995208 3.80012
-0.958014 0.699852 2.944
-0.142299 -0.0528241 3.02006
1.51094 -0.681115 2.66972
-0.97405 0.728643 3.25019
0.31037 -0.0161384 2.96996
-0.212204 1.01318 2.76517
1.80826 0.348344 2.66186
0.699141 0.728335 2.95036
-1.20406 0.0249272 3.09143
1.51559 0.406715 2.27159
1.45178 -0.716681 2.93055
0.431112 -0.204682 2.99215
-0.129502 0.942663 2.14989
0.344019 1.26135 2.91346
-0.43435 -1.0871 3.50739
-0.987684 0.55402 2.96334
1.3248 -0.165775 2.79559
-0.633037 0.807645 1.86557
1.69799 1.11181 2.56109
-1.10889 -0.967978 3.26557
-0.343085 0.511518 2.99844
-0.592558 -0.983396 3.43431
-1.12846 0.606026 2.8669
-1.03534 -0.132677 3.16647
1.7134 -0.794403 2.8063
1.55752 0.518954 2.68749
-0.730456 -0.0841755 3.04118
0.681843 -0.798428 3.18235
1.04463 0.012938 2.87528
2.53678 0.0174992 3.78976
0.927493 -0.0223283 2.8835
-0.307212 0.756695 3.09732
0.226048 -0.777131 3.28139
1.02535 0.681206 2.88201
1.85746 -1.40646 3.26873
-1.38592 -0.723442 3.14278
-0.869566 0.766737 2.65009
-0.345181 0.0452857 2.97265
1.33726 0.699181 2.71501
-1.38726 -0.173111 3.08305
1.36212 -0.934265 3.05691
-0.385104 0.57725 3.00043
1.8881 0.587286 2.61874
1.54309 -0.135832 2.74776
-0.547124 0.855084 1.88399
1.87578 0.364747 2.64646
-1.43748 -0.910697 3.17817
0.603426 0.536145 2.92297
0.867073 -0.0971008 2.95705
1.38553 0.59248 2.70329
-0.102087 -0.907477 3.3439
0.772563 1.25866 2.82701
0.640304 -0.0605304 2.93463
-1.40452 -0.824811 3.13209
1.72695 0.562857 2.71058
1.15676 -1.15638 3.37352
1.74932 0.449847 2.74466
0.0803765 -0.288509 3.0577
-0.451032 0.775919 1.86275
-0.691213 0.458094 3.08297
0.105551 -1.15086 3.551
0.000273956 0.844452 2.09144
0.472207 -0.255955 2.97797
0.605187 -1.61152 3.58319
1.58916 -0.996732 3.12741
1.6597 -0.207022 2.72582
0.613858 0.500871 2.92179
-0.691954 0.71162 1.91368
1.32895 -0.410782 2.74935
0.958564 1.00365 2.7823
1.29467 -1.3608 3.43636
1.39592 0.311186 2.79089
-0.0477358 0.943565 2.15424
-0.247724 -0.413109 3.1663
0.520986 1.01575 2.91863
-0.246052 -0.223231 1.32496
0.335339 -1.31331 3.49121
0.250404 0.295256 2.9167
1.54425 0.358461 2.63849
1.27259 -0.361252 2.86115
0.699571 -1.27998 3.49674
1.18084 1.05376 2.71099
-0.0243912 0.504992 1.3187
-0.613632 -1.19125 3.45441
1.81223 -0.335997 2.81895
1.33809 1.0087 2.6743
2.26994 0.30012 2.51302
1.22305 0.353754 2.85264
0.780322 -0.892775 3.21232
1.55259 -0.0950978 2.84338
1.93199 0.000323432 2.73698
0.0880466 0.649654 3.13224
1.04034 -1.74684 3.68223
1.25112 -0.0639247 2.78009
1.65201 1.14291 2.56437
0.369724 0.708623 3.03109
-0.46979 -0.87501 3.35967
0.781028 -0.0258206 2.90983
-1.2318 0.657128 2.88305
0.234822 -0.825632 3.30742
1.3151 0.488722 2.84837
1.24151 -0.240151 2.77863
-0.262005 0.878341 1.97248
-1.22837 -1.05677 3.3061
-1.27342 -1.01478 3.30419
-0.383125 0.779096 2.02934
0.82878 1.15232 2.7981
1.54613 -0.213649 2.87366
-0.451328 0.492111 3.0089
-0.659847 -1.00697 3.42456
-0.898634 0.596521 2.99914
0.0679519 -0.164016 3.02401
0.276665 0.539474 2.93703
-0.28498 -0.947682 3.35036
-0.607955 0.872411 1.88271
0.50859 -0.132162 2.94432
0.89225 1.04857 2.78186
-0.633418 0.372754 3.0177
-0.0735726 1.11603 2.80623
-1.00594 -0.371999 3.14344
-1.15787 -1.21301 3.34447
-0.965067 0.0902719 3.08787
1.60616 -0.313561 2.8407
-0.474812 0.756778 1.87749
1.12911 -1.20907 3.41498
0.596895 0.440007 2.91155
-0.76635 0.7273 1.85147
-0.492517 -0.291566 3.09719
0.79995 0.402521 2.92205
1.0068 -1.19284 3.50056
-0.887458 0.161725 3.05646
1.46579 -0.478598 2.80605
-0.0470314 0.623768 1.34467
-0.574316 0.280863 2.99609
-0.443523 -1.43816 3.52562
1.07375 0.938051 2.76275
1.35086 0.877895 2.69428
0.95475 -1.5314 3.77014
-0.311355 0.242981 3.00804
-0.0315225 0.573543 1.30044
1.2548 -0.472335 2.938
-1.41191 -1.22748 3.1667
-1.09426 0.348625 2.94983
0.401346 -0.441258 3.08845
-0.695664 0.720306 1.93799
2.30238 0.0384679 2.95742
-0.173589 -1.32678 3.58473
0.995418 0.283594 2.91637
-0.00829934 0.543384 1.289
1.05398 -0.391176 2.91793
0.177714 1.01668 2.91916
0.739662 -1.1624 3.27202
0.984101 0.437023 2.89738
-0.895096 0.181569 3.05485
0.0324887 -0.332286 3.07889
-0.517097 0.420588 3.00286
0.372926 -1.19054 3.53454
1.00679 1.07408 2.77351
-0.994195 -0.292343 3.13421
0.212593 1.19411 2.89501
-0.067436 -0.139358 0.845426
-0.842414 0.499781 3.0222
-1.3126 -0.258394 3.14438
1.55116 1.02826 2.54164
-0.956675 -1.02368 3.1619
2.59366 0.936353 2.86923
-0.236512 -0.487239 3.18441
1.34358 0.944466 2.68907
0.593806 0.291599 2.8893
-0.869439 -1.40572 3.53442
-1.30651 -0.452151 3.15984
-0.0404019 1.00821 2.282
1.46774 0.878399 2.57004
0.394694 -1.37526 3.55613
0.862628 0.256829 2.87059
1.66153 0.334752 2.67061
0.890976 -1.32241 3.48139
-0.185149 0.790448 2.06965
-0.0174167 0.533292 1.24476
0.239775 -0.400268 3.09691
-1.07447 0.352164 3.02482
1.25913 -1.23751 3.3497
1.10651 0.99742 2.74582
1.59264 -0.35708 2.82802
0.651741 -0.456962 0.857854
-0.967213 -1.48667 3.41114
-1.33858 -0.644854 3.37301
2.25765 0.216213 2.75085
0.396687 0.160668 2.914
-0.394035 0.890818 3.02413
-0.478522 -1.60469 3.41447
2.2468 0.509373 2.64531
-0.50522 1.40404 2.96384
-1.44955 -0.579636 3.18469
-0.852529 0.668017 2.01882
0.819698 -1.52175 3.57021
-0.827997 0.235476 2.99207
-1.00049 -0.544175 3.21812
1.66574 0.805869 2.55097
0.804683 -1.56267 3.78755
1.23332 0.183439 2.7979
-0.0329843 0.04732 2.95307
-0.229832 1.06848 2.45275
0.986104 0.753886 2.88796
1.67436 -0.713727 2.85811
0.981853 -0.730963 3.14688
0.031669 0.744004 3.04899
2.00484 1.07237 2.6972
0.678588 0.0129334 2.9122
0.757049 0.115948 2.86463
-0.298996 0.874403 3.02937
1.82284 0.715667 2.57448
0.874299 -0.67909 3.12741
0.608082 -1.7764 3.9082
0.277241 0.0868378 2.95745
1.0546 -0.634598 3.06613
2.48861 0.0094522 3.76099
0.76278 0.798283 2.91432
0.706959 -0.733059 3.16291
1.1839 0.745073 2.7719
-0.04818 1.10308 2.91501
1.06476 0.0773846 2.79805
1.38303 0.681993 2.66677
1.47218 -0.632969 2.85144
-0.273638 -1.08173 3.43748
1.13526 0.0308489 2.84511
-0.607975 -1.57219 3.46118
-0.668381 0.154454 2.98494
2.06529 1.16269 2.80725
-1.37156 -0.647619 3.16487
-0.107371 0.908498 3.10778
-0.253153 0.12014 3.00049
-0.678103 -1.54497 3.51879
2.11356 1.06307 2.76681
0.240244 -0.626589 3.21393
1.63188 0.741733 2.61461
1.11596 -0.81147 3.06445
0.786836 -0.0637245 2.90239
0.585006 -1.77333 3.72442
-0.259744 0.684467 3.17071
1.91314 0.641975 2.61488
-1.4296 -0.0233483 3.08517
-0.904012 -1.61898 3.41758
0.111988 0.737346 3.04803
1.91833 -0.164655 2.72025
0.809696 -0.804849 3.18076
1.24887 0.00842978 2.76722
0.340354 0.705491 3.03345
-0.403497 -0.787691 3.31657
1.27868 0.513763 2.82267
0.175354 -0.226193 3.02336
-0.278069 0.909576 1.96615
0.049899 -1.06098 3.40402
-0.621361 -1.01015 3.40918
-0.447503 0.756806 2.22485
-0.684305 0.801805 1.86578
0.992631 -0.173932 2.92786
0.825972 0.501242 2.96978
-0.548847 -0.956776 3.32685
1.04496 0.593282 2.89467
-0.382313 -0.141291 3.09133
0.444948 0.555624 2.91709
1.21756 -0.885683 3.15046
0.664026 1.24329 2.84141
0.409857 -0.0967416 2.96355
-1.02841 -1.2102 3.50716
-0.600836 -0.949199 3.42682
-0.371624 -0.345333 3.12818
-1.31516 0.420547 2.95399
-0.393525 0.7593 1.94391
1.65916 -0.28163 2.62239
0.0589575 -0.222159 0.902777
1.15434 1.11464 2.70729
0.294851 -1.2064 3.53948
0.359364 0.459569 2.88115
1.13432 -0.254195 2.82564
0.391345 1.13511 2.87187
-0.581654 0.444023 2.98989
0.450305 -1.15606 3.52051
1.26085 -0.171644 2.7767
-0.422397 0.723903 1.96896
0.297741 1.30042 2.90859
-0.934778 -0.983624 3.37952
1.11959 0.554509 2.84614
-0.685026 0.856499 1.8654
-0.798935 -0.138528 3.09093
-0.545554 0.552533 3.04591
1.83187 0.658213 2.59839
-0.751386 -0.957721 3.36782
-0.559126 -0.0976023 3.09582
-0.866891 -0.904667 3.30068
-0.1179 0.694551 3.12167
-0.193374 -0.890814 3.42131
-0.319084 -0.0534292 3.05094
1.38139 0.559011 2.75627
-1.42953 -1.08678 3.20487
0.0396667 0.481383 3.00513
0.819453 -0.30174 2.98375
0.621273 1.19286 2.88748
1.41159 0.408395 2.77328
-0.398627 -1.18544 3.69321
-0.330088 -0.261268 3.10587
1.42155 1.05539 2.63417
-0.369231 0.850351 2.41277
-0.193109 1.17134 2.95696
0.0984712 0.503894 2.96875
1.29047 -0.207621 2.80802
0.693062 -1.09134 3.40712
-0.906564 -0.462125 3.20296
0.101796 1.18688 2.15406
0.812586 1.02782 2.84127
0.194788 -1.42284 3.64408
1.65448 0.290886 2.73569
-0.300857 -0.415658 3.17735
-0.251903 -0.0312492 1.42534
1.11802 0.976627 2.78519
0.692625 -1.36753 3.61678
0.90541 0.287194 2.8594
1.51926 0.361758 2.70209
1.64824 -1.21052 3.21819
1.53187 0.987237 2.52426
0.0625903 0.539621 1.29819
1.22739 -0.371895 2.92371
0.00912716 0.362828 2.95728
1.67248 -1.10337 3.06596
-0.808091 0.706946 1.87053
-0.709989 -0.349076 3.12284
2.47637 0.933195 2.90135
-0.730823 -1.47699 3.49445
1.09038 -0.541436 2.91488
2.08543 0.524066 2.60089
-1.36514 -1.29866 3.10457
-0.260548 0.188471 2.97297
1.64623 -0.499848 2.82951
-0.659709 0.644836 2.08339
0.12673 0.596058 1.33913
2.01322 0.45637 2.62512
0.739542 0.966239 2.88478
0.254319 0.268247 2.93242
-0.0302919 -0.503567 3.18472
0.963095 0.92776 2.86661
-0.585545 -1.395 3.49305
1.50829 0.201172 2.71339
1.11534 -1.10579 3.35602
-0.500827 0.519047 3.00291
-0.0702701 -0.251163 3.08344
-0.317597 0.863958 1.94197
1.18571 0.453314 2.83067
-0.738012 -1.06217 3.45737
-1.13586 -0.220573 3.16095
1.55199 1.03375 2.47217
-1.51935 -0.956563 3.17289
1.64927 0.537718 2.76582
1.2458 1.16457 2.69695
-0.233242 -0.173265 3.0757
-1.12992 -0.915115 3.20844
-0.0178625 0.551074 3.02836
0.311341 -0.137832 2.96615
-0.515678 0.853849 1.88441
0.873975 1.06009 2.82606
-1.101 0.378381 2.99407
-0.159617 -0.0848432 1.11407
1.16515 0.983097 2.71194
-0.477728 -0.374244 3.09407
0.97104 0.324599 2.91483
-0.0600989 1.23059 2.84696
0.0723427 -1.31945 3.63051
-1.13705 -0.361335 3.26694
1.54825 1.00426 2.49317
2.64484 0.925798 2.85866
-1.25913 -1.15913 3.33459
0.746252 0.446661 2.91714
0.251997 1.12377 2.95874
0.446647 -0.285538 3.00016
0.1423 1.26 2.3709
1.31748 0.384408 2.7977
-0.605225 -1.17757 3.50872
-1.21071 -1.32634 3.24308
1.53109 0.238857 2.59003
0.525778 -0.304431 0.580315
1.29877 0.925946 2.73921
1.30125 -0.506481 2.90598
-0.67524 -1.39184 3.51354
-0.609031 0.227902 2.93515
0.992154 -0.485607 3.00564
-0.46678 0.687049 2.08122
1.85932 -1.89948 3.62123
0.723182 -1.39612 3.5551
0.69425 -0.450883 3.08934
-0.0248907 -1.34196 3.56982
0.766426 -1.81142 3.81853
1.49806 0.275017 2.76281
0.0409081 0.59611 1.30592
-0.18875 -0.411559 3.1381
-0.545804 0.699421 2.00116
-1.46123 -0.69239 3.19233
-0.641878 0.852603 2.98504
-0.501492 1.35557 2.96346
-0.119474 0.130138 2.9992
0.065699 0.817828 3.04001
-0.714962 -0.678551 3.40056
2.27624 0.6755 2.76214
-0.993491 0.10572 3.22786
0.077715 -1.58355 3.48226
0.742587 -0.608011 3.11028
0.189006 0.926583 3.02711
0.635602 -1.65807 3.72866
1.5298 0.182316 2.8087
-0.178626 1.11824 2.87394
-0.719752 -0.567675 3.20385
1.58478 0.761733 2.57965
-1.34595 -1.40376 3.32542
-1.03971 0.167355 3.00203
0.725412 -1.66213 3.6447
0.997715 -0.470801 2.9363
-0.0294643 0.588081 1.53196
1.07053 0.28708 2.89387
-0.69272 0.706165 1.97822
1.06797 -1.36208 3.33641
-1.08548 -1.27427 3.3397
1.23268 0.254164 2.82071
1.51342 0.876826 2.60022
0.0306028 0.847401 1.81288
0.0816585 -0.443477 3.12115
-1.48341 -1.23678 3.29133
1.07568 0.3494 2.87532
-1.3311 -0.431946 3.24046
-0.231642 0.776785 2.03586
0.0279747 0.550356 1.32358
-0.918322 -1.23047 3.44299
-1.36019 0.343717 2.99125
-0.0225437 0.5224 1.45055
1.48275 -0.360473 2.82334
-0.42152 0.736629 1.99578
1.22002 0.821534 2.76213
2.26959 0.733599 2.841
-0.407598 0.158828 2.99041
-0.746763 -0.620167 3.28668
0.110095 -1.63548 3.69311
2.22414 0.52121 2.64665
-0.709643 0.662478 2.00633
1.4606 -0.555737 3.00969
-0.344376 0.238934 3.06176
-0.182243 -1.53107 3.61491
-0.424869 -0.536434 3.2386
1.34573 0.833012 2.7064
0.229402 -1.46183 3.54637
-0.892605 0.196104 2.97444
-0.215433 1.34467 2.92538
-0.247113 1.01584 2.23591
0.492119 0.0421416 2.91526
-1.08595 -0.788754 3.40039
-0.611246 0.760512 2.95351
-0.564643 -1.03328 3.58793
-1.07296 0.748982 2.97518
-1.41462 0.0209041 3.16808
1.38758 -0.698379 2.98708
0.389266 0.11626 2.92697
1.4676 0.330083 2.1891
0.562236 0.821419 2.93614
-0.86417 -0.699766 3.23477
0.135154 -1.57767 3.47372
-0.818013 0.0900186 3.0613
1.90617 1.12678 2.94506
-1.06975 0.787777 2.8377
0.183812 -0.655886 3.20518
1.27324 0.569663 2.77781
1.84249 0.320645 2.68443
-0.353302 -0.0903165 3.07177
0.0146493 -1.7142 3.68333
-0.979695 -0.898246 3.35091
1.67293 -1.06705 2.94595
-0.645419 -0.0680424 3.07449
1.75234 0.658287 2.80121
1.47481 -0.801425 2.94508
-0.672809 -0.0212808 3.07711
-1.05359 0.661263 2.97496
-1.20345 0.238155 3.00156
-1.18662 -0.794738 3.20053
0.0177677 0.716998 3.24393
0.0351453 1.26545 2.85567
-0.458907 -0.0596579 3.07581
-0.386022 0.866366 2.36069
0.119476 -0.873669 3.33462
-1.45425 -0.0286193 3.08773
-1.2 0.729524 2.91628
-1.23605 -0.789088 3.15122
1.42909 -0.00221571 2.78993
-0.692451 0.698128 3.02572
1.76118 0.93223 2.53133
-0.0878801 -0.788481 3.32192
1.71195 0.48365 2.64187
0.338356 -0.224512 3.0391
-0.377161 0.846988 1.91256
-0.964632 -1.05092 3.41319
1.30259 -0.948685 3.09628
0.457804 0.48457 2.88186
-0.135685 0.992415 2.64358
1.14766 -0.171383 2.77114
-0.354958 0.869008 2.45738
1.84576 -0.861109 2.91416
-1.02252 0.611674 2.97352
0.981692 -0.143964 2.90058
-0.758999 -1.0156 3.6301
0.375522 0.550255 2.93651
0.473648 -0.107812 2.96677
0.912715 1.23321 2.76687
-0.553087 0.745637 1.90837
0.912167 0.387065 2.92635
-1.15976 -0.223313 3.13143
0.470716 -0.337182 3.0465
-0.66822 -0.0943406 2.15522
1.22033 -1.17382 3.2874
1.57621 -0.299244 2.95956
1.65141 1.04779 2.53525
1.11638 -1.19342 3.46488
1.10579 0.460219 2.8682
1.31879 1.05092 2.63333
-1.42535 -0.270369 3.11291
-0.247206 0.449026 2.99474
0.598039 -1.10615 3.36785
-0.250982 -0.0318208 1.42345
0.406667 -1.42834 3.54061
1.16828 0.268444 2.80344
0.0668075 1.01228 1.96242
-0.799785 0.692975 1.96871
1.18589 -0.468784 2.87081
-0.19994 -1.38213 3.58117
-0.671522 0.259127 3.002
-0.366517 0.720926 2.09565
0.0996569 1.1924 2.25617
0.736265 -0.448867 3.01362
-0.0124228 1.35421 2.88957
0.0771868 -1.33983 3.5613
0.447097 0.342003 2.88014
0.702546 -0.410911 3.04149
-0.4521 0.741319 1.95256
-0.0915122 -1.26188 3.47721
0.0935625 0.567184 1.35337
-0.969687 0.328258 2.96013
-0.226212 -0.382388 3.14483
1.49904 0.932207 2.57428
0.863814 -1.169 3.3795
-0.859119 0.230251 3.03307
-1.50975 -0.321261 3.22292
0.450008 0.425182 2.89266
-0.294192 0.781421 1.96586
1.08146 -0.254271 2.83587
-0.696444 0.684897 1.9361
-0.140752 1.18311 2.83379
-1.35136 -1.06488 3.2319
-0.413522 0.51348 3.01597
-0.738138 -0.215849 3.08174
1.08325 1.09254 2.69431
0.907743 0.453982 2.92612
0.412466 -1.07351 3.40032
1.50552 -0.428097 2.81475
1.15234 0.294007 2.81398
-0.939593 0.0805527 3.07589
-0.599709 0.697547 1.94523
-0.432809 -1.35123 3.50055
-0.883432 -1.27527 3.42718
-0.0305784 0.292357 2.92674
-0.660605 0.693995 1.95878
0.190896 1.37177 2.73523
-0.579032 -0.42962 3.24265
-0.73031 -1.25291 3.47492
-0.92874 0.407329 2.95729
-1.09574 -0.37046 3.02538
0.390899 1.09491 2.87761
0.0779516 0.555337 1.35788
-1.06255 -1.18445 3.34904
1.67043 0.32173 2.70136
0.0529072 0.702491 1.39889
-0.610361 0.723529 1.91001
-0.771326 -0.360629 3.17975
0.881842 -1.50675 3.46435
0.880542 -0.568165 3.0486
2.45898 0.73057 2.85844
0.294082 0.181762 2.93177
0.288867 0.922159 3.04084
1.88495 -0.213555 2.78835
0.814095 0.963403 2.878
1.02394 -0.520904 2.9895
0.199122 -1.69552 3.59895
-1.53939 -1.38462 3.31474
1.13285 0.245939 2.81822
-0.171339 -0.499391 3.18098
1.09528 0.879848 2.75965
0.0394017 -1.43753 3.54921
0.35273 0.206904 2.89192
0.930471 -0.723108 3.11618
1.5387 0.0725221 2.96483
-0.458653 1.05522 2.85706
2.02909 0.52006 2.61187
-0.520589 0.801678 3.00664
1.3549 0.6851 2.67617
-0.141342 1.38762 2.9068
0.283543 0.0408086 2.9555
1.09595 -0.668585 3.01843
0.199834 0.145986 2.96458
-0.566744 -1.56219 3.4349
1.38589 -1.36225 3.25907
0.962431 0.83724 2.87736
-1.35197 -0.665363 3.21196
-0.21857 -1.58627 3.59227
0.241125 0.115773 2.95923
-1.23651 -0.650299 3.34766
2.26224 1.06865 3.01923
-0.388607 0.855581 3.07519
0.467567 1.06077 2.87538
-1.24393 -0.418707 3.1647
1.47086 0.340898 2.86241
0.957995 -1.50298 3.92714
-0.160615 -0.0882845 1.12193
-0.225691 0.764304 2.06991
0.177814 -0.374403 3.07601
0.370211 1.48639 2.73858
0.874488 0.314915 2.90064
0.912517 -1.33357 3.5696
-0.0106577 0.4434 2.9649
1.34286 -0.325061 2.76796
-0.403416 -1.24509 3.5508
0.469879 1.1246 2.86958
0.127987 1.38022 2.82944
-0.402159 -1.19238 3.52531
1.10899 1.03295 2.67084
-1.12973 -0.303664 3.18932
0.751201 0.395952 2.91636
0.198381 1.43777 2.58273
-0.0773959 0.264612 2.95298
0.873442 -1.49133 3.59174
-1.16299 -0.562089 3.34225
0.445431 0.986889 2.95049
-0.805568 -1.39003 3.47951
0.229645 0.224555 2.92783
0.0338585 0.522646 1.31094
-1.16686 -0.513 3.24705
0.380841 0.943884 2.95471
-0.401082 -1.36658 3.55193
2.30768 0.46142 2.60452
0.654957 -0.455448 3.06996
-1.35385 0.304563 2.95481
0.0336594 0.557763 1.23163
1.46688 0.904268 2.57657
0.395464 0.82821 2.98364
0.130524 -0.699141 3.23355
0.987957 0.101064 2.85349
-0.00360776 1.36779 2.88465
0.558261 -0.65894 3.21499
0.439619 0.798918 2.95718
1.13931 -1.75013 3.78594
1.87041 -0.667922 3.00827
-0.467445 0.0820347 2.97539
-0.439052 -0.630052 3.3178
1.1489 0.175945 2.78844
-1.21103 -1.42293 3.22923
1.74347 0.072864 3.30053
0.880861 0.894404 2.91227
1.68857 0.779969 2.63119
-1.11351 -1.41868 3.32504
-0.256734 0.154577 2.96101
-0.666724 0.790878 2.97337
-0.477405 -0.592099 3.30987
-1.24765 0.0180588 3.12593
-0.338693 -0.840093 3.38576
0.896788 0.703446 2.89397
1.7135 -0.0408143 2.71126
-1.41879 -0.77238 3.19803
-0.530767 0.708099 3.08464
-0.785016 -1.26193 4.36702
1.54789 0.0507781 2.37198
0.601497 0.772427 3.00221
-0.601571 0.0534185 3.04082
1.10313 -1.6712 3.51001
0.0399229 1.20574 2.86735
-0.0857834 -0.743368 3.2542
-0.574065 0.823939 2.73082
2.09255 0.264007 2.64979
1.12588 0.133853 2.81037
-0.509881 -0.624668 3.27711
0.257823 0.852004 3.06178
-0.804274 -1.55566 3.52023
-0.940098 -1.62989 3.44006
1.67678 0.0892017 2.76642
0.552905 -0.584183 3.18279
-0.564111 0.68391 2.09054
2.23326 0.564305 2.69785
0.274699 -1.55191 3.62816
-1.00371 0.239867 3.01805
-0.155306 1.05691 2.98103
-1.22206 -0.560087 3.29915
1.19292 0.844556 2.75261
-0.0802747 -1.47771 3.6043
-1.42676 0.199966 3.08526
-0.349772 1.29917 2.94866
2.13884 1.06557 2.93458
0.196348 -0.78568 3.2882
1.63292 0.0289144 2.71057
-1.13093 0.781941 2.96833
-0.593442 0.0145034 3.05322
-0.691887 0.725765 2.9626
-1.18682 -0.725379 3.18959
-0.358847 0.982415 2.70355
1.62236 -0.662015 2.92435
1.55277 0.0678728 2.70452
0.674382 -1.85201 4.01892
1.9635 0.116604 2.62194
-1.25399 -0.678596 3.31223
0.0791193 0.804247 3.02183
1.60557 -0.149795 2.79156
1.42846 -0.868433 2.91959
1.06873 0.586079 2.87611
1.92581 0.548653 2.63096
1.14204 -0.0964523 2.76246
0.389347 1.29641 2.91332
-0.0641437 -0.914645 3.33395
-0.647599 0.592873 3.10085
1.88897 -1.02722 2.90698
1.60423 0.615966 2.64426
-0.721051 -0.0558876 3.06564
1.52773 -0.790435 2.94531
0.865927 0.62783 2.90836
-1.38956 -0.022546 3.11351
1.51397 -0.749694 2.91694
1.18706 -1.28547 3.38427
-2.54676 -1.9648 5.52484
0.642393 0.495672 2.9109
0.619196 -0.263496 2.95465
-0.790044 0.735677 2.37372
-0.0937879 0.480574 2.97073
0.48193 -1.09056 3.44705
-0.411878 0.772542 1.87237
0.488929 -0.215184 2.97964
1.4767 -0.886608 2.87416
0.0922662 -0.177921 3.01788
-1.28686 0.532451 2.87086
0.155688 1.27939 2.89618
-1.09533 -1.01986 3.2439
0.451308 0.513355 2.89511
-0.291 -0.222626 3.11132
-0.611645 0.896036 1.86309
-0.124233 -1.02242 3.45078
1.13115 0.480101 2.88319
0.936295 -0.193203 2.91308
-0.232859 0.814696 1.92897
-0.0416098 -0.975091 3.35102
1.79809 -0.151574 2.80707
-1.33571 0.566818 2.89898
1.0609 1.23179 2.73701
-0.756424 0.7275 1.87359
1.10256 -0.35899 2.89099
-0.753038 0.40207 2.98004
-0.383843 -1.29569 3.54852
0.626676 1.07056 2.89098
0.0935997 -0.347427 3.09321
-0.188693 1.19271 2.95924
-0.652005 -0.0684818 2.15731
-1.23118 0.374537 2.99753
0.509965 -1.28112 3.60642
0.92389 -0.292534 2.95156
1.36608 1.07383 2.61392
-0.936468 0.0353734 3.08412
-1.03941 -1.12605 3.35592
-0.89464 0.478543 2.95742
0.842415 -0.275429 2.99586
1.63044 1.00126 2.49048
-0.299991 1.03031 2.8438
0.273414 0.422552 2.89985
0.0279008 -1.12601 3.42956
1.63132 0.259212 2.63582
1.35572 -1.41457 3.43239
-0.0513549 0.543199 1.31693
-1.24316 -0.51912 3.25903
-0.483358 0.708318 2.00791
0.354309 -1.31953 3.3711
1.30631 0.245708 2.81119
-1.03961 -0.456131 3.10287
-0.512979 0.695874 2.03742
-1.1226 -1.25301 3.33821
2.16462 0.425644 2.61888
0.79955 -0.422067 3.02325
2.40538 1.01723 2.9253
1.44782 0.290083 2.77878
1.59319 0.93996 2.58217
0.0468131 0.881899 3.06057
-1.4203 -0.653552 3.11978
0.345765 0.14797 2.94978
0.091022 1.34995 2.8762
1.14733 -1.66788 3.58538
2.23163 0.605834 2.72297
0.334682 0.843947 3.03273
-0.490731 -0.642283 3.33252
0.183527 0.108846 2.94474
1.49051 -1.61079 3.54077
1.52239 -0.525684 2.79112
-1.32521 0.24053 3.06117
1.29394 -1.56534 3.60215
0.0470405 1.30302 2.88093
0.299869 0.963235 3.00947
1.42732 0.809756 2.66007
0.928219 -1.52659 3.62914
1.00367 0.164006 2.82983
-0.362595 1.41212 2.93686
0.365195 -0.538401 3.14666
1.55321 -0.440705 2.85967
0.0862154 0.311738 2.90731
-0.0209377 0.930456 2.26333
1.28563 -1.40945 3.52028
0.422775 1.03363 2.90258
-0.188448 1.05495 2.77586
0.569348 -1.35113 3.5325
1.2337 0.943912 2.73185
0.196427 0.281332 2.90845
-1.32449 -0.426874 3.16585
2.20986 -0.803554 3.33986
1.04723 -1.19036 3.2245
1.64465 0.362434 2.68126
0.61529 -0.377237 3.03239
0.0323201 1.08715 2.87866
-0.0988735 -1.34258 3.79715
2.17262 0.89064 2.92686
0.230089 0.349987 2.9271
0.155279 1.07832 2.93732
-1.18231 -0.352828 3.12717
-0.0595089 0.904424 3.02484
1.66642 0.614417 2.63601
-0.963697 0.189632 3.04189
0.821024 -0.571784 3.09895
0.846731 -1.5071 3.45877
2.19883 0.383804 2.61704
-0.600288 0.665586 1.9832
0.962457 -0.535866 3.00669
0.146915 0.263342 2.92641
0.125714 -1.52381 3.68945
1.12371 -0.470178 2.9223
1.51269 0.844553 2.61094
1.47731 -1.40094 3.36578
1.40018 0.201969 2.84145
2.38632 0.171223 2.84811
-1.38691 -0.786558 3.32934
-0.237162 1.31917 2.93399
-1.46054 0.0835233 3.20479
