ply
format ascii 1.0
element vertex 1836
property float x
property float y
property float z
end_header
1.86521 -0.275855 2.73525
0.900111 0.0665917 2.92581
-1.01984 -0.684242 3.27532
1.48624 0.576256 2.68225
0.698831 -0.935092 3.28829
0.627215 -0.112958 2.99746
0.561125 -1.78234 3.72343
-0.958632 -0.887696 3.3294
1.42275 0.547583 2.71565
-0.616615 -0.0695123 3.0616
1.78258 -1.06049 3.00016
1.20424 1.24161 2.72863
0.102812 0.688978 2.99342
1.29811 -0.0432683 2.8319
-0.97316 -1.35311 3.41087
0.558223 -0.867397 3.33498
-0.0370848 -0.272065 3.04574
-0.56364 0.777648 1.84839
0.672824 -1.15008 3.42597
-0.82324 0.525823 3.04173
-0.683253 -0.23187 3.08609
0.325756 1.19128 2.92507
0.656513 0.466295 2.93171
1.25609 -1.03881 3.21359
-0.914338 0.623178 3.22489
-0.190514 -0.191567 3.05091
1.28152 1.20453 2.69332
-0.883151 -1.03078 3.39638
0.443807 -1.01006 3.4198
0.944083 0.525696 2.9034
1.46462 -0.150287 2.78953
0.000739425 1.23032 2.72951
-1.17282 -1.19359 3.24693
-1.00723 0.395383 2.91775
-1.3304 -0.39815 3.1872
0.0676532 1.12984 2.92963
0.431286 -1.27791 3.53567
-1.38763 0.370538 3.00213
-0.54373 0.734232 1.95064
0.297061 -0.365592 3.0942
0.926129 1.10396 2.77561
0.908122 0.433477 2.94619
-1.35598 -0.326762 3.16853
-0.0420431 -1.2045 3.4697
1.35477 -0.225688 2.8279
-0.471358 0.822112 1.89318
1.14691 -1.07585 3.33454
-0.332764 0.54947 3.0305
-0.0325561 -0.19626 3.05586
0.761082 1.18503 2.82506
1.14993 1.24295 2.72779
0.815951 -1.01355 3.26433
1.276 0.484501 2.85114
0.653009 -0.156056 2.99474
1.75892 -0.898849 3.02171
-0.0440549 0.660722 3.21301
-0.444595 -0.110841 3.03324
0.510429 1.31907 2.87528
-1.4067 -0.903221 3.23041
1.49845 0.515262 2.70557
-1.50475 -1.18762 3.29819
-0.806335 0.43914 2.99852
1.05793 -0.35474 2.94398
-0.472112 0.747648 1.89724
-0.000533301 -1.19594 3.43404
1.61551 0.354888 2.69763
0.658434 1.11567 2.90044
0.191931 -0.322234 3.08137
0.408397 -1.19089 3.55923
1.05864 -0.270983 2.90824
-0.508305 0.466781 2.94766
0.143496 1.17202 2.8814
0.384148 1.03486 2.96774
0.256515 -0.509769 3.13054
1.35269 0.272484 2.81786
1.0227 -1.43865 3.47396
1.30678 -0.449078 2.89425
1.02449 0.943813 2.79646
1.06953 -1.39399 3.48135
0.116925 0.259657 2.92005
-1.18674 -0.440019 3.19582
0.878304 0.352087 2.92862
0.541754 -1.38652 3.58131
0.0126145 1.08901 2.91885
-1.00505 -1.27545 3.45819
0.723422 1.03357 2.86081
1.62328 -0.363696 2.76448
-1.37809 0.325444 2.95922
1.72243 0.163525 2.74575
-1.27042 -1.42184 3.16121
1.48876 0.79961 2.6136
0.0751199 -0.64012 3.20604
-0.487538 -1.49986 3.46905
-1.17535 0.145745 2.95695
1.69302 -0.541723 2.79578
0.155568 0.878713 2.98042
1.26208 -1.60768 3.76369
-0.0879874 0.975155 3.02646
-0.0369147 -0.556079 3.16344
1.73175 0.202174 2.74677
1.48644 0.431556 2.71764
1.0136 -0.310615 2.95099
-0.638768 0.757717 1.86741
1.52753 -1.15576 3.2659
0.223688 -1.16273 3.49629
-0.20215 0.785191 1.96111
0.920884 -0.274699 2.99312
-1.03414 0.455812 3.0414
-0.272132 -1.06142 3.33722
-0.882098 0.560512 3.07529
1.39059 -0.223868 2.84094
-0.567785 0.835244 1.87882
-0.545765 0.510295 2.97019
-0.491887 -1.08767 3.56457
1.09252 1.14618 2.71923
1.76219 -0.190871 2.81696
-0.362523 -1.33203 3.47405
0.260873 1.07935 2.96695
1.43633 -0.402697 2.84889
-0.208784 0.32526 2.96372
1.25363 1.0583 2.73668
0.0347953 -0.389192 3.09131
1.48531 0.393551 2.9392
0.24719 -1.31971 3.54307
1.41753 0.990978 2.63655
1.25553 -0.344314 2.87186
-0.986324 0.363176 2.95419
-0.883081 -1.20454 3.37911
-0.9402 -0.577934 3.15033
-0.0926899 0.22543 2.9728
-1.00325 -1.42095 3.30689
1.28395 0.892855 2.76133
-0.316613 0.932788 3.03188
1.0064 -1.58959 3.74821
1.73519 0.157421 2.75406
0.34127 -0.549859 3.13951
-0.601513 -1.63086 3.42236
-0.153522 0.295505 2.96002
0.937469 -1.57479 3.82183
1.04439 -0.48459 2.94223
-0.0767594 1.04761 2.99351
0.538296 -1.49009 3.73653
-0.322297 0.26658 2.96541
-0.211724 -0.472186 3.1502
-0.728359 0.676287 1.98476
-0.0126858 0.800418 2.96615
-0.68669 0.0777715 2.99911
-0.689223 -0.738609 3.36433
-0.822781 0.668905 2.25702
0.45796 -0.666721 3.14777
-0.560372 0.146146 2.96102
0.372378 -1.64548 3.55944
-0.919552 -0.665931 3.37975
1.34046 0.767111 2.71787
-0.508917 -1.56083 3.49925
0.485181 0.104933 2.93302
1.23662 0.928746 2.75547
-1.34141 -0.561384 3.2301
-1.75037 -1.50448 3.52941
1.4897 0.251679 2.86866
0.483672 -0.515969 3.15718
-0.413754 0.684936 2.10552
-2.22352 -1.91726 4.62604
-1.12509 0.233411 3.05333
-0.832154 0.322326 2.95761
-0.998941 -1.37561 3.46272
0.371762 1.07496 2.9644
1.5933 -0.447928 2.87339
-0.759613 -1.3282 3.48403
-1.32937 0.309546 3.01652
-0.707714 0.69414 1.97161
-0.0366622 -0.437992 3.15984
0.881968 -1.71361 3.67684
1.25389 -0.647242 3.0055
-1.37872 0.118659 3.08407
-0.57206 0.833448 2.94212
1.3166 -0.584817 2.87048
-0.665245 0.643281 2.07408
1.18228 -1.7197 3.78445
-0.200315 0.181138 2.96792
0.497681 -0.604912 3.21614
1.08576 0.837315 2.83613
1.67958 0.125717 2.78355
-0.0717036 -1.57962 3.62236
-0.058646 0.722413 2.953
1.17204 -0.0400587 2.85321
0.0867054 1.28038 2.76926
-0.553354 0.00306472 3.02851
1.40625 -0.772472 2.94391
-0.914549 0.67667 2.93339
0.886115 -0.786065 3.16947
1.45391 0.0622954 2.88961
-0.559055 -0.767334 3.2787
-0.324653 0.812424 3.01114
0.809696 -1.55842 3.73256
-0.933324 0.0409529 3.05186
-1.10954 0.229129 3.0297
-1.00851 0.775297 2.99947
0.0355261 -0.718178 3.24091
-0.101456 -0.982302 3.35747
0.318685 -1.72295 3.61692
-0.186254 -0.150686 3.03587
0.0701305 1.2372 2.78096
0.970508 0.55985 2.91264
0.274593 1.33475 2.91256
1.82201 0.887694 2.56317
-1.16353 -0.109106 3.12657
-0.507681 0.657529 3.03102
1.49628 -0.821278 2.8504
-0.279087 -0.0704441 3.03379
1.65626 -0.803046 2.91139
1.22701 0.569775 2.81506
-1.25618 -0.910625 3.26698
-1.30577 -0.114594 3.10074
1.80368 0.508788 2.66732
0.204143 0.589761 2.92895
-0.650363 0.703271 2.20442
0.593685 -0.0780014 2.95472
0.523457 1.29202 2.87767
-0.613953 0.694987 3.03199
0.26542 -0.906539 3.32326
-1.26544 -0.0421404 3.08051
1.03766 -0.861844 3.28532
0.618044 0.639574 2.99393
-1.28927 -0.287711 3.19929
-0.745702 0.752392 1.79274
-0.742586 -1.12586 3.39065
-0.286981 0.502634 2.97276
-0.206624 -0.235213 3.07387
0.440228 1.17447 2.88582
-3.40985 1.10839 7.05097
0.590524 -1.09613 3.39094
-0.790214 -1.06028 3.44946
1.00957 0.554311 2.9198
0.670539 -0.198126 2.97757
-0.32226 0.800773 2.09879
0.0646751 0.536721 2.96589
1.1436 -0.988793 3.3023
-0.30506 0.898205 1.93697
-0.759953 -0.155296 3.05991
0.876373 -1.38576 3.69202
-0.986405 -0.396129 3.14119
-0.0715033 0.357686 2.97505
-0.762932 0.706307 1.89747
1.75232 -0.343652 2.74033
1.61259 1.0089 2.55276
1.55482 0.366956 2.51135
-1.08416 -1.10586 3.08017
-0.671716 0.733013 1.92055
0.417181 -0.330444 3.08881
-0.261761 0.38672 2.92147
0.4941 -1.29369 3.68909
0.142193 -0.560044 3.16266
-0.230427 0.258241 2.97076
-0.739127 -1.46911 3.51006
1.68495 0.861032 2.57029
1.38872 0.852215 2.65784
-0.929977 -1.41096 3.47056
-0.0473807 0.22064 2.95076
0.883758 -0.510099 3.06102
-0.695932 -1.35584 3.43722
-0.788651 0.325452 2.99723
1.1352 -0.450094 2.89819
0.694477 1.03612 2.87649
-0.137088 -1.37423 3.5598
0.091602 0.284561 2.90845
-0.757451 -0.430961 3.12961
0.628379 1.00857 2.89678
-1.3923 -1.14101 3.16723
0.0637632 0.424238 2.93367
1.164 -0.355394 2.90131
-0.784899 0.730852 1.8483
0.584025 -1.23978 3.52063
0.276143 0.379137 2.90793
-0.827717 0.716452 1.85854
1.09181 -0.318325 2.90205
0.208339 1.19179 2.93923
1.36263 0.439896 2.82137
-0.478366 -0.283563 3.0736
-0.667561 -1.12224 3.36701
1.33981 -0.481993 2.85321
-0.477132 0.697206 2.01143
1.23067 0.274515 2.87504
0.532019 -1.51977 3.66701
-1.38019 -0.494313 3.24437
0.637957 0.980337 2.91774
-0.955348 -1.402 3.54802
0.669233 0.250294 2.94081
-0.620354 0.351511 2.94527
1.39335 -1.32399 3.3694
0.0471818 1.08269 2.91863
-0.654023 -0.438476 3.14829
0.63598 0.310367 2.92742
0.420114 -1.30764 3.49153
-0.79603 0.684459 1.88429
0.567864 -0.398353 3.05844
-0.0681503 -1.5883 3.51824
-0.530441 0.178917 2.96205
-1.44068 -0.614741 3.04716
0.785416 0.877228 2.87558
0.870958 0.131969 2.92192
-0.80576 -1.44958 3.34805
0.372592 -1.75265 3.63304
-0.561916 -0.580888 3.0877
0.364131 0.876533 2.97928
-0.45206 0.678813 2.10565
1.32563 0.199939 2.81422
1.27395 -0.534949 2.94112
0.792473 -1.72384 4.04036
1.3455 0.699254 2.74559
-0.272964 0.0311469 3.00265
0.406062 -0.819232 3.31366
-0.251851 0.745429 3.08031
0.71297 -0.0137124 2.95032
-0.811081 -0.805376 3.41536
0.920646 0.098405 2.91579
1.67685 -0.768059 2.55868
1.03818 -0.68851 3.04767
-0.109797 0.849521 3.04646
-0.253 0.0673851 3.02137
-0.807357 -1.60305 3.44705
1.85698 -0.495842 2.7641
1.65065 0.716544 2.66794
-0.933742 -0.6978 3.28474
-0.196368 0.768722 2.10857
-0.571777 0.32368 2.99889
0.469645 -0.430352 3.0606
-1.05077 -1.25538 3.29238
0.981075 -0.390345 3.00336
-0.346634 0.766223 1.98102
1.32489 -1.23591 3.27259
0.603747 0.389027 2.95994
0.704995 -0.363484 3.03367
1.45048 0.987833 2.64967
1.48173 -1.23377 3.36798
0.520467 0.344176 2.88931
0.805775 -1.73067 3.91605
1.18779 0.205864 2.82627
0.160856 -0.599182 3.1852
-0.362012 0.918267 2.7804
-0.173948 -1.52132 3.60811
0.971776 0.166532 2.88914
1.58367 -0.501032 2.76807
1.083 0.869124 2.83808
1.41567 -1.4119 3.38965
1.4237 0.269027 2.79854
0.659631 -0.515639 3.12833
-0.33161 0.726409 2.06491
-1.45773 -1.23005 3.06677
-1.37964 0.282463 3.08954
-0.763137 -0.474075 3.16959
0.382409 0.995342 2.96108
0.138336 0.814686 3.03654
-2.48476 -1.26761 5.22427
0.45518 0.0669833 2.94977
-0.519588 0.773407 3.01297
-0.305551 -0.715319 3.22699
-0.163962 0.033707 2.9891
1.06516 -0.658877 3.05183
-0.512097 0.810846 2.75718
-0.0872168 -1.69275 3.63665
1.72626 0.121138 2.75782
1.83796 -0.325058 2.73337
1.56083 -0.58892 2.86468
-0.514269 0.842076 2.99435
-0.464273 0.108221 3.00357
0.713189 -1.75872 3.87782
0.408494 -0.888031 3.26434
-0.998346 0.78664 2.84642
-0.827789 0.704704 3.05162
-0.855042 -0.0701375 3.05419
0.0392257 -0.848027 3.2773
0.557245 0.639842 2.97273
-0.573226 -0.0379818 3.05254
1.2678 -1.79957 3.7261
-2.15819 -1.1022 4.39083
-0.283758 0.883733 2.43393
-0.30451 0.952959 2.74774
0.137052 -0.00466803 2.96547
-1.13198 0.724386 2.94486
-3.14285 -3.24878 6.92852
1.09594 0.786197 2.81355
1.45962 -0.639072 2.92923
-1.18674 0.118998 3.13699
-0.101769 -1.69848 3.5255
1.24795 0.834724 2.74374
-0.194149 -0.650019 3.25404
-0.0646064 0.177754 2.96477
-0.878565 -1.52895 3.42103
1.20606 -0.584558 3.03417
1.43028 0.766643 2.62173
0.18498 -1.53747 3.51651
-0.22753 0.14 2.98472
0.299766 -0.0408791 2.96568
-0.225328 -0.00584333 3.04127
0.0223413 1.19339 2.88766
1.43464 -0.771098 2.92096
0.141239 0.73584 3.023
1.15634 -0.779788 3.11748
-1.16223 0.670174 2.89067
0.318825 -0.787216 3.31286
1.78332 0.0594246 2.76887
-1.00428 0.79265 2.91933
1.52516 -1.49944 3.45577
1.63797 -0.822786 2.73294
1.61119 0.0261582 2.67378
-1.33561 -0.718932 3.27628
1.71726 0.700536 2.71444
0.253672 1.27267 2.92015
-1.19936 0.534979 2.76319
1.28089 1.14911 2.69133
-1.01778 -0.156926 3.14553
0.29398 -1.0055 3.39444
1.86481 0.99371 2.55708
-0.0640676 -0.112641 3.03136
0.191553 -0.937793 3.31022
-0.716962 0.641259 2.98163
-1.20111 -0.0739962 3.10071
-1.07136 0.590061 2.90579
1.31552 -0.845581 3.04934
-0.915087 0.466077 2.95663
-0.745402 -1.17473 3.39332
1.6031 -0.297401 2.73645
0.84016 1.13999 2.80375
1.49794 0.395764 2.74282
-1.04996 -1.08787 3.29957
-0.294732 -0.2756 3.05851
-0.0924804 0.832476 2.11994
-0.0231773 -1.08113 3.38449
-1.09348 0.532945 2.93606
-0.512514 -0.235278 3.07468
-0.458283 0.873202 1.89729
0.191032 -1.11478 3.61338
-1.71161 0.622165 3.63977
-1.04679 -0.196164 3.10628
-0.136412 0.84262 2.00492
0.39282 0.485703 2.93537
1.26824 -0.278156 2.87241
-0.156334 0.839289 1.99258
-1.11117 -1.10401 3.32089
-1.31312 -1.03599 3.25759
0.757135 1.13947 2.81502
1.56437 -0.244632 2.85927
-1.10344 0.460743 2.92463
0.800307 -1.07413 3.42208
-0.953507 0.558038 2.95109
-1.35381 -0.207174 3.08635
-0.607946 0.841751 1.87088
1.38282 0.500951 2.82345
1.17742 -0.968744 3.22707
-0.887634 -0.162807 3.08541
0.952519 1.03766 2.80643
0.132179 1.33031 2.88447
1.06627 0.342756 2.91155
-1.06483 -0.405231 3.16036
0.617123 -1.30791 3.47589
-1.35572 -0.38201 3.17953
0.315518 1.1801 2.97719
-1.37073 -1.16416 3.25189
1.79104 0.402478 2.80497
-0.267649 0.775308 2.01052
0.506271 -0.33049 3.03911
0.407231 -1.24548 3.52458
1.50039 0.350188 2.75651
-0.00463281 -1.54073 3.62782
-0.786828 0.256106 3.01995
1.50924 -0.505051 2.73706
-0.694507 0.66973 2.04262
0.807284 -1.71793 4.13181
-0.754087 0.215875 2.94188
0.76309 -0.517805 3.07826
-0.769362 0.64648 2.0337
-0.331547 0.317525 2.95792
1.40923 -1.67936 3.55657
1.41193 -1.52853 3.74152
0.91945 -0.474367 3.03051
0.000737973 1.05363 2.93589
0.44501 -1.41701 3.62102
0.842368 0.277254 2.91454
-1.03177 -0.441705 3.16488
1.66865 0.881855 2.57494
1.64725 0.746585 2.68307
0.0487453 0.0998034 2.99913
-1.4031 -0.674426 3.15296
0.582074 0.898214 2.95099
0.13476 -0.650929 3.21439
0.640091 0.167417 2.9105
-1.04761 -1.5518 3.44299
0.990144 -0.591528 3.05369
0.741186 0.846307 2.9003
0.490279 -1.65169 3.75161
-0.741837 0.137715 2.98282
0.287839 -0.525691 3.13114
0.170861 0.280389 2.92864
-0.181388 -1.46701 3.5572
0.887457 0.982604 2.85695
-1.34522 -0.497317 3.22934
-0.196605 0.984263 2.96177
0.0943512 -1.39912 3.47813
-1.38794 0.255317 3.01369
-0.527046 0.354842 2.99278
-0.340557 -1.36347 3.52129
-1.43299 -0.458204 3.19718
-0.342576 0.746526 2.00972
-0.473272 -1.31952 3.52815
0.338771 0.309642 2.93264
-0.521605 -0.417635 3.24131
1.30913 0.985615 2.74854
-0.280428 -1.64273 3.6243
1.44153 -0.592168 2.85259
0.954995 0.126465 2.91351
-0.373453 0.891817 3.04582
0.6292 -0.60584 3.15464
0.979787 0.914245 2.86652
0.0390421 -1.54192 3.52418
1.64144 0.188173 2.71127
-0.96476 -0.564779 3.15285
-0.798739 0.638245 2.10681
-0.291642 -1.49333 3.53325
-0.305188 0.173641 2.96173
1.19677 0.0161463 2.79969
1.25659 -0.763974 3.02024
-0.235302 0.771898 3.0427
-1.19307 -0.773073 3.27521
-0.0197523 0.730461 3.03505
0.163139 -0.0135675 2.96577
-0.764553 0.1053 3.02114
-0.722834 0.824003 2.95683
1.00275 -1.74572 3.68604
-0.472446 -0.740121 3.26644
1.62404 0.601437 2.5559
-1.19012 0.0685395 2.97234
0.495667 -0.69417 3.21318
0.403317 0.802726 2.99706
1.29142 -0.888168 3.06127
1.00088 0.587449 2.93632
-0.546798 -1.61757 3.44876
-0.462809 0.717303 1.93727
1.42838 -0.125241 2.76195
1.91767 0.443543 2.65773
1.18984 -0.078417 2.78224
0.855408 0.663271 2.91816
0.972343 -0.920913 3.32645
-0.0343144 -0.0474855 3.01378
-0.678271 0.632805 2.97172
0.443674 1.30462 2.88199
1.74223 -0.735056 2.76298
0.26304 0.213564 2.96265
1.04889 -1.57928 3.57168
0.618251 0.943752 2.94712
-1.39357 -0.632391 3.33365
-1.21033 -1.41062 3.36611
-0.410128 -1.59184 3.416
1.41818 0.160236 2.84827
-0.140389 -0.559343 3.13451
-0.45832 0.892687 2.88716
-1.09349 -1.34005 3.29161
0.896759 -1.78335 3.64982
-0.91197 -0.511831 3.13588
-0.0035377 0.250653 2.94676
-0.309023 0.744246 2.19631
1.23584 0.745593 2.78023
1.40765 -0.726938 2.98896
0.807055 0.0589266 2.90215
-0.733442 -0.737549 3.28665
1.15752 0.724421 2.84317
-0.831847 0.0342033 3.05617
-1.22546 -0.717384 3.38396
1.74911 0.114581 2.74996
-1.2191 0.831896 2.82223
-0.273243 0.841962 3.0134
1.82927 -0.533561 2.79117
-1.18534 -1.561 3.4518
-0.302551 0.103699 2.94983
1.00043 -0.622441 3.03274
-0.545157 -0.95413 3.51629
-0.0218287 -0.0742569 3.00389
-0.499129 0.700801 3.07027
-0.326095 0.654827 3.07342
1.19791 -0.827757 3.12552
-1.17994 0.0101946 3.09088
1.08252 -0.0492679 2.8904
1.74789 0.988839 2.55458
-1.60794 -0.83297 3.34436
1.3003 0.669409 2.78408
-1.04972 -0.00816858 3.05202
1.86647 0.522952 2.65444
-0.381404 -0.239195 3.05199
-0.0155579 1.22639 2.64658
-1.34772 -1.00967 3.16885
0.699219 0.52745 2.95756
0.985726 1.16297 2.77911
0.0124478 -0.202357 3.0468
1.0343 1.22724 2.75743
0.151896 0.489604 2.91572
-1.286 -1.05581 3.40002
-0.592345 0.626727 3.1052
1.1233 -0.156003 2.8417
0.97145 -0.977742 3.26617
-0.146453 -0.957158 3.38905
0.320146 1.2701 2.90709
0.911285 -0.119977 2.95026
0.0245705 0.579585 3.0382
1.8685 -0.545264 2.77688
-0.383872 -0.870561 3.34586
0.459774 -0.0153679 2.9827
-1.04773 -0.0424594 3.09962
-0.752123 0.727119 2.99357
-0.148825 -0.817297 3.30835
1.09718 0.658998 2.90114
-0.771834 0.0682119 3.04699
1.89559 0.142146 2.74216
-1.13748 -0.789925 3.3414
-0.775819 0.802807 3.00211
-0.336218 0.0281605 2.96733
-1.01899 0.783415 2.83075
0.952699 0.7341 2.882
1.11766 -0.694867 3.0229
-0.596894 -0.203315 3.09261
-0.654658 0.793302 1.86477
-1.82991 -1.1823 3.78325
0.197559 0.548204 2.90886
0.911694 1.20915 2.78469
1.53553 -0.16069 2.81976
-0.595437 0.827256 1.87271
-0.991088 -0.977788 3.34494
0.886436 0.241923 1.36439
-1.0417 0.789633 2.85292
-0.41162 -0.115549 3.0069
-0.581355 0.644375 3.02622
0.276488 -0.967014 3.39169
-2.66445 -0.26506 5.76574
1.39135 -0.801331 2.87978
-1.21517 0.590349 2.90006
0.14024 0.457213 2.9253
1.48689 -1.15909 3.24374
-0.844364 -0.337647 3.17297
-0.661927 0.745041 1.84559
1.39606 -1.15457 3.38733
-0.0903381 0.429269 2.96655
0.819121 1.11631 2.83363
-1.07257 -0.286144 3.14292
-0.56315 -1.14673 3.57315
1.4041 -0.229134 2.75778
1.69393 0.471504 2.85783
0.359094 1.2164 2.90395
0.995105 1.00172 2.78755
-1.00069 -0.468273 3.08375
-0.139354 0.319101 2.96895
-0.544118 -1.37192 3.44814
0.839386 0.980749 2.83888
-0.460766 -0.451265 3.2338
1.12296 -1.3336 3.39647
-0.894328 0.290382 2.99303
0.367052 -0.407876 3.12257
0.680899 1.10567 2.89263
-1.15524 -1.233 3.33927
0.473583 0.375176 2.89537
-0.650034 0.719997 1.92824
0.373317 -0.376612 3.13417
0.118372 -1.28782 3.55179
1.55636 0.310959 2.69185
0.171286 1.08526 2.94851
0.978255 -0.442945 3.01929
-1.14966 0.352317 2.99076
0.694695 -1.41089 3.60259
-0.479905 0.715394 1.98404
1.49956 -0.380872 2.79088
0.509236 -1.3673 3.61714
-0.420674 0.308442 2.94527
0.64711 -0.364256 2.96559
-0.361401 0.764057 1.94932
0.0926341 -1.29575 3.55346
-1.2358 0.430225 2.99415
1.57473 0.983655 2.55912
-0.265222 -0.33486 3.10887
1.35513 -1.19687 3.33807
0.188903 0.372935 2.9187
1.07752 0.235773 2.907
-1.04009 -1.38051 3.27299
-0.377589 0.708805 2.11913
1.51143 -0.537007 2.88267
0.615238 -1.53471 3.71416
0.648835 0.203583 2.91353
-0.590313 -0.53293 3.19795
-0.588185 0.654605 2.05026
1.24616 -1.49699 3.66204
1.5636 -0.448049 2.76185
1.00885 0.273127 2.92271
-0.250898 0.906655 2.58451
1.29143 -0.679063 2.91454
1.39484 0.754864 2.72641
1.71207 0.0889262 2.76223
-1.1771 0.737237 2.73776
1.3568 -0.658937 2.99288
1.64878 0.0467198 2.82272
0.739897 -0.64623 3.12955
1.06763 0.15668 2.85698
1.43724 -1.66761 3.62669
-0.829811 0.632459 2.08632
0.683059 0.860737 2.96539
1.3515 -0.56965 2.90267
-0.588814 0.131766 2.98972
1.22129 -1.70472 3.83921
0.873932 -0.857305 3.23482
-1.16591 -0.0155882 3.0874
0.515339 -1.47405 3.56838
-0.0694342 -0.0493869 3.01632
1.35108 0.651682 2.73021
-0.198738 -0.81112 3.2769
1.47039 0.615473 2.75074
0.74098 -1.88569 3.97005
1.0005 -0.787055 3.24317
1.9038 0.375675 2.67774
1.58448 -1.48505 3.40379
1.63506 0.012695 2.76801
0.0507771 0.763206 3.02578
-0.760495 0.626127 2.15697
-0.211983 -1.679 3.60168
-1.3247 0.139514 3.08831
1.64321 -0.603755 2.85268
0.20903 -1.69276 3.6962
-0.478482 0.679734 2.12436
-0.223529 -0.614148 3.19457
-1.05933 0.217397 3.02874
1.1434 -1.49493 3.36526
0.934051 -0.5587 3.02661
-1.1393 0.745894 2.45969
-1.16411 -1.40172 3.32242
-0.715862 0.170202 2.94566
1.08665 -0.78889 3.11342
0.914329 0.0168018 2.91892
1.49161 -0.0259206 2.8078
1.26582 0.700342 2.79034
-0.605246 -0.761961 3.18713
1.14711 0.682948 2.85283
0.0193826 0.0941952 2.97139
1.56465 -1.37485 3.20311
0.794579 -0.733537 3.17383
1.1225 0.781109 2.81865
0.961684 0.0501574 2.913
-0.517525 0.777853 2.26908
0.501286 0.775965 2.92423
1.65695 -0.630374 2.82631
-0.377869 0.60556 3.03737
1.82598 1.03685 2.55305
1.35908 -0.125932 2.71743
-0.0471997 1.07 2.40805
1.36591 -0.904702 3.09935
1.88488 0.0864946 2.73528
-0.314706 0.686185 3.05253
-0.536727 -0.0839773 3.05937
1.4039 -0.849853 3.02403
1.7372 -0.0567762 2.77601
-0.0866622 -0.876431 3.32582
1.45658 0.56444 2.69818
1.0226 -1.13207 3.30915
0.570017 0.485351 2.94264
0.507768 1.26279 2.87848
0.739609 -0.289903 3.03722
1.01154 1.14989 2.75989
1.47065 0.43064 2.81137
-1.15366 -1.05022 3.28199
-0.716879 -0.247191 3.04208
0.725737 1.15767 2.8687
-0.592097 -1.11506 3.59167
1.32672 0.521055 2.80231
-0.7857 -0.206724 3.04912
-0.159727 -0.998306 3.3542
-0.763626 0.535918 3.03271
-1.43871 -0.171181 3.088
-0.443713 0.899866 1.87767
-0.111112 0.7939 2.98098
1.30271 -0.729732 2.98693
1.09614 0.0527331 2.8372
-0.586912 0.768558 3.02924
-1.35773 -0.725996 3.21653
-0.0378914 0.0233187 2.95162
-1.41057 0.136623 3.05333
1.94773 0.708771 2.59334
-0.735447 -0.693589 3.25721
-0.669278 0.86003 2.89091
-1.1116 0.112698 3.12218
-0.438461 -1.61302 3.56086
0.636224 -0.6535 3.18865
1.50271 0.732283 2.64179
1.10553 -0.859771 3.09387
-0.18693 0.670313 2.94621
1.86212 0.110343 2.74183
0.978058 -0.0806877 2.92369
-1.28941 -0.824192 3.18784
0.782288 0.620571 2.93594
-1.47618 -1.58449 3.36436
1.48201 -0.0548147 2.85114
1.5202 0.385887 2.28817
1.79129 0.959745 2.55156
-0.865848 0.715736 2.96643
-1.00451 -0.00800724 3.06077
1.17959 -0.776095 3.07887
-1.09484 -0.248568 3.1368
-0.548552 0.819918 1.88862
0.780806 -1.09375 3.3528
1.67738 0.459026 2.61274
0.978589 -0.207973 2.94214
-0.716879 0.781934 1.86342
-0.117624 0.682466 1.64309
-0.578293 -1.05637 3.40588
-0.387621 0.494467 2.97092
-0.491337 -0.995407 3.3626
0.0978124 0.601117 2.99684
-1.46778 -0.167418 3.0931
-0.999099 -0.927343 3.2801
0.51354 0.544616 2.90127
-0.674764 -0.123637 3.04256
-0.653145 0.857668 1.86069
1.36625 -1.22597 3.32515
0.335095 -0.374758 3.09692
1.28351 0.365648 2.85654
-0.540035 0.74827 1.9445
0.0517358 -0.330904 3.06317
-0.315016 0.790245 1.968
-0.553694 0.462024 2.96811
-1.52238 -1.14864 3.26503
1.00884 1.12284 2.85595
0.12237 -0.286777 3.05967
1.81978 0.397456 2.79637
0.53472 -1.1943 3.52856
-0.243977 -0.210013 3.07619
-0.262611 0.869326 1.95665
0.440755 -1.07362 3.42602
0.37966 1.34735 2.89661
-0.856394 0.595442 3.1551
-0.283234 0.921988 1.9355
1.75845 0.734264 2.60606
-0.43441 -0.16639 3.07219
0.28092 0.51566 2.93448
0.20926 -1.05604 3.54001
-0.191735 0.652021 3.07861
-0.548104 -0.129393 3.0676
-1.3227 -0.922027 3.26124
-0.487624 -0.959537 3.50273
-0.0643542 -0.0809693 3.02088
-0.124686 0.60313 2.98683
0.722276 -1.23372 3.47775
1.73151 0.420771 2.696
0.969066 -0.324751 2.9175
1.48352 1.02877 2.52998
0.488152 0.413112 2.91595
1.34955 -1.14901 3.34301
1.13176 -0.278604 2.86282
0.107657 1.13759 2.90259
1.19949 1.13036 2.70409
1.53618 0.442683 2.71173
0.988162 -0.248552 2.94335
0.197423 -1.12032 3.45453
0.884348 -0.485436 3.07545
-0.0538957 1.07041 2.98304
1.53737 0.279348 2.72126
-1.07776 -1.32798 3.33727
-0.959915 -0.460267 3.24673
-0.0382382 1.02544 2.9677
-1.44797 -1.19888 3.08482
1.72103 0.252223 2.6809
-1.12772 -0.419083 3.24885
0.0843282 0.375811 2.91215
1.51726 -1.3143 3.43479
0.282707 1.13536 2.97251
1.60646 -1.19405 3.21753
-1.48035 -0.385226 3.21888
-0.758138 0.70642 1.89606
0.186226 0.343494 2.92487
0.561345 -1.58482 3.60002
-1.2695 0.222942 3.02592
-1.4303 -0.605547 3.1667
1.57556 0.826812 2.6055
0.522573 -1.59906 3.73181
-1.1059 0.171329 2.92567
1.50837 -0.564973 3.06264
1.4122 0.817311 2.70841
0.988398 0.95084 2.86581
0.603679 0.240115 2.91411
0.0528246 -0.533246 3.17219
-1.35806 -1.32646 3.25689
0.638524 0.233369 2.9359
-1.18219 -1.36174 3.22511
0.187246 0.983805 2.99106
0.677704 -0.575899 3.12551
-0.413174 -1.47834 3.57105
-0.816996 0.20856 2.9577
-1.27442 -0.541749 3.25634
-0.266637 0.953253 3.01862
0.118244 1.01372 2.9594
-1.03163 -1.62978 3.45937
0.441125 0.27266 2.91468
-1.06118 -0.485758 3.09076
0.302178 -1.47677 3.6393
-1.12888 0.77059 2.76615
-1.08073 -0.765955 3.33729
-0.222229 0.0927257 3.01022
-0.0458673 -0.701925 3.24087
-0.0413596 0.78551 2.97693
-0.721223 0.0589032 3.01078
0.374287 -0.650321 3.15612
-0.106677 0.165837 3.00544
-0.339591 -1.59553 3.51404
-0.175117 0.901297 3.01266
-0.744733 0.858068 2.93425
-1.03317 -1.46144 3.30643
1.41657 0.11276 2.87799
1.44511 -0.584406 2.9496
-0.852413 -0.999316 3.75026
-0.952922 0.704739 2.93701
-0.145934 -0.0504271 3.00972
1.51094 -0.681115 2.66972
-0.972768 0.732623 3.24412
0.312061 -0.0184427 2.97016
-0.211998 1.01368 2.76459
1.81271 0.356121 2.68366
0.707795 0.741543 2.95953
-1.20406 0.0249272 3.09143
1.51435 0.408062 2.2731
1.45728 -0.723591 2.94418
0.439628 -0.212468 3.00284
-0.122689 0.941209 2.15181
0.359456 1.28238 2.89934
-0.46571 -1.08995 3.48023
-0.986933 0.554238 2.95782
1.33405 -0.168583 2.8143
-0.633037 0.807645 1.86557
1.69967 1.11035 2.56269
-1.10889 -0.967978 3.26557
-0.354097 0.523786 2.9787
-0.592558 -0.983396 3.43431
-1.12846 0.606026 2.8669
-1.03209 -0.133151 3.1612
1.7134 -0.794403 2.8063
1.56564 0.534241 2.70844
-0.742114 -0.0856204 3.00888
0.684696 -0.809091 3.18606
1.05527 0.0130539 2.90858
0.937216 -0.0253707 2.91361
-0.301565 0.76951 3.07958
0.223705 -0.789339 3.27593
1.03466 0.688133 2.89204
1.85746 -1.40646 3.26873
-1.38592 -0.723442 3.14278
-0.869566 0.766737 2.65009
-0.357624 0.051767 2.96766
1.3511 0.716693 2.73524
-1.38726 -0.173111 3.08305
1.34711 -0.938402 3.07539
-0.395857 0.587865 2.97669
1.89581 0.592789 2.64726
1.54702 -0.134894 2.76523
-0.547124 0.855084 1.88399
1.88013 0.373287 2.67376
-1.43748 -0.910697 3.17817
0.61622 0.546881 2.94229
0.872301 -0.0931242 2.97729
1.39723 0.601837 2.72945
-0.103778 -0.917684 3.3196
0.788386 1.27797 2.8362
0.646338 -0.0591702 2.95688
-1.40452 -0.824811 3.13209
1.7377 0.566752 2.72824
1.14966 -1.16375 3.383
1.74932 0.449847 2.74466
0.0798017 -0.293185 3.0662
-0.451032 0.775919 1.86275
-0.698614 0.470148 3.05749
0.0971589 -1.15655 3.54232
0.000273956 0.844452 2.09144
0.477212 -0.257897 2.98452
1.58155 -1.00501 3.13878
1.65789 -0.203522 2.74184
0.621516 0.512747 2.94091
-0.691954 0.71162 1.91368
1.32807 -0.415108 2.76309
0.975876 1.02809 2.79712
1.29389 -1.37026 3.45269
1.4036 0.316667 2.81597
-0.252404 -0.417785 3.15081
0.529328 1.03804 2.9232
0.32724 -1.32151 3.4896
0.251195 0.303384 2.93255
1.54918 0.367956 2.65797
1.28203 -0.362538 2.87721
0.694645 -1.28915 3.49807
1.19553 1.0724 2.74148
-0.62151 -1.20355 3.4242
1.80907 -0.333652 2.83731
1.34679 1.02218 2.69046
1.2336 0.36025 2.87555
0.770169 -0.899272 3.22632
1.55781 -0.0919808 2.86029
1.93199 0.000323432 2.73698
0.0855935 0.655992 3.11852
1.04401 -1.76142 3.69631
1.26468 -0.0560119 2.80677
1.65201 1.14291 2.56437
0.371012 0.725706 3.02908
-0.484962 -0.874784 3.33446
0.785705 -0.0210214 2.93513
-1.2318 0.657128 2.88305
0.229742 -0.833175 3.30928
1.32683 0.503119 2.8727
1.24629 -0.241335 2.79964
-0.251272 0.875198 1.96494
-1.22961 -1.05809 3.30335
-1.27496 -1.01625 3.30008
-0.383125 0.779096 2.02934
0.846883 1.17225 2.81382
1.55664 -0.212834 2.88834
-0.465364 0.493729 2.99644
-0.682334 -1.00596 3.39666
-0.897033 0.59678 2.99581
0.0646945 -0.168262 3.03447
0.277159 0.54789 2.93691
-0.292211 -0.951389 3.32978
-0.607955 0.872411 1.88271
0.513809 -0.13177 2.96737
0.908659 1.06682 2.79675
-0.64474 0.383174 2.98903
-1.01051 -0.372001 3.13109
-1.15787 -1.21301 3.34447
1.6097 -0.325502 2.85845
-0.474812 0.756778 1.87749
1.12247 -1.21803 3.42193
0.601457 0.453161 2.93081
-0.76635 0.7273 1.85147
-0.508376 -0.290401 3.07134
0.807399 0.413413 2.94101
1.00489 -1.20348 3.5102
1.46917 -0.487747 2.81825
-0.579729 0.281196 2.96669
-0.442698 -1.44444 3.51093
1.08555 0.958112 2.78696
1.3669 0.892803 2.70941
0.976105 -1.54156 3.77692
-0.312362 0.245276 2.98375
1.26422 -0.47816 2.9561
-1.41191 -1.22748 3.1667
-1.09426 0.348625 2.94983
0.399165 -0.448222 3.09202
-0.695664 0.720306 1.93799
-0.176593 -1.33871 3.56626
1.0049 0.299265 2.94467
1.06491 -0.395251 2.94004
0.17496 1.03811 2.91587
0.733219 -1.16776 3.2764
0.993738 0.448224 2.93098
0.025726 -0.339027 3.07688
-0.525049 0.42072 2.98132
0.376276 -1.20571 3.53433
1.02211 1.09318 2.78994
-0.993835 -0.293118 3.12427
0.221245 1.20857 2.89008
-0.841162 0.49826 3.01401
-1.3126 -0.258394 3.14438
1.55113 1.03057 2.56088
-0.956675 -1.02368 3.1619
-0.241199 -0.499475 3.15015
1.35587 0.960115 2.70235
0.601239 0.298391 2.91383
-0.867298 -1.41082 3.52358
-1.30651 -0.452151 3.15984
1.47177 0.886037 2.58716
0.398423 -1.39006 3.54559
0.873095 0.269011 2.90198
1.66153 0.334752 2.67061
0.902032 -1.32663 3.49351
-0.185149 0.790448 2.06965
0.238578 -0.409417 3.10127
-1.07447 0.352164 3.02482
1.25507 -1.24647 3.36232
1.12146 1.01963 2.76899
1.59277 -0.359005 2.8383
-0.963219 -1.48609 3.40632
-1.33858 -0.644854 3.37301
0.399815 0.162643 2.92464
-0.39881 0.905981 3.00879
-0.478522 -1.60469 3.41447
-1.44955 -0.579636 3.18469
-0.852529 0.668017 2.01882
0.80986 -1.5342 3.57315
-0.828029 0.242872 2.97607
-1.00121 -0.543667 3.21536
1.67316 0.810433 2.5636
0.817966 -1.58243 3.78831
1.24422 0.191193 2.81385
-0.0290406 0.0539955 2.95828
0.994945 0.767205 2.9001
1.67666 -0.710491 2.86654
0.98373 -0.73675 3.15932
0.0277311 0.75892 3.02354
0.685238 0.0165914 2.92991
0.764021 0.120346 2.89087
-0.298996 0.874403 3.02937
1.82339 0.726091 2.59437
0.872004 -0.68863 3.14233
0.627326 -1.79174 3.90245
0.28072 0.0907092 2.96722
1.05687 -0.641398 3.08298
0.763515 0.808805 2.91218
0.710668 -0.740195 3.1721
1.19936 0.76609 2.79136
1.06845 0.0784667 2.8348
1.39655 0.701058 2.68501
1.46983 -0.640366 2.86463
1.14687 0.0384283 2.87064
-0.60959 -1.57295 3.45271
-0.675859 0.159328 2.95494
-1.37156 -0.647619 3.16487
-0.11231 0.923824 3.09016
-0.25908 0.121149 2.97983
-0.678307 -1.54502 3.51359
0.229476 -0.629419 3.22229
1.64621 0.74531 2.62199
1.11291 -0.82511 3.07915
0.792877 -0.0609182 2.92988
0.591524 -1.80192 3.73617
-0.269895 0.696934 3.14933
1.91498 0.645497 2.63713
-1.4296 -0.0233483 3.08517
-0.904012 -1.61898 3.41758
0.115085 0.755138 3.03319
1.9094 -0.165061 2.74724
0.811455 -0.816263 3.1926
1.25887 0.00760902 2.79588
0.339108 0.718826 3.03119
-0.415808 -0.791832 3.29687
1.2984 0.522207 2.83401
0.169459 -0.220341 3.05345
-0.266465 0.904878 1.95942
0.0472255 -1.07326 3.4032
-0.650333 -1.00839 3.374
-0.434989 0.752688 2.21188
-0.684305 0.801805 1.86578
0.997322 -0.181829 2.95554
0.828383 0.517327 2.98524
-0.548847 -0.956776 3.32685
1.0524 0.60351 2.91025
-0.389084 -0.139717 3.08016
0.43394 0.571511 2.9132
1.21753 -0.893525 3.16671
0.681309 1.26071 2.86138
0.417707 -0.0978815 2.98308
-1.03282 -1.22278 3.48732
-0.375926 -0.347381 3.10276
-1.31516 0.420547 2.95399
-0.393525 0.7593 1.94391
1.65281 -0.273742 2.63343
1.17407 1.12893 2.72065
0.295948 -1.21335 3.54241
0.359401 0.471819 2.88871
1.14263 -0.253725 2.86114
0.399434 1.14886 2.86479
-0.589845 0.451825 2.95761
0.444136 -1.15832 3.52419
1.26874 -0.173545 2.79797
-0.422397 0.723903 1.96896
0.31576 1.32303 2.90801
-0.948608 -0.993862 3.35027
1.13268 0.560175 2.8664
-0.685026 0.856499 1.8654
-0.809572 -0.135659 3.05743
-0.562473 0.558297 3.01491
1.83071 0.663966 2.61185
-0.779484 -0.953998 3.33053
-0.57429 -0.0956696 3.07315
-0.894244 -0.899449 3.27102
-0.1179 0.694551 3.12167
-0.190145 -0.902019 3.41454
-0.320538 -0.0583276 3.03969
1.39176 0.571661 2.78356
-1.42953 -1.08678 3.20487
0.0434844 0.493344 3.00245
0.828084 -0.301005 3.01116
0.62466 1.20137 2.8915
1.41865 0.421587 2.79557
-0.389442 -1.19877 3.66233
-0.334843 -0.261816 3.08377
1.42761 1.06302 2.65235
-0.369231 0.850351 2.41277
0.0987263 0.514644 2.9629
1.29844 -0.21213 2.82211
0.688879 -1.09199 3.42038
-0.911121 -0.461425 3.18914
0.827956 1.0449 2.8545
0.194398 -1.43306 3.63588
1.66318 0.302221 2.74912
-0.306856 -0.4223 3.15099
1.13139 0.994531 2.8082
0.674197 -1.38111 3.61713
0.914461 0.293527 2.89284
1.53372 0.372959 2.7253
1.63826 -1.21369 3.23598
1.5302 0.989555 2.54509
1.23527 -0.371955 2.94469
0.00475865 0.371372 2.95887
1.67248 -1.10337 3.06596
-0.808091 0.706946 1.87053
-0.726933 -0.346244 3.10066
-0.73153 -1.48733 3.48178
1.10045 -0.546735 2.93509
-1.36514 -1.29866 3.10457
-0.260012 0.192762 2.95057
1.6468 -0.497627 2.83831
-0.659709 0.644836 2.08339
0.740273 0.984803 2.89027
0.254273 0.27309 2.94365
-0.0388754 -0.510047 3.17786
0.970984 0.941797 2.88031
-0.589566 -1.40205 3.47222
1.50874 0.206728 2.72948
1.11564 -1.11311 3.36741
-0.515155 0.521145 2.98014
-0.0647379 -0.260698 3.06965
-0.317597 0.863958 1.94197
1.19947 0.466688 2.85576
-0.748365 -1.07101 3.42876
-1.13852 -0.218158 3.15468
1.55096 1.0358 2.48998
-1.51935 -0.956563 3.17289
1.66079 0.547825 2.78784
1.2563 1.17301 2.70961
-0.239085 -0.175268 3.06518
-1.12992 -0.915115 3.20844
-0.0188725 0.563668 3.01758
0.315332 -0.13703 2.98435
-0.515678 0.853849 1.88441
0.883199 1.07799 2.83842
-1.101 0.378381 2.99407
1.18069 1.00304 2.73377
-0.490737 -0.3758 3.06882
0.981124 0.331986 2.94957
0.0557843 -1.32534 3.61473
-1.13209 -0.360241 3.26351
1.5473 1.00821 2.51307
-1.26004 -1.16181 3.33265
0.757115 0.450337 2.94919
0.261634 1.14451 2.93913
0.450185 -0.292556 3.00284
1.32769 0.393372 2.82144
-0.614525 -1.18424 3.4858
-1.21014 -1.32863 3.24005
1.53109 0.238857 2.59003
1.31945 0.943935 2.75604
1.31132 -0.509421 2.92281
-0.675404 -1.40396 3.4928
-0.620885 0.235136 2.90785
0.99876 -0.490028 3.02507
-0.46678 0.687049 2.08122
0.725007 -1.4049 3.56351
0.697664 -0.45736 3.09636
-0.0360649 -1.35069 3.56287
0.766426 -1.81142 3.81853
1.5031 0.279 2.77904
-0.187733 -0.417826 3.12738
-0.545804 0.699421 2.00116
-1.46123 -0.69239 3.19233
-0.647367 0.863323 2.97188
-0.11813 0.125332 2.9923
0.0627483 0.83347 3.0233
-0.721445 -0.685479 3.36901
-0.992937 0.104044 3.22068
0.0806394 -1.5893 3.46971
0.744921 -0.611495 3.12556
0.189514 0.949493 3.01389
0.638147 -1.66069 3.72791
1.53258 0.181251 2.81954
-0.733647 -0.572566 3.17715
1.59804 0.772413 2.59308
-1.34613 -1.40484 3.32184
-1.03971 0.167355 3.00203
1.00278 -0.480938 2.95449
1.08496 0.296486 2.92625
-0.69272 0.706165 1.97822
1.06961 -1.36323 3.33697
-1.09456 -1.29069 3.32195
1.2391 0.259838 2.8428
1.5152 0.890136 2.61786
0.0799211 -0.454859 3.11647
-1.48341 -1.23678 3.29133
1.09048 0.360415 2.90543
-1.3311 -0.431946 3.24046
-0.231642 0.776785 2.03586
-0.933169 -1.23993 3.41293
-1.36019 0.343717 2.99125
1.48541 -0.362914 2.83909
-0.42152 0.736629 1.99578
1.23263 0.834184 2.78996
-0.414544 0.158525 2.98317
-0.764487 -0.624448 3.25628
0.109967 -1.63851 3.68781
-0.709643 0.662478 2.00633
1.46732 -0.566197 3.02459
-0.345732 0.239011 3.03853
-0.173787 -1.54723 3.59133
-0.430971 -0.542887 3.20908
1.36098 0.850822 2.72247
0.219212 -1.47203 3.53148
-0.888898 0.19846 2.9643
0.497341 0.0469743 2.93925
-1.1016 -0.799248 3.35878
-0.623002 0.776337 2.93457
-1.07296 0.748982 2.97518
-1.41462 0.0209041 3.16808
1.38808 -0.708149 3.00538
0.392965 0.116991 2.9354
1.46331 0.335963 2.19511
0.572878 0.842192 2.9378
-0.865216 -0.699185 3.2316
0.143551 -1.58979 3.45675
-0.825613 0.0925347 3.01729
-1.06975 0.787777 2.8377
0.182074 -0.663644 3.21005
1.28411 0.579221 2.79269
1.84249 0.320645 2.68443
-0.364459 -0.0907182 3.05279
0.0100846 -1.71773 3.67611
-0.990275 -0.909578 3.32239
1.67293 -1.06705 2.94595
-0.656077 -0.0558093 3.05543
1.76545 0.667594 2.81694
1.4794 -0.799849 2.96752
-0.68743 -0.018781 3.04021
-1.05359 0.661263 2.97496
-1.20345 0.238155 3.00156
-1.18869 -0.796263 3.19544
0.0177677 0.716998 3.24393
0.0351453 1.26545 2.85567
-0.468575 -0.0609256 3.05928
-0.386022 0.866366 2.36069
0.114719 -0.884482 3.33103
-1.45425 -0.0286193 3.08773
-1.2 0.729524 2.91628
-1.23605 -0.789088 3.15122
1.43814 -0.00181659 2.81272
-0.695823 0.704701 3.01044
1.76076 0.933945 2.56124
-0.0908603 -0.800941 3.30738
1.71195 0.48365 2.64187
0.335795 -0.227803 3.05077
-0.377161 0.846988 1.91256
-0.988673 -1.05732 3.38353
1.30112 -0.95298 3.11294
0.465956 0.499379 2.9018
-0.135027 0.9929 2.64367
1.15833 -0.175029 2.79538
-0.354958 0.869008 2.45738
1.84576 -0.861109 2.91416
-1.02252 0.611674 2.97352
0.984472 -0.146956 2.93397
-0.758999 -1.0156 3.6301
0.376625 0.565566 2.93233
0.484915 -0.102673 2.99442
0.929021 1.25291 2.78277
-0.553087 0.745637 1.90837
0.917968 0.400984 2.94331
0.471627 -0.348066 3.04472
1.21279 -1.18342 3.29093
1.5862 -0.304433 2.97161
1.64849 1.0496 2.5516
1.11941 -1.20366 3.4756
1.12085 0.467936 2.90108
1.33216 1.06169 2.6503
-1.42535 -0.270369 3.11291
-0.253604 0.455911 2.98421
0.59299 -1.11896 3.37541
0.397117 -1.44201 3.53593
1.17188 0.2819 2.82837
-0.799785 0.692975 1.96871
1.191 -0.476066 2.88989
-0.208785 -1.39976 3.55704
-0.686823 0.272118 2.96253
-0.366517 0.720926 2.09565
0.735157 -0.453108 3.02064
0.0642956 -1.34952 3.5399
0.450898 0.358256 2.89448
0.704025 -0.418262 3.04612
-0.4521 0.741319 1.95256
-0.116896 -1.2728 3.46415
-0.969178 0.329042 2.95577
-0.235108 -0.383992 3.12788
1.50858 0.94283 2.58478
0.863323 -1.17557 3.38652
-1.50975 -0.321261 3.22292
0.456808 0.43816 2.91235
-0.294192 0.781421 1.96586
1.08914 -0.258686 2.86026
-0.696444 0.684897 1.9361
-1.35136 -1.06488 3.2319
-0.429253 0.516773 2.99354
-0.75113 -0.221327 3.04991
1.10726 1.11451 2.71216
0.914662 0.474717 2.93849
0.402886 -1.08135 3.39578
1.50739 -0.433446 2.8266
1.15708 0.307668 2.83664
-0.599709 0.697547 1.94523
-0.438973 -1.362 3.47138
-0.892868 -1.28473 3.40311
-0.0267069 0.298468 2.93689
-0.660605 0.693995 1.95878
-0.583225 -0.431343 3.21714
-0.741783 -1.26291 3.44547
-0.925922 0.407154 2.95401
-1.09574 -0.37046 3.02538
0.399101 1.11167 2.86753
-1.06255 -1.18445 3.34904
1.67274 0.330644 2.72108
-0.610361 0.723529 1.91001
-0.783489 -0.355248 3.16016
0.881842 -1.50675 3.46435
0.890407 -0.575184 3.06335
0.298798 0.185421 2.94196
0.295722 0.941018 3.03618
0.819435 0.97769 2.88644
1.03018 -0.529119 3.00814
0.196478 -1.70068 3.58687
-1.53939 -1.38462 3.31474
1.14047 0.253632 2.84223
-0.176509 -0.510897 3.16334
1.11314 0.902759 2.77909
0.0192797 -1.44522 3.54745
0.362303 0.221979 2.92409
0.930512 -0.733029 3.12812
1.55917 0.0714839 2.98143
-0.534539 0.81714 2.99214
1.36479 0.699626 2.69692
0.289936 0.0403773 2.9671
1.0978 -0.67599 3.03292
0.207086 0.1493 2.96778
-0.567837 -1.56109 3.42845
1.37909 -1.36364 3.27064
0.966459 0.852943 2.87487
-1.35197 -0.665363 3.21196
-0.217593 -1.5959 3.58025
0.243845 0.11417 2.96771
-1.24248 -0.650565 3.34258
-0.392038 0.871531 3.06215
0.484156 1.08413 2.86941
-1.24393 -0.418707 3.1647
1.47612 0.353589 2.88195
0.957995 -1.50298 3.92714
-0.225691 0.764304 2.06991
0.17608 -0.380126 3.07933
0.886996 0.323489 2.93892
0.929606 -1.33172 3.58287
-0.0133826 0.451278 2.96724
1.33963 -0.324939 2.78382
-0.412028 -1.24999 3.525
0.486021 1.14819 2.86416
-0.420891 -1.19457 3.49791
1.12146 1.0491 2.6947
-1.13359 -0.305824 3.18264
0.758585 0.40506 2.93349
-0.0770176 0.272561 2.9572
0.877429 -1.50454 3.58856
-1.16167 -0.562844 3.33776
0.453777 1.00348 2.94312
-0.804195 -1.39588 3.46632
0.23307 0.227287 2.9351
-1.17023 -0.512962 3.23685
0.386111 0.960126 2.94094
-0.405514 -1.37921 3.52118
0.653452 -0.460053 3.08323
-1.35385 0.304563 2.95481
1.47302 0.913645 2.59099
0.401697 0.851236 2.9786
0.126481 -0.708697 3.2348
1.00212 0.109718 2.89164
0.562864 -0.669526 3.213
0.444147 0.81403 2.95954
1.12611 -1.75846 3.7945
-0.472194 0.0851839 2.96352
-0.453526 -0.635096 3.28252
1.15972 0.176339 2.81781
-1.21103 -1.42293 3.22923
0.888644 0.911005 2.91286
1.70048 0.782439 2.6408
-1.11287 -1.41636 3.32257
-0.262737 0.154067 2.94222
-0.484409 -0.597404 3.27895
-1.24765 0.0180588 3.12593
-0.34658 -0.847369 3.36377
0.903787 0.719304 2.89809
1.70697 -0.0331304 2.72358
-1.41879 -0.77238 3.19803
-0.533711 0.718436 3.05447
1.54789 0.0507781 2.37198
0.609663 0.789514 3.00497
-0.603412 0.0500968 3.01208
1.10003 -1.67737 3.51973
0.0273849 1.222 2.8856
-0.0900063 -0.748327 3.24796
-0.574065 0.823939 2.73082
1.13663 0.140358 2.84365
-0.517176 -0.633474 3.24498
0.258481 0.866122 3.04411
-0.801838 -1.55289 3.51537
-0.940098 -1.62989 3.44006
1.6794 0.0982805 2.77729
0.555466 -0.591368 3.18687
-0.552492 0.68213 2.09316
0.254565 -1.56176 3.61523
-1.00371 0.239867 3.01805
-1.22206 -0.560087 3.29915
1.20833 0.863606 2.78495
-0.0811237 -1.49933 3.58912
-1.42676 0.199966 3.08526
0.190293 -0.797568 3.28255
1.63208 0.0338812 2.72437
-1.13093 0.781941 2.96833
-0.598306 0.0139911 3.02719
-0.694521 0.731856 2.94929
-1.18936 -0.725954 3.18651
-0.358847 0.982415 2.70355
1.62853 -0.661867 2.93751
1.55851 0.0660616 2.71547
0.670963 -1.8551 4.01656
1.96875 0.113626 2.64157
-1.25399 -0.678596 3.31223
0.0849976 0.824278 3.01232
1.61219 -0.141975 2.80893
1.43821 -0.869635 2.94203
1.07733 0.594633 2.8918
1.93053 0.544781 2.64852
1.15396 -0.0976577 2.79328
0.395746 1.31889 2.89679
-0.0702758 -0.92316 3.31941
-0.644935 0.60334 3.07664
1.88897 -1.02722 2.90698
1.61765 0.619164 2.6574
-0.732562 -0.0578476 3.03579
1.52897 -0.799942 2.95999
0.872658 0.638839 2.91946
-1.38956 -0.022546 3.11351
1.51369 -0.759456 2.93353
1.18608 -1.29339 3.39872
-2.54676 -1.9648 5.52484
0.645688 0.505812 2.92992
0.623648 -0.263099 2.96894
-0.790044 0.735677 2.37372
-0.0944497 0.485862 2.96525
0.482183 -1.09549 3.44868
-0.411878 0.772542 1.87237
0.490717 -0.220079 2.98484
1.4767 -0.886608 2.87416
0.0881683 -0.179843 3.02917
-1.28686 0.532451 2.87086
0.169139 1.29912 2.8965
-1.09533 -1.01986 3.2439
0.456778 0.528457 2.91013
-0.292231 -0.22816 3.09758
-0.611645 0.896036 1.86309
-0.12742 -1.04059 3.43081
1.14262 0.49603 2.90539
0.948415 -0.190728 2.93847
-0.232859 0.814696 1.92897
-0.0553571 -0.977797 3.34408
1.79809 -0.151574 2.80707
-1.33571 0.566818 2.89898
1.0646 1.2327 2.74157
-0.756424 0.7275 1.87359
1.11031 -0.37032 2.90595
-0.751255 0.405811 2.96646
-0.397335 -1.30168 3.52434
0.636162 1.0879 2.89151
0.0906205 -0.355862 3.09791
-1.23118 0.374537 2.99753
0.516056 -1.29765 3.60143
0.934737 -0.307102 2.97001
1.37352 1.08038 2.63222
-1.04434 -1.13866 3.34128
-0.891396 0.479349 2.9517
0.851595 -0.275891 3.01803
1.63044 1.00126 2.49048
0.269229 0.42975 2.8922
0.0132541 -1.13443 3.42522
1.63132 0.259212 2.63582
1.36029 -1.42298 3.44542
-1.24316 -0.51912 3.25903
-0.483358 0.708318 2.00791
0.351441 -1.33388 3.36305
1.31575 0.250167 2.83191
-1.03916 -0.454703 3.09622
-0.512979 0.695874 2.03742
-1.12971 -1.26365 3.32727
0.803624 -0.42338 3.04267
1.45923 0.300777 2.8009
1.59493 0.946052 2.60633
0.0524749 0.89964 3.0468
-1.4203 -0.653552 3.11978
0.349953 0.149001 2.96338
1.14733 -1.66788 3.58538
0.338771 0.860631 3.02777
-0.494874 -0.648586 3.30338
0.183542 0.110279 2.95322
1.49051 -1.61079 3.54077
1.51731 -0.5342 2.80197
-1.32521 0.24053 3.06117
1.29722 -1.57751 3.60998
0.296691 0.974364 2.99922
1.43693 0.822711 2.67407
0.917404 -1.53323 3.63277
1.01597 0.172288 2.86588
0.368226 -0.547691 3.14065
1.55933 -0.442472 2.86497
0.0838727 0.318669 2.91728
1.28924 -1.42272 3.53586
0.430156 1.05021 2.8942
0.563708 -1.35991 3.52369
1.24517 0.963677 2.75572
0.196695 0.290591 2.92373
-1.32449 -0.426874 3.16585
1.04511 -1.21063 3.24204
1.64465 0.362434 2.68126
0.614345 -0.385571 3.03402
0.0304051 1.11397 2.88194
-0.0843958 -1.3624 3.78157
0.229882 0.359076 2.93341
0.158056 1.10476 2.93783
-1.18231 -0.352828 3.12717
-0.0620091 0.928889 3.01763
-0.959783 0.190375 3.03349
0.820552 -0.58221 3.10328
0.846731 -1.5071 3.45877
-0.600288 0.665586 1.9832
0.970734 -0.539006 3.03044
0.148242 0.265365 2.92655
0.137838 -1.54685 3.67096
1.13107 -0.483988 2.93761
1.52366 0.850103 2.62814
1.47184 -1.40793 3.38632
1.40734 0.211475 2.86552
-1.38691 -0.786558 3.32934
-1.46054 0.0835233 3.20479
0.299381 0.789501 2.92206
-0.956144 0.0431758 3.02673
-0.497849 0.797306 3.05728
0.257948 -0.72556 3.28141
0.818794 -1.75319 3.75749
1.00655 0.136675 2.88453
-0.558632 0.914306 2.86332
1.16452 -0.63309 2.96159
-0.453746 0.887029 2.99889
0.709637 0.103562 2.91156
0.149031 -1.61189 3.59623
1.47386 -0.575179 2.83461
-0.835174 0.841252 2.9381
1.13688 -0.107366 2.81254
-0.212912 0.650122 2.97745
1.19455 -1.71089 3.67202
1.24697 -0.89401 3.14988
0.380299 -0.0676858 2.95573
-1.04745 -0.875417 3.3165
0.448192 0.599741 2.95172
1.53272 0.264186 2.30862
0.605911 0.736189 2.98839
-0.751023 -0.0304353 3.04406
1.24908 -1.69734 3.54415
0.561266 0.00117956 2.97627
1.7789 0.800279 2.58989
-0.943948 -0.987872 3.80054
1.27687 0.642754 2.79221
-0.561331 -0.850129 3.46276
1.75778 0.906816 2.56853
0.0322715 -1.5169 3.62315
-0.271601 0.267944 2.95695
0.252208 1.01641 3.00001
0.9022 -0.540412 3.06257
-1.20627 -1.36998 3.40073
-0.867212 0.232179 3.00966
-0.685225 -0.511035 3.21513
0.704427 0.949949 2.91642
0.0691843 1.02364 2.92589
-0.963411 0.303444 3.00684
0.120619 -1.71099 3.6122
-0.0675793 -0.475081 3.18243
-1.0461 -1.31463 3.36748
1.15802 -0.675226 3.01005
0.725833 0.839529 2.96113
-0.891435 0.119777 3.03425
-0.845611 0.833406 3.04356
0.91259 -0.671245 3.17317
0.527487 0.0777674 2.9159
1.24467 -1.62242 3.48901
1.02608 -1.62619 3.6099
0.0377941 0.179763 2.94591
1.54745 -0.56627 2.78528
-0.396843 0.91618 2.96435
-0.897208 0.154531 2.97255
-0.35643 -1.46927 3.41408
-1.14824 -0.60542 3.3293
0.181706 0.889736 2.99503
0.417554 -0.841944 3.29218
1.04294 -0.0357412 2.91008
1.58816 0.0501821 2.41565
0.890004 0.674331 2.89321
-0.518387 0.919008 2.87208
-0.0485927 1.11677 2.43854
-0.874434 0.768018 2.94844
-1.35356 -0.795949 3.30382
-0.101076 0.0424636 2.99012
0.486844 0.73439 2.98799
0.571309 -0.757821 3.2324
-0.189834 0.00927156 3.017
-0.307702 0.655581 1.66337
0.502787 -0.183087 2.99064
1.52675 1.09981 2.57021
0.256489 -1.05588 3.48076
-0.173731 0.556885 2.84563
1.7251 0.925554 2.56285
-0.29067 -0.139589 3.0137
-0.167099 0.878306 2.01452
-1.29082 -0.936824 3.25934
1.64038 0.51081 2.81941
0.547367 -0.930371 3.30521
1.41379 -0.102509 2.7363
-1.30289 0.618041 2.80575
-0.669704 -0.915773 3.45078
1.57902 0.544086 2.66252
1.28337 -0.067487 2.78236
0.285381 -0.819027 3.34608
0.035311 0.0386641 2.95676
0.448334 0.76673 2.95431
0.91435 -0.749012 3.17126
1.746 0.000938911 2.74405
1.01619 0.714311 2.89566
1.512 -0.0325874 2.21669
0.692361 -0.70312 3.16599
-0.937488 0.0823085 2.95161
1.95869 0.00156321 2.65033
-0.506727 0.820216 3.01516
-1.13307 -0.148107 3.1015
0.752462 -0.975749 3.30612
1.70759 0.915352 2.56857
0.407577 0.568764 2.78825
0.767582 1.25209 2.83778
1.54835 -0.881175 2.80403
-1.47177 -0.104986 3.20357
-2.80831 1.13414 5.80529
-0.852832 -1.64652 3.45334
0.104157 -0.936831 3.34416
-0.907235 -0.0610562 3.07667
0.993716 -0.892521 3.30036
1.25809 0.652157 2.81714
-1.99913 -1.05163 4.04714
0.0532653 0.711404 3.21791
-0.347034 0.906233 2.60468
-0.303093 -0.0292803 3.04332
1.08981 -1.14436 3.43158
1.70026 0.457083 2.64536
-0.148862 -0.266699 3.0535
-0.370783 0.760643 2.17196
0.476577 0.469291 2.90393
-0.165793 -1.08447 3.43296
1.02037 -0.22502 2.91824
-0.190871 0.8113 1.96998
-0.61316 0.878672 1.86664
1.22035 0.511916 2.82145
0.434817 -0.1858 2.99925
1.50287 -0.990375 3.20975
1.31032 -0.39193 2.80323
1.47836 0.997575 2.64965
-0.277648 -1.3245 3.46778
0.703164 0.358971 2.9314
1.39716 -0.360582 2.82753
-0.532851 0.713465 1.95112
1.44142 -1.27114 3.38411
0.188581 0.32054 2.91672
-0.516672 0.443424 2.94222
1.66386 -0.324233 2.71098
-0.210714 -1.23294 3.45543
-0.362835 0.77134 1.91824
-0.131143 -1.18427 3.43837
0.324871 0.396348 2.91107
-0.187045 0.792989 2.0354
-0.644454 -0.301349 3.04879
1.6988 -0.355255 2.69058
0.738333 1.09945 2.85658
-1.32993 -1.215 3.30863
-1.34219 0.39804 2.93293
0.568172 1.0906 2.91802
-0.441275 -0.370689 3.19454
-0.121066 -1.33463 3.707
1.71434 0.327839 2.71842
1.3851 0.444665 2.81693
0.590449 -0.320834 3.02787
-1.15063 -1.12829 3.27064
0.282107 1.20397 2.94927
0.561372 -1.17822 3.51579
0.0533488 1.13075 2.8486
-0.18295 -0.271062 3.0502
-1.0465 0.424016 2.8659
1.04637 -1.42336 3.44469
1.77478 0.270481 2.80083
0.452408 -0.522039 3.19366
1.58075 0.901386 2.58516
-1.3385 -1.28067 3.27191
0.516621 0.252546 2.83676
1.44372 -0.439375 2.82508
1.5812 0.855345 2.5509
-0.15244 0.901821 2.4534
-1.33553 0.338641 3.03043
-0.134141 -0.436927 3.14504
-0.827645 -1.27874 3.34611
0.648506 0.875637 2.96343
-0.0685967 -1.70385 3.60314
0.618035 -0.677816 3.17575
-0.652185 0.144164 2.96467
-0.047496 -1.68483 3.65246
1.24835 -0.611861 3.01283
-0.867396 0.824219 2.87292
0.874035 -1.73454 3.82822
-1.47654 0.124126 3.22625
-1.41107 0.228334 2.98102
-0.416825 -1.4816 3.41688
-1.18719 -0.614558 3.32926
1.31481 0.873648 2.70936
1.75187 -1.57246 3.68514
-1.29576 0.188305 3.04769
0.749593 -0.549695 3.10137
-0.777618 0.670276 2.17089
1.51151 0.0244672 2.89743
0.314441 -0.822297 3.34448
1.52802 0.673099 2.61775
-1.42728 0.00016425 3.07337
-0.92088 -0.773434 3.31742
1.54306 0.648244 2.66111
1.50057 -1.46186 3.37317
1.67944 0.70952 2.64131
1.28513 0.0607272 2.80431
1.89216 -0.274615 2.73385
