ply
format ascii 1.0
element vertex 1836
property float x
property float y
property float z
end_header
-0.517272 -1.61351 3.43218
-0.637948 0.716709 2.94701
1.49213 -0.710887 2.87979
1.89199 0.0012618 2.74327
0.234776 0.716701 3.03757
0.113109 -1.04414 3.39691
1.08811 -0.205601 2.83423
0.754103 0.507881 2.92689
-0.048357 1.19588 2.60632
0.709999 1.2436 2.84488
0.0321178 -0.168556 3.01131
-1.05025 -0.985063 3.35539
-0.961573 0.590419 2.93923
-0.918013 -0.129748 3.12501
-0.0484796 1.08297 2.68395
-0.333385 -0.951991 3.3829
-0.895722 0.550559 2.95224
0.45043 0.3996 2.89281
-1.06695 -0.378658 3.22026
1.21659 1.07177 2.72766
1.55691 -1.20732 3.24718
0.196578 1.10669 2.94321
1.00515 -1.21308 3.4071
0.124344 -0.339874 3.072
-0.956211 0.378242 2.94497
0.788827 -1.13203 3.33015
-0.70073 0.49339 3.08666
-0.720795 -0.290003 3.10895
0.586752 1.20414 2.89963
-0.409797 0.455271 3.00501
0.36871 -1.12214 3.48843
-0.532344 0.763131 1.88562
0.650993 -0.251495 2.98415
-0.584368 -0.343943 3.0651
-0.229081 0.796596 1.97492
1.69648 -1.09882 3.04733
1.53723 0.398142 2.67897
-0.504598 0.742512 1.90422
0.955639 -0.295156 2.92336
1.24348 0.38669 2.81745
0.0566194 -1.15181 3.40751
-0.341956 -1.17706 3.61147
0.315427 0.492524 2.8851
0.0734691 -0.267549 3.07457
-0.183757 0.892009 2.00249
0.222402 0.468596 2.90679
-0.618288 -1.04311 3.40236
1.55703 -0.228094 2.93185
0.927689 1.14532 2.77251
-1.41417 -1.26026 3.23989
-0.416943 -0.461367 3.19759
2.50495 0.0251281 2.91695
0.961184 0.2906 2.91017
1.15422 0.984465 2.78318
1.63418 0.95486 2.49931
0.883671 -0.411717 3.00478
0.0602869 0.541507 1.23646
0.80342 0.359537 2.94748
1.24789 -1.30361 3.39675
-0.478443 0.727034 1.96882
1.30375 -0.362105 2.84177
-0.0521187 0.323737 2.95689
0.370089 -1.28421 3.52048
0.267645 -0.644748 3.28921
2.42972 0.56839 2.74687
1.57504 0.17777 2.80955
-0.300375 -1.66145 3.7658
1.12524 0.88169 2.80962
0.91627 0.860201 2.88646
1.08508 -1.7594 3.7236
-0.0241909 0.533643 1.29635
-0.622883 0.155613 3.00815
-0.680414 -1.44286 3.40705
1.35356 -0.555686 2.93811
0.801401 0.265249 2.89899
-0.668185 -1.40167 3.44913
-1.07655 -0.701879 3.33869
1.70068 -0.485777 2.74749
1.15935 0.937384 2.74962
0.223223 -1.44301 3.59679
-1.19167 0.248799 3.1191
2.6141 0.919561 2.90221
0.826607 -0.496183 3.04964
1.63755 0.845287 2.56251
1.09362 -0.72232 3.07317
2.4429 -1.15942 4.09483
1.19916 0.0289312 2.81785
-1.16632 0.790816 2.98415
-0.989741 -0.534003 3.20352
2.2014 -1.51561 4.15236
-0.805786 0.854851 2.96734
-1.00689 -0.731874 3.4226
0.320309 0.112597 2.93945
-1.16702 0.838398 3.01831
-0.810499 -0.670102 3.35542
-1.30681 0.0965779 3.0419
-0.187508 -1.71942 3.74062
0.134848 0.575212 1.30517
0.809748 0.937966 2.88747
-0.357636 -0.595152 3.29303
0.486928 0.214546 2.89751
-0.928438 -1.46775 3.4404
-0.210466 -0.532276 3.17408
-0.922169 0.659169 2.08947
0.0967998 0.610304 1.50099
1.41458 -1.55505 3.6892
1.74926 0.177159 2.74889
-0.325945 -0.507282 3.21115
-0.691013 0.301388 3.04528
-0.750658 -1.39543 3.5068
1.59416 0.896128 2.52715
1.76286 -1.91204 3.68136
0.11252 -1.36131 3.49936
-0.83302 0.27721 2.97627
0.469653 0.986839 2.93321
-1.06855 -1.65082 3.48329
-1.38332 -0.464657 3.18769
-0.814038 0.121981 3.03912
2.14533 0.516919 2.59507
0.910263 -0.686898 3.09528
1.5546 0.748365 2.61399
0.608092 0.0725106 2.9124
-0.90727 -1.53963 3.37534
0.635962 0.815176 2.98506
0.801537 -0.654287 3.13826
-0.672887 0.88342 2.95039
2.17739 1.11469 2.89259
-0.12962 0.9023 3.06395
0.52576 0.137178 2.881
0.119369 0.625427 2.99579
-0.0783637 -0.622 3.20315
-1.13853 -1.40165 3.20178
0.54478 0.684923 2.9513
0.011209 1.24793 2.65232
0.715783 -0.0549091 2.89635
0.730304 -0.867481 3.26413
-1.30294 0.637163 2.86804
1.9511 -0.0323651 2.98128
2.53325 0.2203 3.66783
0.10199 -0.834038 3.31391
-0.471953 -0.801078 3.37257
0.713565 0.0402663 2.9254
1.94558 0.21773 2.70735
1.04081 0.740426 2.82705
0.0619105 0.0154427 2.96587
1.6172 -1.07415 2.95417
-0.128807 0.722355 2.96327
0.387506 -0.746405 3.23726
-0.770954 -0.977138 3.33132
-0.797242 -0.172946 3.06833
-0.849242 -0.967309 3.42954
1.08999 0.528598 2.87814
-0.340917 0.851524 1.92855
1.78824 0.833395 2.55401
-0.523192 -0.144483 3.11306
-0.474056 0.618243 3.05336
0.0611834 -0.100251 3.00326
0.638801 1.28483 2.86225
-0.783096 -0.971839 3.60138
-0.0264628 0.598379 3.06775
2.47132 0.826432 2.88184
0.391415 -1.64212 3.52191
-1.42506 -1.50169 3.26297
1.08314 0.139894 2.79941
0.771342 -0.650459 3.14108
1.34718 0.803199 2.68816
-0.962676 0.129683 3.06798
0.373227 -1.5778 3.60091
1.85428 -0.979391 3.22849
-0.56291 -0.626971 3.29186
-0.843541 0.669601 2.3312
1.14979 -1.61512 3.73834
-0.192904 0.232529 2.98511
-1.17261 -1.14863 3.3878
-0.914524 -0.567803 3.22026
1.5638 0.852616 2.59144
1.25786 -1.53168 3.64982
0.429012 0.18456 2.91053
-0.672926 0.889708 2.95045
-0.284376 -0.533713 3.18218
1.55191 0.814107 2.58457
-0.731751 0.740135 2.9933
2.69804 -1.28014 4.29147
-1.11724 0.0266377 3.06717
-1.11624 0.727734 3.03606
-0.179567 1.08997 2.88075
-0.58604 -0.77616 3.28636
1.59663 -0.699484 2.93198
-1.04018 0.78379 2.81556
1.13194 0.0767802 2.8235
1.56351 -0.0173333 2.78716
-0.218156 0.7943 3.06236
0.310939 -0.70272 3.23041
1.35046 0.0331363 2.74134
1.95438 0.647083 2.60263
0.354927 -0.972132 3.39132
-1.18397 0.612833 2.91705
1.87333 0.306199 2.67731
1.53639 -0.137556 2.78513
-0.381864 -0.923796 3.41673
-0.735932 0.606335 3.09671
0.179577 -0.0927978 3.01759
1.33601 1.20246 2.64947
1.66223 -0.775914 2.84114
0.138456 -0.0622569 2.97923
0.19087 -0.831177 3.32472
-0.916891 0.754175 2.58566
1.30376 0.610611 2.75473
0.256594 -0.029011 2.98056
1.66879 -0.298501 2.91927
-0.514512 0.774606 1.85322
0.935465 -1.17899 3.45216
1.66031 0.462985 2.81214
0.443801 -0.256691 2.99564
1.6556 1.02704 2.53683
1.6311 0.400228 2.62676
-0.812075 -1.05795 3.34838
1.17875 -0.208008 2.79187
-0.563644 0.827969 1.88046
-0.127011 -1.06704 3.46452
0.351799 0.532365 2.90348
0.235547 -0.175766 3.01818
0.0751563 1.28343 2.88089
-0.188692 -0.996301 3.367
0.438727 0.49538 2.89078
-0.319385 -0.0941245 3.04317
1.6488 -1.06698 2.94957
1.25039 -0.849875 3.01996
0.192886 0.679219 3.07485
-0.63284 0.830894 2.52371
1.24448 -0.810462 3.00487
1.31656 -0.0636168 2.67474
0.881218 0.601574 2.9095
1.57074 -0.724677 2.81845
1.33123 0.00188679 2.72389
-0.831378 -0.0218932 3.08707
1.31322 0.683221 2.74214
1.80819 0.592866 2.6417
1.90626 0.282587 2.68827
0.745657 -0.769662 3.18352
0.200236 0.727185 3.12205
-0.255288 0.912715 1.9714
1.10674 0.495595 2.87319
0.720677 -0.224118 3.00044
-1.30509 -1.00151 3.2345
-0.604404 -0.178223 3.13338
0.662863 1.28239 2.85649
0.391454 -1.02833 3.45251
1.54625 0.527981 2.68
0.118667 0.169564 2.95772
0.115513 -0.137934 2.99118
-0.726687 0.586216 3.17504
-0.419866 -0.978364 3.4633
-0.95836 -0.379407 3.21079
-0.17319 0.398571 2.94145
-0.887332 -1.22726 3.43128
0.227802 1.1303 2.94384
-1.29747 -1.10322 3.16516
-0.0451542 -0.341833 3.08466
0.389509 1.09127 2.90149
-1.13864 0.381016 2.99083
1.39224 -1.26417 3.67261
0.42704 0.469324 2.91649
-1.36744 -0.297174 3.08411
1.04377 1.13401 2.73357
0.380534 0.436719 2.91778
0.875398 -1.15259 3.51046
-1.3353 -0.265718 3.13737
0.977949 0.969489 2.83188
0.889598 1.10982 2.76888
-0.00289285 0.515654 1.41692
1.40341 0.251801 2.81376
-0.638918 -0.526864 3.35909
2.06399 0.891918 2.83345
-1.06373 -1.34244 3.40264
0.560459 -0.453782 3.09348
0.208779 1.07598 2.97139
-0.0705431 -1.39146 3.59367
-0.867773 0.339134 2.98462
-0.375261 -0.419912 3.1917
-0.584649 0.684455 1.94567
-0.016113 0.563016 1.22706
-1.37164 -1.24829 3.33704
1.28393 0.282747 2.81385
0.589963 1.00756 2.88975
0.03701 0.675281 1.33771
0.219085 0.2878 2.91638
0.181417 -0.462701 3.10571
-0.272362 -1.3793 3.56835
0.586851 -0.417841 3.06183
-0.56778 0.730849 1.92934
0.0333482 -1.30762 3.49548
-0.313193 0.353978 2.94969
-0.807745 -0.382612 3.12672
0.548821 1.05206 2.9179
0.015237 0.604121 1.57671
-0.195014 -1.31125 3.6175
1.26358 0.303253 2.8113
-0.694907 -0.644104 3.35061
1.42718 0.177824 2.78279
1.92258 0.216163 2.8082
-0.193379 -1.66701 3.75201
-0.43747 0.904607 2.88482
1.32743 -1.53873 3.53295
2.36814 0.814551 2.90503
0.564451 0.136958 2.88662
-1.41657 -0.63871 3.4619
1.56779 0.775573 2.59486
-0.923955 0.274327 2.96261
-0.783284 -1.46855 3.59958
-0.0389067 1.37039 2.89125
1.84074 -0.515836 2.92446
-0.635005 0.680572 2.01382
0.141968 -1.45713 3.62951
0.781763 0.21315 2.88066
1.80219 -0.284171 2.71326
-0.087542 -0.506953 3.15795
-0.629268 0.67028 2.03385
1.70732 0.667052 2.55214
0.637114 0.0332902 2.93452
2.18627 1.0697 2.92069
-1.48262 -0.734469 3.15152
-0.981502 -1.33448 3.43825
-0.0228762 0.856557 3.05801
1.58689 -0.664138 2.95348
1.31926 0.0974639 2.78022
1.4425 -0.635195 2.94483
-0.571306 0.786906 2.93913
-0.525819 -1.58615 3.48079
1.66397 0.0663783 3.10069
1.36869 -1.55552 3.37256
-0.627194 -0.935747 3.37207
1.91306 0.0543196 2.64831
1.00867 -0.104443 2.89298
0.699892 0.636342 2.97054
-0.966961 -1.58674 3.34174
0.329371 -0.867702 3.30143
0.701842 0.598215 2.95852
0.0172193 1.27783 2.88544
-0.391086 -0.0645673 3.00601
-0.444675 0.00766563 3.01119
-0.509208 0.719331 1.96062
-1.21033 -0.842061 3.38003
-1.00499 0.724173 2.89857
0.0771906 -0.0294217 2.99909
-0.0616777 -0.786465 3.29177
1.91376 0.182605 2.74631
-0.383509 0.695809 3.04288
1.28516 -0.650989 2.87057
-0.468005 -1.04407 3.52724
0.577016 0.0726734 2.90792
-0.67789 0.807047 2.96468
-0.996013 -0.608981 3.30762
2.23312 1.00635 2.98586
1.35815 -0.618882 2.88251
0.262728 0.904577 3.06798
-1.22349 -1.57321 3.42197
-0.499232 0.143127 2.98642
1.69815 -0.577281 2.8288
1.40742 0.757027 2.67383
-0.382401 0.110851 2.96177
-1.07352 -1.4722 3.33306
-0.797252 -0.0611868 3.04616
-0.915741 0.777072 2.80796
-0.0365298 -0.888302 3.37841
1.21377 0.652946 2.82538
1.57167 -0.76251 2.91452
-0.810882 0.667031 3.05274
2.00638 0.0109933 2.62196
1.69393 -0.0352144 2.69641
-0.714026 -0.791418 3.34829
0.147002 0.0347716 2.95936
1.0723 0.730842 2.82318
-0.817941 -0.868994 3.38104
0.100074 1.32366 2.88292
-0.148064 -0.746894 3.27363
0.989399 -0.00200447 2.85916
0.0669862 -1.67082 3.55727
1.17955 0.695051 2.80894
0.722392 -1.00472 3.31557
0.617286 -0.186698 2.9884
1.61101 0.467975 2.59417
1.76077 0.826691 2.55648
-0.714834 0.871725 1.86062
0.446272 -0.146548 2.97236
0.0510229 -0.967524 3.35741
1.65291 0.545018 2.65644
-0.774044 0.699434 2.29267
-1.38208 -0.0998756 3.11506
-1.08481 -0.898722 3.35198
0.141722 0.560419 2.93125
0.802755 0.432419 2.90508
-0.198695 -0.34791 3.118
-0.29748 -1.24031 3.55996
1.14422 1.07883 2.69975
-0.168712 -1.09767 3.26812
1.06417 1.0689 2.76381
-0.000130635 -0.298375 3.06985
0.513696 0.392449 2.89528
-0.626704 -1.0978 3.39337
-0.082596 0.507924 2.97694
1.39391 -0.262472 2.83607
-0.383508 0.721932 2.10708
1.0627 0.463533 2.88206
1.12471 -1.07347 3.36287
-0.894076 0.811342 1.96059
0.0934795 -0.225133 3.04722
0.818224 0.716685 2.91948
0.234701 -0.031489 3.00421
1.79899 -2.102 4.54492
-1.40138 -0.804898 3.20753
1.64869 0.0102607 2.77794
-0.559368 0.693031 3.01249
0.787274 -1.45321 3.41389
1.07957 -0.758759 3.08486
-1.01514 -0.762205 3.35869
-0.725052 0.0846972 3.02183
-0.947568 0.786848 2.83595
1.52809 -0.031583 2.25804
1.28947 0.722535 2.74631
-0.922717 0.748529 2.71925
-0.637986 0.047541 3.04394
-0.817991 -0.727753 3.41413
1.4795 -0.86592 2.94899
1.92785 0.248953 2.68992
1.20185 0.580845 2.82891
-1.29193 -0.13847 3.10228
-0.323222 -1.66525 3.51527
0.307135 0.563244 2.92213
1.07599 -0.96883 3.42772
-0.40008 0.757412 2.07543
-1.33976 -0.0973123 3.22966
-0.27169 -0.868852 3.36763
-0.679463 -0.0587724 3.04739
1.75066 0.850048 2.5536
1.18964 0.620204 2.83943
-0.907252 -0.301443 3.14056
-0.388859 0.782165 1.90483
0.198302 -1.2297 3.57518
0.878782 0.46575 2.88778
1.26307 1.09597 2.72208
1.55273 -0.271756 2.94082
0.18829 0.435589 2.91746
-0.482794 -1.11647 3.46494
-1.06286 0.553962 2.99191
0.867042 -0.226842 2.98973
-0.427071 0.898959 2.65707
0.654312 -1.06899 3.38451
-1.28906 -0.949503 3.20375
-0.749792 0.676347 2.06743
1.0869 -0.179721 2.84025
1.35594 0.48839 2.79104
-1.48316 -1.2068 3.17723
-0.0511225 0.361908 2.96141
-0.737294 -0.425182 3.20769
1.06877 1.03647 2.75027
1.56613 -1.28151 3.41209
1.49301 0.302597 2.74016
0.869191 -0.371668 3.00073
-0.101527 0.957716 2.55827
1.44415 1.01074 2.58403
2.72195 0.887604 2.82048
0.98152 0.395306 2.90279
-1.27445 -0.356132 3.1706
0.650865 -1.18274 3.33002
-0.772572 -0.257689 3.04275
-0.688678 0.687041 1.96447
0.591501 0.500785 2.93954
0.607565 -0.223902 2.95012
-0.611208 0.759243 1.86665
1.40511 0.486018 3.04146
-0.95344 -1.07725 3.50653
0.417926 1.33706 2.89437
-1.29305 -0.181898 3.12582
0.861106 -0.981783 3.23261
0.723599 0.558066 2.91044
-0.581809 -0.141626 3.08478
-0.409925 0.895206 1.91591
-1.08512 -0.977563 3.45751
0.755331 0.532765 2.9348
-0.958801 0.408416 2.94952
0.208169 -1.30527 3.57704
0.350771 1.1167 2.89888
-0.206477 -0.377802 3.11476
0.765666 0.351357 2.90803
-0.636164 -1.16383 3.36226
-0.0763404 0.916668 2.37899
1.13132 -0.336311 2.90361
-0.962377 -1.12543 3.36832
-1.22517 -0.302613 3.1612
-0.232955 -1.10488 3.40256
-0.0466646 0.446427 2.97085
-0.398413 0.771284 1.92177
-0.215282 0.973378 2.89221
0.484292 -0.546532 3.17474
0.262801 -1.54714 3.75571
-0.15986 0.263473 2.96723
0.04447 0.538294 1.34458
1.51697 -0.472427 2.82879
0.322919 0.972888 3.01185
0.992537 -1.53801 3.77129
-0.801109 0.231671 2.98481
0.801546 -0.453533 3.04831
0.0120972 0.563477 1.27694
-0.360596 0.740499 2.01194
2.32084 0.126528 2.94977
0.961604 -1.41002 3.55962
0.130269 0.313289 2.9104
1.17243 -0.400357 2.87364
0.93839 0.98269 2.81388
0.373084 -1.32241 3.49942
1.81263 0.27603 2.7715
2.07563 0.604796 2.64841
2.03134 0.367377 2.73702
1.53714 0.141147 2.84633
1.07759 -1.75235 3.81541
1.41657 0.790474 2.63988
-0.0262439 -0.668446 3.2488
1.06083 -1.58779 3.56923
0.622898 0.10352 2.90959
-1.27778 -0.64144 3.31891
0.0321881 0.850941 3.02169
0.405579 -1.51523 3.54678
1.68125 0.623452 2.62398
-1.40148 -0.603882 3.3053
-0.879256 0.196622 3.03982
-0.293716 1.40985 2.92508
-0.54747 0.671654 2.15701
0.417624 -1.60652 3.62031
0.566994 0.169228 2.8902
2.11659 0.287135 2.73391
1.23333 0.849361 2.74454
-1.13676 -0.646782 3.28527
1.6088 0.127756 2.71706
1.26291 -1.66972 3.49696
1.21535 -1.59314 3.65094
1.24989 -0.576621 3.03307
-0.257031 0.870627 3.00757
0.345198 -1.48964 3.58429
-0.402775 0.980878 2.96212
1.69794 -0.501659 2.81355
1.50896 0.201891 2.76723
-0.286993 -1.41166 3.53474
2.27865 0.242212 2.73445
-0.691174 0.664553 2.0312
-0.372213 0.76846 3.01577
0.12768 -0.795204 3.2621
2.40291 -1.53419 4.44556
-0.89133 0.0443609 3.07497
0.856998 0.702142 2.87517
-0.246082 -0.773004 3.35877
-0.983246 -1.10319 3.40953
1.1298 -0.00723963 2.81664
0.529426 -0.718846 3.25395
0.0900648 0.850071 3.04209
1.48594 0.0925081 2.9242
-0.899855 0.775997 2.67336
-0.469867 0.818756 3.06912
1.55328 -0.619823 2.86626
1.79607 0.071234 2.8296
0.0319647 -1.65139 3.61087
1.95681 -0.0417612 2.62883
-0.237689 -0.94143 3.43374
-0.164915 0.910843 1.95835
-0.0398978 -0.106594 3.00741
-0.00891873 0.827615 3.736
0.249403 0.601263 2.93783
-0.353789 -0.883304 3.38669
1.42502 -0.0737731 2.83053
0.363863 -0.838379 3.3154
1.76801 1.04687 2.55561
-0.911227 -0.0279815 3.1016
1.80208 0.895352 2.53862
0.82697 0.665547 2.90188
1.18791 -0.259256 2.86997
-0.732385 0.687928 1.97572
-0.459136 -1.16688 3.59488
1.49323 0.475614 2.76193
-0.688166 0.757374 1.8391
0.403097 -0.228903 3.05213
-1.03732 -1.02005 3.26772
-0.599318 0.48431 2.99862
-0.710367 0.60457 3.18415
-0.675619 -0.18637 3.07173
1.44771 1.15463 2.59903
0.497033 -1.02532 3.38993
0.240376 -1.01687 3.52448
-0.467409 0.83472 1.89963
0.839395 -0.150339 2.94668
0.779073 0.525183 2.92817
0.762804 -1.63665 3.74704
0.094719 -0.0698989 2.98003
-1.2583 -0.839177 3.17731
0.963373 0.663691 2.8943
1.48182 -0.762598 2.89265
-0.986417 0.235092 2.99431
-0.946124 -0.0285783 3.08275
1.69297 0.577801 2.67202
-1.07126 0.04377 3.01083
-0.488793 0.714141 1.98687
-0.942374 -0.797391 3.34024
0.202404 0.78361 3.07453
0.515579 9.54692e-05 2.96813
-1.4064 -0.757761 3.2587
-0.0979728 0.950685 2.03509
0.300242 0.743504 3.02972
0.0113534 1.22462 2.80178
-0.0552431 0.536252 2.99943
0.874071 -0.194614 2.97955
-1.49506 -0.99237 3.26894
1.73386 0.766562 2.57723
1.05746 -0.151293 2.84839
-0.215227 -0.966818 3.3813
0.363606 0.598582 3.00278
-0.126354 -0.116287 3.08309
1.72882 0.510793 2.64974
0.387304 1.24614 2.90369
0.388835 -0.914092 3.28533
0.213925 0.426278 2.91426
0.361846 -1.28501 3.60815
-0.174035 -0.357875 3.1284
1.37064 1.04339 2.60678
-0.890572 0.403001 2.94838
-0.502648 -1.21104 3.56877
1.35619 1.01275 2.59908
-0.0635328 -0.308388 3.08779
-0.855197 -1.07911 3.34765
1.05415 0.489762 2.9008
0.589283 -0.275556 2.9937
-0.308641 0.798527 1.88363
-0.487997 0.485346 3.01412
-1.18067 -1.01658 3.30085
-0.862174 -0.226128 3.12836
0.404296 1.15904 2.8516
-0.798872 0.691624 1.95947
-2.09127 -0.767686 4.60077
1.1341 0.27172 2.8098
0.0756909 0.763662 1.54554
-1.14981 -0.469419 3.13971
-0.533933 0.695571 2.04281
-0.0202245 -1.44151 3.70884
1.08936 0.250019 2.88219
-0.708081 -0.431791 3.2366
0.432787 1.067 2.86072
2.43255 0.833619 2.89596
1.05376 -1.31103 3.39815
-1.33036 0.3759 3.00307
1.69 -0.367337 2.75371
1.48617 0.941618 2.5874
-1.53469 -1.23503 3.33275
2.30176 1.02907 2.97975
0.798855 0.308203 2.9242
1.088 -0.981122 3.3163
0.967588 0.589933 2.89926
-0.16615 -0.148522 3.0575
0.144968 -0.93497 3.3569
-0.504793 0.581009 3.03752
-0.865313 -0.100139 3.07963
0.59161 1.29558 2.86408
-0.918793 0.775648 2.79802
0.240874 0.669735 3.12682
0.87466 -0.0750102 2.95366
-0.483368 0.806728 2.42395
-1.21793 -0.872987 3.3448
1.32801 -0.290489 2.80614
0.510529 1.16885 2.87299
0.254789 -1.23085 3.59221
0.733947 0.467664 2.91417
0.805009 -0.271497 2.98241
-0.314733 0.784313 1.94953
-0.338197 0.441352 2.98782
-1.46691 -1.05409 3.19644
0.371048 -1.0796 3.42742
1.27387 0.50839 2.80306
1.81085 -0.217736 2.74644
-0.568366 0.853002 1.88067
-1.42098 -0.965616 3.21573
-0.913704 0.512405 2.96231
-0.508732 -0.182982 3.07153
-0.413423 0.899507 2.65593
-1.27258 -1.25058 3.31785
-0.840909 -0.427134 3.20611
-0.789813 -1.25765 3.46655
0.698176 0.310489 2.9072
-0.400807 0.731203 1.99746
0.132646 1.11587 2.91088
1.82717 -0.362106 2.84799
2.51539 -0.942174 3.15643
0.701128 0.389516 2.90528
1.54376 0.943774 2.47698
-1.06224 -0.358512 3.23832
1.16005 0.344974 2.86158
1.66514 -1.12756 3.11728
0.456329 -0.590095 3.1721
0.900466 0.930252 2.87567
2.20325 0.338919 2.6137
-0.181056 -1.46342 3.37539
-0.421059 0.221668 3.0421
0.435031 -0.548109 3.16149
0.227058 0.905851 2.97657
-0.0960856 0.461409 1.42334
1.33457 -1.50851 3.57809
0.589661 0.170006 2.88004
-0.515998 -1.46085 3.65783
0.308448 0.282951 2.92751
2.17104 0.257781 2.63192
1.55132 0.915429 2.5954
-0.51852 -0.494286 3.13229
-0.804516 -1.32339 3.43592
0.952918 0.256538 2.89533
0.350961 -0.463101 3.09103
0.431231 1.00182 2.97193
2.31993 0.540184 2.68241
1.03953 -1.31196 3.51072
-0.501598 0.396578 2.98085
1.37462 -0.371754 2.84666
-0.483812 0.751168 1.93168
-0.350927 -1.23399 3.49202
-0.929901 0.362805 2.94105
0.71424 1.06355 2.84701
0.173115 -0.354095 3.06851
-0.710766 0.726115 1.81526
1.40786 -1.11573 3.18618
-0.561806 -0.311256 3.09903
-0.441785 0.43461 2.97866
0.017181 0.992254 2.96791
0.823467 -0.535655 3.08015
-1.30299 0.281076 3.02212
-0.85835 -1.44419 3.52778
1.91874 0.42636 2.63355
-0.812446 -0.482194 3.08187
0.113635 0.97775 3.03642
2.67567 -2.00378 3.66098
-1.2536 -1.33489 3.37454
-1.20164 0.232711 2.97583
-0.728874 -0.4743 3.24921
1.74841 0.298639 2.74628
-1.22386 -1.29099 3.36285
-0.617105 0.695417 1.95001
1.97542 0.0618257 3.00495
-0.578082 -1.29314 3.43615
-1.03526 0.305048 3.00146
-0.27901 0.749125 2.11718
1.96977 0.497333 2.62427
0.967173 -0.420312 3.00858
1.24262 -1.657 3.56793
1.32075 0.130611 2.79001
-0.153042 -0.674636 3.2688
-0.690388 -1.55283 3.25848
0.598437 0.864751 2.93324
0.799409 0.101284 2.9174
-0.929195 -1.50556 3.40404
1.07225 -0.612264 3.03465
0.364448 0.839348 3.00258
2.05022 0.480481 2.60695
-0.634492 1.13515 2.85884
1.51772 0.802599 2.58113
-0.634087 0.180868 2.99789
-0.316993 1.41548 2.94107
-1.39685 -0.591242 3.20202
-2.30699 -2.44226 5.48962
0.610186 -0.0359321 2.9388
-0.358756 0.773391 3.1764
-1.03915 0.11226 3.04586
-1.34986 -0.809769 3.19532
-0.73759 0.00382883 3.04122
2.14956 1.01096 3.03933
-1.00256 0.681248 2.9059
0.51971 -0.7942 3.24608
0.367686 0.0716548 2.9291
0.231499 -0.758093 3.2833
0.708826 0.787688 2.92824
0.0454329 1.32001 2.85232
1.22538 0.0221488 2.79035
0.876891 0.746359 2.89805
0.833261 -0.697112 3.15567
-0.233683 1.00447 2.74478
-0.320856 0.751537 2.98541
0.0877594 -0.802233 3.29155
0.351865 0.023447 2.96318
-0.279432 0.568599 1.83388
0.412472 0.730165 3.03483
-1.11805 -1.03136 3.33893
1.03745 -0.739127 3.09448
1.70496 -0.0176408 3.1016
-0.0714201 -0.714856 3.27502
1.03643 0.0915315 2.85144
0.162271 0.836772 3.02131
1.37875 0.194669 2.01439
1.57376 0.700715 2.59507
-0.844097 -1.59814 3.44969
1.87976 -0.282091 2.70868
0.89834 0.0597467 2.90283
-1.00931 -0.676119 3.30135
1.49665 0.575864 2.65488
0.703809 -0.931024 3.29019
0.623203 -0.116555 2.98435
0.55754 -1.77233 3.741
-0.949703 -0.87469 3.35849
1.42459 0.546372 2.68635
-0.617431 -0.0767157 3.0805
1.78258 -1.06049 3.00016
1.20424 1.24161 2.72863
0.100062 0.680972 3.00312
1.29539 -0.0489875 2.80707
-0.97316 -1.35311 3.41087
0.559044 -0.862766 3.33909
-0.0455949 -0.267963 3.05586
-0.56364 0.777648 1.84839
0.675707 -1.14117 3.43428
-0.819362 0.521573 3.05848
-0.681341 -0.23576 3.10955
0.31497 1.17882 2.92369
0.654836 0.45719 2.91201
1.25656 -1.03624 3.20777
-0.914603 0.624577 3.23344
-0.194261 -0.197123 3.05883
1.27913 1.20423 2.69268
-0.871055 -1.0229 3.42442
0.446626 -1.00565 3.43138
0.940904 0.520538 2.8808
1.46758 -0.153564 2.77111
0.000739425 1.23032 2.72951
-1.16069 -1.1756 3.26927
-1.00723 0.395383 2.91775
-1.3304 -0.39815 3.1872
0.064208 1.11937 2.93262
0.425788 -1.26714 3.55243
-1.38763 0.370538 3.00213
-0.54373 0.734232 1.95064
0.294046 -0.363876 3.08511
0.918314 1.09467 2.75814
0.907003 0.427752 2.92227
-1.35598 -0.326762 3.16853
-0.0352337 -1.19486 3.48678
1.35615 -0.227986 2.80811
-0.483744 0.824693 1.89043
1.15136 -1.07508 3.32941
-0.333528 0.539596 3.04145
-0.0343708 -0.199989 3.06406
0.751235 1.17525 2.81327
1.14993 1.24295 2.72779
0.819261 -1.00934 3.26353
1.27639 0.478174 2.82049
0.648805 -0.157777 2.98239
1.75892 -0.898849 3.02171
-0.0440549 0.660722 3.21301
-0.450618 -0.111729 3.04873
0.499415 1.30991 2.87723
-1.4067 -0.903221 3.23041
1.50207 0.513206 2.67916
-1.50475 -1.18762 3.29819
-0.80847 0.438791 3.01068
1.05652 -0.353443 2.92499
-0.472112 0.747648 1.89724
0.00353303 -1.18477 3.44933
1.62601 0.350702 2.66818
0.654896 1.10388 2.89473
0.190756 -0.32381 3.07727
0.403744 -1.18363 3.5738
1.05319 -0.271066 2.885
-0.508418 0.461349 2.96513
0.136915 1.1593 2.88761
0.382919 1.02772 2.97399
0.254125 -0.507333 3.12817
1.35511 0.265603 2.78874
1.01977 -1.429 3.47594
-1.12304 -0.61912 3.31044
1.30738 -0.450057 2.87815
1.02358 0.94035 2.77778
1.07221 -1.38525 3.49086
0.112345 0.249235 2.92103
-1.18319 -0.438917 3.20612
0.875639 0.343718 2.90849
0.539842 -1.37911 3.59537
0.00804964 1.07661 2.92078
2.11075 0.451266 2.6156
-0.996521 -1.26538 3.48144
0.717303 1.02108 2.84884
2.18982 -0.114007 3.17381
1.63145 -0.365645 2.7502
-1.37809 0.325444 2.95922
1.72243 0.163525 2.74575
-1.27042 -1.42184 3.16121
1.48846 0.797906 2.59332
0.071868 -0.638759 3.21055
-0.486912 -1.49098 3.47915
-1.17535 0.145745 2.95695
1.70543 -0.541351 2.78297
2.1651 0.195425 2.86388
0.154094 0.868427 2.9882
1.25002 -1.59542 3.7522
0.695041 -1.46529 3.58353
-0.0903105 0.959805 3.03065
-0.0372391 -0.55482 3.17557
1.73175 0.202174 2.74677
2.12118 0.334434 2.63217
1.49277 0.429171 2.68999
1.00725 -0.313453 2.92988
-0.638768 0.757717 1.86741
1.538 -1.15362 3.26398
0.222309 -1.15473 3.51175
-0.20215 0.785191 1.96111
0.916062 -0.272958 2.972
-1.03093 0.454822 3.04756
-0.266445 -1.05449 3.36486
-0.883192 0.563884 3.08191
1.39213 -0.226815 2.82113
-0.567785 0.835244 1.87882
-0.54341 0.503013 2.98895
-0.489941 -1.08907 3.56818
1.08499 1.14158 2.69589
1.7697 -0.195679 2.79047
-0.359612 -1.32093 3.50179
0.25457 1.07164 2.97291
1.43924 -0.402997 2.83303
-0.212483 0.317706 2.98563
1.24614 1.05488 2.72086
0.0337075 -0.385952 3.10225
1.48367 0.387996 2.91207
0.243918 -1.30846 3.56132
1.41438 0.988137 2.61793
1.25373 -0.348756 2.85012
0.0528783 0.919723 1.88732
-0.986813 0.36266 2.96189
-0.866822 -1.1946 3.40977
-0.9402 -0.577934 3.15033
2.09118 0.425161 2.62045
-0.0981614 0.215632 2.97378
-1.00141 -1.42265 3.30924
1.28043 0.884858 2.73675
-0.318803 0.920075 3.04728
1.0125 -1.58471 3.746
2.44059 1.08278 2.91808
1.74789 0.160548 2.72767
0.339238 -0.546361 3.14097
-0.601513 -1.63086 3.42236
-0.159456 0.285731 2.97139
0.925381 -1.56696 3.8246
2.43923 1.10903 2.8632
1.04195 -0.482685 2.92695
-0.0781938 1.03585 3.0031
2.33663 0.619751 2.74907
0.528357 -1.48138 3.75467
-0.325948 0.259857 2.98466
-0.213657 -0.467863 3.17055
-0.728359 0.676287 1.98476
-0.0113965 0.791556 2.97627
-0.686451 0.0704176 3.02031
-0.988343 -0.576176 3.2976
-0.687391 -0.73645 3.38898
-0.112716 1.35311 2.90413
-0.822781 0.668905 2.25702
0.452775 -0.661428 3.1513
-0.561481 0.138098 2.98078
0.365809 -1.63451 3.58031
-0.916088 -0.657769 3.40548
1.33943 0.761087 2.69111
-0.508302 -1.55867 3.50559
0.477842 0.0965484 2.91173
1.23069 0.921279 2.73409
-1.34141 -0.561384 3.2301
2.19474 0.970964 3.03716
1.9542 -0.476731 2.78552
-1.75037 -1.50448 3.52941
1.49211 0.246629 2.84074
0.48148 -0.516129 3.1535
-0.413754 0.684936 2.10552
0.0783062 0.697139 1.45385
-2.22352 -1.91726 4.62604
-1.12509 0.233411 3.05333
-0.836245 0.320761 2.96648
-0.998941 -1.37561 3.46272
0.37258 1.07058 2.96856
2.32265 0.966385 2.93127
1.59613 -0.448438 2.86146
-0.755642 -1.31873 3.50478
-1.32937 0.309546 3.01652
-0.707714 0.69414 1.97161
-0.0392501 -0.436702 3.16823
2.11906 0.359188 2.62256
0.872538 -1.70184 3.68405
1.25401 -0.644766 2.98845
0.774829 -1.68134 3.65223
-1.37872 0.118659 3.08407
-0.566387 0.825055 2.95657
2.23368 0.273003 2.62666
1.29605 1.03291 2.71293
1.31613 -0.58414 2.85243
-0.665245 0.643281 2.07408
1.18228 -1.7197 3.78445
-0.206732 0.178867 2.98548
0.495606 -0.602367 3.21701
1.08398 0.828858 2.8127
1.69139 0.126237 2.75824
-0.0800245 -1.56893 3.63691
-0.0587062 0.712718 2.966
1.16881 -0.0439255 2.82726
0.0867054 1.28038 2.76926
-0.554754 -0.000445743 3.04987
1.40967 -0.767925 2.92733
-0.915681 0.674446 2.93904
2.2767 0.93741 3.20229
0.88439 -0.783055 3.1601
1.4509 0.0540551 2.86655
-0.556247 -0.765421 3.30711
-0.32331 0.800454 3.02412
0.791837 -1.54164 3.7378
-0.935249 0.041765 3.06704
-1.10954 0.229129 3.0297
-1.00851 0.775297 2.99947
0.0375417 -0.713734 3.25409
-0.102585 -0.970943 3.38093
0.314537 -1.72296 3.62573
-0.19154 -0.154258 3.04315
0.0701305 1.2372 2.78096
0.969811 0.55248 2.88832
0.25981 1.32307 2.90935
1.82357 0.887977 2.54308
-1.16353 -0.109106 3.12657
-0.508864 0.649153 3.05602
1.506 -0.821433 2.83563
-0.282322 -0.0770456 3.05202
1.65967 -0.806947 2.89586
1.22482 0.561939 2.7902
-1.25618 -0.910625 3.26698
-1.30577 -0.114594 3.10074
1.81135 0.513695 2.63593
0.203569 0.58275 2.93322
-0.650363 0.703271 2.20442
0.591262 -0.0796277 2.94481
0.514517 1.28404 2.8805
-0.607741 0.685086 3.0562
0.263851 -0.901609 3.33187
-1.26544 -0.0421404 3.08051
1.03678 -0.858168 3.27984
0.616431 0.627664 2.98469
-1.28927 -0.287711 3.19929
-0.745702 0.752392 1.79274
-0.732697 -1.115 3.42071
-0.289956 0.495383 2.97894
-0.211543 -0.237274 3.08715
0.436223 1.16525 2.88882
-3.40985 1.10839 7.05097
0.589138 -1.09082 3.39839
-0.780006 -1.05317 3.48111
1.007 0.546632 2.89616
0.666966 -0.200087 2.96467
-0.32226 0.800773 2.09879
0.0599362 0.529453 2.96628
1.14601 -0.987371 3.29575
-0.30506 0.898205 1.93697
-0.759324 -0.156379 3.08221
0.860316 -1.3712 3.6874
-0.985182 -0.392723 3.15349
-0.075336 0.3488 2.97632
-0.762932 0.706307 1.89747
1.7672 -0.34973 2.72675
1.61325 1.00891 2.53233
2.50619 0.703175 2.78999
1.55482 0.366956 2.51135
-1.06231 -1.09054 3.10158
-0.671716 0.733013 1.92055
0.411384 -0.327558 3.08483
-0.262476 0.376867 2.93474
0.487687 -1.28429 3.70466
0.14208 -0.557263 3.1666
2.34971 -0.152893 3.0138
-0.237709 0.24949 2.98951
-0.736645 -1.45796 3.52486
1.68642 0.860584 2.54305
1.38738 0.849485 2.63558
-0.92822 -1.39539 3.48539
0.283367 1.38777 2.90681
-0.0526269 0.213268 2.95196
0.881271 -0.510197 3.04532
-0.685478 -1.35064 3.46463
-0.794763 0.32562 3.00606
1.13525 -0.447697 2.88199
0.688947 1.02391 2.86469
2.28785 0.633514 2.75484
-0.142042 -1.35937 3.58326
0.0872184 0.274048 2.90976
2.38369 0.898333 2.93104
-0.7513 -0.429423 3.15503
0.626083 0.999565 2.88805
-1.3923 -1.14101 3.16723
0.0580392 0.415948 2.93162
1.16234 -0.359094 2.87845
-0.784899 0.730852 1.8483
0.583221 -1.23202 3.53489
0.270662 0.369619 2.90016
-0.827717 0.716452 1.85854
1.08785 -0.320147 2.87949
0.200441 1.18156 2.94598
1.36501 0.436029 2.79123
-0.476719 -0.287942 3.09361
-0.659482 -1.11321 3.39238
0.382545 -1.42933 3.5705
1.33904 -0.481683 2.83811
-0.491105 0.701573 2.02319
1.23265 0.27193 2.84817
0.520304 -1.5058 3.68797
-1.38019 -0.494313 3.24437
0.63491 0.973655 2.9133
0.0568935 0.93232 1.96988
-0.952135 -1.38858 3.56705
0.664007 0.238678 2.92022
-0.617249 0.348428 2.96034
1.40222 -1.31998 3.36522
0.0464624 1.07243 2.92244
2.35025 0.230984 2.73481
-0.652716 -0.441716 3.17472
0.632165 0.298839 2.9101
0.422476 -1.2981 3.50556
-0.79603 0.684459 1.88429
0.565952 -0.397285 3.05184
1.08685 -1.67218 3.63922
-0.0694101 -1.58 3.53295
-0.530893 0.17126 2.98161
-1.44068 -0.614741 3.04716
0.784935 0.87236 2.86211
0.869281 0.125013 2.89777
-0.80886 -1.44977 3.35503
0.374582 -1.74562 3.63813
-0.555711 -0.573321 3.11158
0.358958 0.864435 2.97834
2.02155 -0.798312 3.26277
0.662594 -1.62052 3.62797
-0.45206 0.678813 2.10565
1.32561 0.19617 2.78708
1.83869 0.324807 2.79924
1.27138 -0.536386 2.92339
0.78132 -1.71833 4.0414
1.34434 0.692603 2.72008
2.24578 -0.198277 3.57374
-0.278838 0.0266031 3.02096
0.404488 -0.814869 3.32162
-0.249221 0.736805 3.09463
-0.0866421 1.09671 2.95403
0.713604 -0.0159336 2.93391
-0.800111 -0.799591 3.44232
0.917827 0.0932297 2.89082
1.67685 -0.768059 2.55868
1.0378 -0.685397 3.03878
-0.110022 0.841138 3.05847
-0.256821 0.0604846 3.03895
-0.807357 -1.60305 3.44705
1.87047 -0.50195 2.73867
1.65736 0.709003 2.64367
-0.922297 -0.689717 3.31177
-0.196368 0.768722 2.10857
-0.5713 0.318095 3.02038
0.467465 -0.42909 3.06118
-1.05064 -1.25213 3.29652
0.976336 -0.388757 2.98582
-0.346634 0.766223 1.98102
1.33906 -1.23324 3.26924
0.596541 0.378964 2.94229
0.705035 -0.363734 3.02878
1.45015 0.984558 2.62872
1.49202 -1.23093 3.35862
0.515474 0.335203 2.8708
2.51962 0.306446 2.64231
0.78797 -1.71487 3.91583
1.1872 0.201865 2.80213
2.27777 0.140953 2.95584
0.159334 -0.59655 3.18872
-0.362012 0.918267 2.7804
-0.177478 -1.50669 3.62968
0.96714 0.159499 2.85766
2.37694 -0.0930321 2.97291
1.59147 -0.501209 2.7571
1.08157 0.859842 2.8172
1.41567 -1.4119 3.38965
1.4239 0.268083 2.7712
2.19204 0.288469 2.62552
0.65614 -0.514239 3.12204
-0.33161 0.726409 2.06491
-1.45773 -1.23005 3.06677
-1.37964 0.282463 3.08954
-0.00533366 1.32072 2.90152
-0.755961 -0.474108 3.19451
0.383632 0.987967 2.96879
0.137807 0.802815 3.04166
-2.48476 -1.26761 5.22427
-0.100307 1.32773 2.89586
0.448961 0.0580415 2.93085
-0.51994 0.765957 3.03405
-0.304518 -0.71533 3.24681
-0.674144 -0.986984 3.57526
-0.169163 0.0281882 3.00431
1.06275 -0.657967 3.03849
-0.500439 0.799982 2.77003
-0.0872168 -1.69275 3.63665
1.74081 0.123986 2.73115
1.85719 -0.324048 2.70925
1.56588 -0.590522 2.85092
-0.511146 0.827877 3.00965
-0.464272 0.100667 3.01791
0.685067 -1.73989 3.88666
0.712274 -1.58005 3.76158
0.405159 -0.882983 3.27508
-0.998346 0.78664 2.84642
-0.829224 0.704887 3.05935
-0.85481 -0.0701052 3.08344
0.0381418 -0.843261 3.29221
0.560018 0.631092 2.95847
-0.575878 -0.0397952 3.07806
1.26677 -1.78883 3.7166
-2.15819 -1.1022 4.39083
-0.283758 0.883733 2.43393
-0.30451 0.952959 2.74774
0.131986 -0.0106361 2.95795
-1.13198 0.724386 2.94486
-3.14285 -3.24878 6.92852
1.09316 0.776607 2.79086
1.46283 -0.636118 2.91428
-1.18674 0.118998 3.13699
-0.101769 -1.69848 3.5255
0.609901 -1.47152 3.59018
2.19816 0.315271 2.61779
1.24498 0.825408 2.71647
-0.193852 -0.644281 3.27232
-0.0714724 0.171983 2.97051
-0.879473 -1.52634 3.42641
1.20579 -0.584471 3.01639
1.43094 0.762676 2.59835
0.181308 -1.52396 3.53398
-0.232006 0.134855 3.00165
-0.218716 1.1575 2.9594
0.294639 -0.0449026 2.95958
-0.23006 -0.0123793 3.05529
0.0142909 1.17867 2.88294
1.44083 -0.770102 2.90545
0.140103 0.726589 3.031
2.31967 -1.52683 4.21437
1.15554 -0.776205 3.10543
-1.16223 0.670174 2.89067
0.317525 -0.783916 3.3183
1.78332 0.0594246 2.76887
-1.00428 0.79265 2.91933
1.52894 -1.49413 3.44633
1.64143 -0.827721 2.7296
1.61119 0.0261582 2.67378
-1.33561 -0.718932 3.27628
1.71726 0.700536 2.71444
0.241747 1.26338 2.92574
-1.19936 0.534979 2.76319
1.2725 1.14461 2.67555
-1.02012 -0.158169 3.15297
0.292546 -0.999104 3.40905
1.86285 0.998359 2.54569
-0.0699995 -0.115414 3.03831
0.191525 -0.928998 3.31911
-0.711208 0.636835 2.99344
-1.20111 -0.0739962 3.10071
-1.07136 0.590061 2.90579
1.3185 -0.842943 3.03963
-0.917876 0.466833 2.96074
-0.738232 -1.16403 3.41774
1.6031 -0.297401 2.73645
0.83102 1.12858 2.7859
1.49741 0.391635 2.71355
-1.04235 -1.07057 3.32585
-0.299809 -0.279376 3.0757
-0.0924804 0.832476 2.11994
-0.0203146 -1.07286 3.40548
-1.09348 0.532945 2.93606
-0.513716 -0.239968 3.0895
-0.458283 0.873202 1.89729
0.18581 -1.10375 3.63013
-1.71161 0.622165 3.63977
-1.04449 -0.197159 3.11275
-0.136412 0.84262 2.00492
0.392432 0.475389 2.92899
1.2662 -0.280286 2.85325
-0.156334 0.839289 1.99258
-1.11054 -1.09282 3.32988
-1.31312 -1.03599 3.25759
0.750908 1.12978 2.80518
1.56537 -0.246292 2.84022
-1.10344 0.460743 2.92463
0.800903 -1.06845 3.42505
-0.954982 0.557577 2.95485
-1.35381 -0.207174 3.08635
-0.607946 0.841751 1.87088
1.38462 0.498464 2.79314
1.18041 -0.962323 3.22235
-0.88548 -0.164846 3.11529
0.945461 1.02746 2.78753
0.132179 1.33031 2.88447
1.0622 0.337331 2.88203
-1.06383 -0.405686 3.16621
0.619982 -1.30233 3.49149
-1.35572 -0.38201 3.17953
0.306937 1.17366 2.97968
-1.37073 -1.16416 3.25189
1.79762 0.402845 2.78021
-0.267649 0.775308 2.01052
0.503121 -0.329481 3.03564
2.65119 0.63813 2.72263
0.396336 -1.23371 3.54148
1.50455 0.34595 2.72882
-0.0124399 -1.52596 3.64941
-0.787947 0.251394 3.03679
2.1521 -1.10154 3.52411
1.51811 -0.504852 2.72298
-0.694507 0.66973 2.04262
0.7904 -1.71231 4.13595
-0.753998 0.212843 2.96097
1.31647 -1.72078 3.72405
0.762604 -0.517238 3.0723
-0.769362 0.64648 2.0337
-0.33412 0.309949 2.97397
1.40923 -1.67936 3.55657
1.41054 -1.51963 3.74095
2.07511 0.270811 2.75189
0.917513 -0.470715 3.02022
-0.00455162 1.04204 2.93968
0.436727 -1.40441 3.63842
0.84074 0.271873 2.88542
1.87738 0.680679 2.64694
-1.03086 -0.438148 3.17508
1.67182 0.881051 2.55648
1.6513 0.744721 2.66021
1.01246 -1.5876 3.62387
0.0418693 0.0945741 3.00025
-1.4031 -0.674426 3.15296
0.49962 0.631032 2.94759
0.577232 0.887574 2.94022
0.132657 -0.64629 3.22039
0.635913 0.15845 2.88647
-1.04761 -1.5518 3.44299
1.24993 -2.00521 4.1215
0.986357 -0.588592 3.04122
0.736092 0.837421 2.89166
0.468618 -1.63814 3.77394
-0.73826 0.131685 3.00562
-0.278682 0.971916 2.38086
0.286614 -0.525476 3.12518
-0.0767301 0.481252 1.47176
0.166266 0.268808 2.9214
-0.186052 -1.4502 3.58013
0.88433 0.973959 2.84319
-1.34522 -0.497317 3.22934
-0.198779 0.976389 2.97951
2.6613 0.871362 2.83328
0.0994216 -1.38911 3.50155
-1.38794 0.255317 3.01369
-0.529628 0.349068 3.01589
-0.333051 -1.35105 3.5491
-1.43299 -0.458204 3.19718
-0.342576 0.746526 2.00972
2.10025 0.492383 2.59702
-0.466774 -1.30989 3.55789
0.33206 0.295734 2.91331
2.02152 -0.450554 2.77713
-0.520507 -0.415089 3.26694
1.30383 0.979526 2.726
-0.280476 -1.63233 3.63736
1.44509 -0.591254 2.83742
-0.894186 -0.320315 3.1613
0.950965 0.123721 2.88226
-0.373468 0.881683 3.06142
2.01893 0.295745 2.76085
-0.692726 0.958431 2.94597
0.627272 -0.60238 3.15546
0.973981 0.905508 2.84532
0.0331465 -1.53156 3.54493
1.6575 0.190457 2.68296
-0.96476 -0.564779 3.15285
-0.798739 0.638245 2.10681
-0.290676 -1.48155 3.55485
-0.311712 0.165794 2.97825
1.1945 0.0099966 2.77466
1.53009 -1.01289 3.28588
1.25765 -0.763435 3.00405
-0.23491 0.765429 3.05897
-1.19387 -0.768047 3.28022
-0.0214703 0.724207 3.04925
-0.276481 1.04846 2.86695
0.158123 -0.0199385 2.9572
-0.763368 0.0992552 3.04291
-0.723058 0.822406 2.95751
0.998723 -1.738 3.68703
-0.468706 -0.733777 3.29244
1.62329 0.601115 2.54735
-1.19012 0.0685395 2.97234
0.493034 -0.691411 3.21607
0.403535 0.792301 2.9924
1.29771 -0.887465 3.05153
1.00043 0.577286 2.91598
-0.546798 -1.61757 3.44876
-0.462809 0.717303 1.93727
1.43166 -0.130644 2.74158
1.92295 0.439442 2.63841
1.18673 -0.0850673 2.75757
0.853178 0.65218 2.898
0.969732 -0.917563 3.32207
-0.0388692 -0.0523168 3.02391
-0.673928 0.623342 2.99163
0.432022 1.29549 2.88153
1.74223 -0.735056 2.76298
0.255476 0.203414 2.95688
1.04837 -1.56708 3.57194
1.77646 -0.439922 2.73688
0.617146 0.932071 2.93946
-1.39357 -0.632391 3.33365
-1.20995 -1.41337 3.36826
-0.408308 -1.59065 3.42856
1.41743 0.156324 2.82209
-0.145357 -0.555509 3.15422
-0.457767 0.879271 2.9007
-1.08899 -1.32682 3.30135
-0.846137 -0.504641 3.19715
0.896759 -1.78335 3.64982
-0.901655 -0.508425 3.15691
-0.00781322 0.239395 2.94716
2.36922 0.105242 2.94392
-0.309023 0.744246 2.19631
1.23402 0.738572 2.75443
1.40807 -0.725604 2.97351
0.805552 0.0541166 2.88257
-0.164365 0.943916 3.02839
-0.723025 -0.7348 3.30936
1.15701 0.719568 2.81891
0.647613 -1.46301 3.5629
-0.828567 0.0315584 3.08414
-1.22277 -0.714807 3.39058
1.76278 0.115342 2.7222
-1.2191 0.831896 2.82223
-0.273314 0.83239 3.02729
1.82927 -0.533561 2.79117
-1.18534 -1.561 3.4518
-0.301442 0.100027 2.9643
1.00012 -0.619601 3.0223
1.12398 -2.10731 4.84076
-0.543776 -0.945426 3.54286
-0.0253187 -0.0753583 3.01264
-0.50274 0.692171 3.0933
-0.33673 0.643818 3.08944
1.19621 -0.8252 3.11479
-1.17994 0.0101946 3.09088
1.07534 -0.0514235 2.86124
1.74761 0.988212 2.53282
-1.60794 -0.83297 3.34436
1.29861 0.663617 2.75734
-1.04972 -0.00816858 3.05202
1.87478 0.520366 2.62613
-0.381183 -0.242873 3.06652
-0.0155579 1.22639 2.64658
-1.34772 -1.00967 3.16885
0.695707 0.51831 2.93924
0.977973 1.15273 2.75989
0.0115814 -0.206904 3.05095
1.02653 1.21842 2.74323
0.147789 0.482812 2.91652
-1.286 -1.05581 3.40002
-0.592925 0.620282 3.12571
1.11759 -0.158986 2.81638
0.975344 -0.973646 3.25959
-0.147211 -0.942483 3.41066
0.30805 1.25859 2.90926
0.906276 -0.12565 2.92247
0.0204584 0.573859 3.03836
1.87969 -0.554848 2.74778
-0.387251 -0.857537 3.37102
0.454528 -0.0225481 2.96858
-1.04965 -0.0402972 3.11146
-0.749517 0.719222 3.00594
-0.149347 -0.810499 3.32653
1.09614 0.652132 2.88025
-0.771191 0.0661795 3.07125
1.89559 0.142146 2.74216
-1.13768 -0.787706 3.34771
-0.77722 0.799162 3.00818
-0.336118 0.0226096 2.97935
-1.01899 0.783415 2.83075
0.9502 0.726784 2.86371
1.11579 -0.694143 3.00968
-0.596921 -0.205964 3.11849
-0.654658 0.793302 1.86477
-1.82991 -1.1823 3.78325
0.195809 0.543719 2.91104
0.903893 1.19853 2.77073
1.53816 -0.163047 2.79916
-0.595437 0.827256 1.87271
-0.991027 -0.974201 3.35144
0.886436 0.241923 1.36439
-1.0417 0.789633 2.85292
-0.414455 -0.119994 3.02501
-0.582776 0.633392 3.05136
0.272845 -0.962145 3.40216
-2.66445 -0.26506 5.76574
1.39525 -0.797243 2.8631
-1.21517 0.590349 2.90006
0.136619 0.447173 2.92505
1.49543 -1.16099 3.24401
-0.840996 -0.341473 3.19535
-0.661927 0.745041 1.84559
1.4085 -1.15804 3.38528
-0.0965986 0.419734 2.96942
0.810665 1.10493 2.81442
-1.07366 -0.285375 3.14982
-0.559198 -1.13576 3.60223
1.40724 -0.231467 2.74065
1.69393 0.471504 2.85783
0.352593 1.20613 2.90657
0.988011 0.993994 2.76375
-0.998786 -0.462707 3.09405
-0.143564 0.308228 2.97971
-0.538357 -1.35948 3.47391
0.835127 0.972556 2.82575
2.38754 0.461928 2.588
-0.462232 -0.450076 3.26007
1.12523 -1.33483 3.39812
-0.898196 0.290462 3.00438
0.363298 -0.404505 3.1167
0.675317 1.0917 2.88493
-1.145 -1.22162 3.3547
2.33925 -0.00435752 2.87712
0.468978 0.366463 2.87979
-0.650034 0.719997 1.92824
0.367719 -0.374306 3.13049
0.114512 -1.27449 3.56967
1.73058 -0.144625 2.82035
1.56516 0.305909 2.66786
0.163756 1.07427 2.95382
0.972962 -0.443895 3.0004
-1.14966 0.352317 2.99076
0.697002 -1.40499 3.61187
-0.479905 0.715394 1.98404
1.50435 -0.383499 2.77381
0.506158 -1.36028 3.63136
-0.419501 0.303411 2.95951
0.648884 -0.365562 2.96028
-0.361401 0.764057 1.94932
-0.0418527 0.528378 1.33316
0.0959772 -1.28761 3.57931
-1.2358 0.430225 2.99415
1.57473 0.983655 2.55912
-0.267073 -0.334444 3.12897
1.36458 -1.19543 3.33576
2.63152 0.691213 2.76013
0.185358 0.36183 2.91778
1.07527 0.228641 2.87943
-1.04141 -1.38258 3.27542
-0.0149509 0.560813 1.28744
-0.377589 0.708805 2.11913
1.51421 -0.538078 2.86854
0.615238 -1.53471 3.71416
0.642205 0.194886 2.89377
-0.588051 -0.532993 3.22427
-0.588185 0.654605 2.05026
1.23785 -1.48575 3.65968
2.06 0.349951 2.63426
1.57395 -0.450252 2.74808
1.00538 0.26452 2.89484
2.24056 0.472725 2.59543
-0.250898 0.906655 2.58451
1.29208 -0.67829 2.89734
1.39463 0.749004 2.69978
0.552281 -1.4639 3.59599
1.71207 0.0889262 2.76223
-1.1771 0.737237 2.73776
1.35777 -0.65797 2.97671
-0.666929 0.79171 2.97624
1.65635 0.0450394 2.79963
0.737783 -0.643873 3.12585
1.06447 0.152662 2.82701
1.43724 -1.66761 3.62669
-0.829811 0.632459 2.08632
0.675931 0.851312 2.95292
1.35034 -0.571461 2.88557
2.39946 -0.963897 3.83379
-0.589181 0.124975 3.01169
1.20778 -1.688 3.83201
-0.277238 1.08585 2.45641
0.870466 -0.852539 3.22861
-1.16591 -0.0155882 3.0874
0.509921 -1.4617 3.58241
-0.0746625 -0.054696 3.02406
1.34904 0.646466 2.70236
-0.197713 -0.797192 3.30239
1.4705 0.611939 2.72391
0.74098 -1.88569 3.97005
0.996119 -0.786408 3.23563
1.9038 0.375675 2.67774
1.59473 -1.47979 3.3989
1.64058 0.0112067 2.74611
0.0507785 0.75649 3.04169
-0.760495 0.626127 2.15697
-0.21021 -1.68183 3.60839
-1.3247 0.139514 3.08831
-0.486514 1.38187 2.96069
1.64955 -0.606613 2.83845
2.23399 0.230286 2.745
0.197276 -1.67293 3.71229
-0.478482 0.679734 2.12436
-0.224957 -0.614683 3.2084
-1.05933 0.217397 3.02874
1.1434 -1.49493 3.36526
0.930764 -0.558169 3.01337
-1.1393 0.745894 2.45969
-1.16404 -1.40434 3.32469
-0.716119 0.165822 2.96544
1.86463 0.995941 2.54951
1.08656 -0.786225 3.10437
-0.864382 -1.26664 4.49831
0.911824 0.0124655 2.89209
1.4945 -0.0312624 2.78619
1.26543 0.696541 2.7643
-0.591163 -0.75521 3.21722
-0.251984 1.08073 2.45388
1.14609 0.677968 2.83074
0.014857 0.0883058 2.9725
1.56844 -1.37761 3.19725
0.794729 -0.728839 3.16973
1.11951 0.770184 2.79591
0.959499 0.0478766 2.88551
-0.525982 0.78032 2.26796
0.496836 0.767402 2.91649
1.66576 -0.632552 2.81514
-0.38474 0.594386 3.0551
1.82676 1.03905 2.55017
1.36286 -0.129211 2.69594
-0.0471997 1.07 2.40805
1.37026 -0.903572 3.08475
1.89811 0.0869765 2.70039
-0.3222 0.673878 3.06661
-0.535256 -0.0893335 3.08226
1.4053 -0.847367 3.00795
1.7372 -0.0567762 2.77601
-0.0876578 -0.869942 3.34504
1.46474 0.564867 2.66838
1.02335 -1.12592 3.30878
0.569502 0.475229 2.92383
0.500335 1.254 2.87959
0.73637 -0.287761 3.02715
1.00316 1.14025 2.74049
1.47354 0.424988 2.78346
-1.14221 -1.03321 3.30316
-0.71617 -0.246551 3.06523
0.718804 1.14742 2.85779
-0.592759 -1.10526 3.6209
1.32399 0.516221 2.7744
-0.783959 -0.205621 3.07149
-0.157571 -0.991389 3.37557
-0.769785 0.526621 3.04543
-1.43871 -0.171181 3.088
-0.443713 0.899866 1.87767
-0.114907 0.783742 2.99278
-0.360981 0.843172 1.92765
1.30246 -0.727845 2.96907
1.09542 0.048506 2.80912
-0.584382 0.759191 3.04794
-1.35773 -0.725996 3.21653
0.50946 -1.46443 3.59063
-0.0425522 0.0180695 2.96489
-1.41057 0.136623 3.05333
1.95298 0.712953 2.56713
-0.728537 -0.68684 3.28495
-0.66917 0.857397 2.89341
-1.1116 0.112698 3.12218
-0.443625 -1.60905 3.56746
0.270646 -0.0857754 0.144047
0.637029 -0.650898 3.18817
1.505 0.729868 2.61795
1.10605 -0.854114 3.08336
-0.182064 0.662862 2.95957
1.87832 0.113936 2.70724
0.969082 -0.0822274 2.89722
-1.28941 -0.824192 3.18784
0.782426 0.609524 2.92433
-1.47618 -1.58449 3.36436
1.48229 -0.0589522 2.82971
1.5268 0.377351 2.27681
1.79369 0.960443 2.52779
-0.861552 0.713455 2.97693
-1.00502 -0.00448218 3.07337
1.18085 -0.772896 3.0669
-1.09396 -0.249879 3.14157
-0.548552 0.819918 1.88862
0.784491 -1.08677 3.35583
1.68885 0.457973 2.58498
0.973683 -0.208438 2.91624
-0.716879 0.781934 1.86342
-0.125541 0.684598 1.64051
-0.570225 -1.04765 3.43588
-0.390745 0.486127 2.97892
-0.488524 -0.995533 3.36422
0.091434 0.597573 2.99967
-1.46778 -0.167418 3.0931
-0.99361 -0.914284 3.30231
0.511256 0.533017 2.88883
-0.673195 -0.127784 3.06042
-0.653145 0.857668 1.86069
1.37728 -1.22495 3.32254
0.329834 -0.371976 3.09233
1.28668 0.360803 2.82812
-0.540035 0.74827 1.9445
0.0490818 -0.330477 3.06659
-0.315016 0.790245 1.968
-0.552232 0.45694 2.98732
-1.52238 -1.14864 3.26503
1.00323 1.11465 2.83559
0.120232 -0.287468 3.06165
1.82814 0.394167 2.76374
0.534345 -1.18533 3.53778
-0.248352 -0.213721 3.08893
-0.262611 0.869326 1.95665
0.439747 -1.0666 3.4427
0.37183 1.33733 2.89086
-0.858306 0.594701 3.16789
-0.283234 0.921988 1.9355
1.76345 0.734141 2.58196
-0.433118 -0.16813 3.09128
0.277324 0.510214 2.92967
0.202323 -1.0455 3.5549
-0.1983 0.641702 3.09017
-0.549265 -0.135112 3.08916
-1.3227 -0.922027 3.26124
-0.48398 -0.955075 3.53017
-0.0710913 -0.0862731 3.02394
-0.126364 0.593881 2.99826
0.720144 -1.22612 3.48759
1.73151 0.420771 2.696
0.965062 -0.323868 2.89735
1.48352 1.02877 2.52998
0.483659 0.403763 2.90094
1.36003 -1.1476 3.34017
1.12959 -0.280933 2.83969
0.100767 1.12356 2.90639
1.19144 1.12447 2.68828
1.54564 0.432749 2.68905
0.984455 -0.249379 2.92316
0.196615 -1.11209 3.46918
0.881834 -0.484861 3.06001
-0.0560996 1.05968 2.99323
1.54858 0.279334 2.70111
-1.07499 -1.30943 3.3488
2.5321 0.0206394 2.94722
-0.951377 -0.455751 3.26939
-0.0445207 1.01681 2.97093
-1.44797 -1.19888 3.08482
1.72103 0.252223 2.6809
-1.12941 -0.421153 3.25361
0.0783906 0.363799 2.91486
1.52227 -1.31346 3.42718
0.277919 1.1261 2.9786
-0.00549808 0.530909 1.21694
1.61892 -1.19156 3.21291
-1.48035 -0.385226 3.21888
-0.758138 0.70642 1.89606
0.022748 0.585384 1.46157
0.181207 0.33289 2.92208
0.560954 -1.57012 3.62016
-1.2695 0.222942 3.02592
-1.4303 -0.605547 3.1667
1.57893 0.822782 2.58277
0.504518 -1.58529 3.75453
-1.1059 0.171329 2.92567
2.44882 0.653224 2.78176
1.50509 -0.567709 3.04823
1.40942 0.809931 2.68536
-0.49019 1.44518 2.95956
0.982648 0.940273 2.8431
0.59665 0.230528 2.89669
0.05148 -0.529214 3.18059
2.16707 -0.70865 3.2234
-1.35806 -1.32646 3.25689
0.631162 0.225131 2.91694
-1.18207 -1.36405 3.22739
0.184339 0.970536 2.99573
0.674589 -0.574941 3.12255
-0.413194 -1.46965 3.59166
-0.817738 0.206167 2.97199
-1.27442 -0.541749 3.25634
-0.267739 0.94257 3.03621
0.022995 0.710353 1.80127
0.114087 1.0027 2.96509
2.49738 0.817517 2.87921
-1.03163 -1.62978 3.45937
0.437174 0.262478 2.89136
-1.06118 -0.485758 3.09076
2.28016 0.024338 2.95904
0.3058 -1.46752 3.66054
-1.12888 0.77059 2.76615
-1.08073 -0.765955 3.33729
-0.227013 0.0877356 3.0288
0.056574 1.31679 2.88024
-0.0446176 -0.69798 3.25368
-0.412033 1.31602 2.95314
-0.0396258 0.774687 2.98773
-0.722449 0.0562546 3.03294
0.373404 -0.648237 3.15739
-0.111531 0.161959 3.01334
-0.33942 -1.59384 3.52051
-0.178557 0.888648 3.02812
0.0831522 0.694091 3.34725
-0.743605 0.861899 2.93904
-1.03317 -1.46144 3.30643
1.41564 0.106066 2.85133
1.44376 -0.583234 2.93432
-0.298409 0.858929 1.9311
-0.840968 -0.991872 3.80009
-0.958014 0.699852 2.944
-0.149599 -0.0559766 3.02031
1.51094 -0.681115 2.66972
-0.97405 0.728643 3.25019
0.307759 -0.0237906 2.96714
-0.212204 1.01318 2.76517
1.824 0.356425 2.65261
0.703198 0.734364 2.94653
-1.20406 0.0249272 3.09143
1.51559 0.406715 2.27159
1.4591 -0.72229 2.92993
0.433208 -0.213698 2.99404
-0.129502 0.942663 2.14989
0.347278 1.2714 2.90653
-0.453386 -1.08443 3.50788
-0.987684 0.55402 2.96334
1.3326 -0.172009 2.79244
-0.633037 0.807645 1.86557
1.69799 1.11181 2.56109
-1.10889 -0.967978 3.26557
-0.354847 0.512444 2.99047
-0.592558 -0.983396 3.43431
-1.12846 0.606026 2.8669
-1.03534 -0.132677 3.16647
1.7134 -0.794403 2.8063
1.57092 0.52932 2.67896
-0.739946 -0.0853174 3.0346
0.683406 -0.804049 3.18699
1.05038 0.00917421 2.87909
