ply
format ascii 1.0
element vertex 1835
property float x
property float y
property float z
end_header
0.794352 0.263785 2.89286
-0.668185 -1.40167 3.44913
-1.07185 -0.694335 3.34656
1.70068 -0.485777 2.74749
1.14763 0.926847 2.74673
0.23636 -1.4461 3.58776
-1.19167 0.248799 3.1191
2.61606 0.917467 2.90245
0.828656 -0.492567 3.0485
1.62974 0.84007 2.56724
1.09412 -0.714083 3.07789
2.4378 -1.14835 4.09347
1.19383 0.0292922 2.82277
-1.16632 0.790816 2.98415
-0.989741 -0.534003 3.20352
2.19649 -1.50464 4.15121
-0.805786 0.854851 2.96734
-1.00932 -0.75344 3.40956
0.325913 0.118372 2.93775
-1.16702 0.838398 3.01831
-0.795244 -0.676133 3.3601
-1.30681 0.0965779 3.0419
-0.187508 -1.71942 3.74062
0.14201 0.573777 1.30999
0.803661 0.934073 2.89684
-0.346989 -0.594995 3.2838
0.490097 0.216289 2.88007
-0.928438 -1.46775 3.4404
-0.201008 -0.529009 3.1694
-0.922169 0.659169 2.08947
0.0988287 0.610626 1.49815
1.40823 -1.54274 3.68278
1.74926 0.177159 2.74889
-0.314995 -0.508054 3.2024
-0.683015 0.301457 3.05086
-0.750658 -1.39543 3.5068
1.58816 0.886866 2.53045
1.76245 -1.91198 3.67999
0.122899 -1.36629 3.4841
-0.83302 0.27721 2.97627
0.464528 0.975074 2.93616
-1.06855 -1.65082 3.48329
-1.38332 -0.464657 3.18769
-0.805317 0.116896 3.05875
2.12943 0.522402 2.60224
0.911321 -0.682701 3.09144
1.54083 0.739319 2.62661
0.60768 0.0755361 2.90315
-0.90727 -1.53963 3.37534
0.636953 0.809044 2.99266
0.805091 -0.646068 3.14152
-0.672887 0.88342 2.95039
2.17739 1.11469 2.89259
-0.130448 0.894046 3.0648
0.528609 0.136664 2.86274
0.125704 0.625904 2.99515
-0.0697448 -0.620596 3.19242
-1.13853 -1.40165 3.20178
0.544169 0.675941 2.9547
0.011209 1.24793 2.65232
0.714065 -0.0419783 2.8898
0.737798 -0.863721 3.25809
-1.30294 0.637163 2.86804
1.9511 -0.0323651 2.98128
2.53078 0.219472 3.67073
0.111845 -0.834347 3.30021
-0.460763 -0.809542 3.36068
0.708821 0.0452261 2.92174
1.92464 0.218042 2.73101
1.0334 0.736861 2.83695
0.0710902 0.0282023 2.95813
1.6172 -1.07415 2.95417
-0.123746 0.713217 2.96271
0.390982 -0.74511 3.22797
-0.760963 -0.987776 3.33303
-0.789176 -0.173464 3.06133
-0.835754 -0.96579 3.4412
1.08526 0.525969 2.89256
-0.340917 0.851524 1.92855
1.78323 0.828047 2.55813
-0.50501 -0.145593 3.10632
-0.470152 0.619518 3.05631
0.0745486 -0.0995134 2.99486
0.634189 1.27211 2.86167
-0.759025 -0.992164 3.59628
-0.0162964 0.5996 3.06938
2.47135 0.829876 2.88181
0.399062 -1.64049 3.51545
-1.42506 -1.50169 3.26297
1.07356 0.141494 2.79576
0.775839 -0.642124 3.14166
1.33429 0.795358 2.69177
-0.962676 0.129683 3.06798
0.385265 -1.57646 3.58271
1.8427 -0.972984 3.23318
-0.552989 -0.634857 3.29142
-0.843541 0.669601 2.3312
1.14841 -1.61257 3.7335
-0.18191 0.239294 2.98712
-1.17261 -1.14863 3.3878
-0.907491 -0.571152 3.22384
1.55763 0.842028 2.59359
1.25706 -1.53232 3.63987
0.435224 0.188513 2.90124
-0.672926 0.889708 2.95045
-0.275809 -0.53385 3.17131
1.53943 0.805221 2.59404
-0.731751 0.740135 2.9933
2.69893 -1.26264 4.28716
-1.11724 0.0266377 3.06717
-1.11624 0.727734 3.03606
-0.179985 1.08846 2.8829
-0.580889 -0.77422 3.28582
1.58688 -0.694145 2.93883
-1.04018 0.78379 2.81556
1.12488 0.080609 2.82735
1.55358 -0.0174099 2.79653
-0.208179 0.787489 3.06466
0.32032 -0.702996 3.22113
1.34076 0.0349734 2.74746
1.94339 0.638939 2.60415
0.354238 -0.975213 3.37581
-1.18397 0.612833 2.91705
1.87333 0.306199 2.67731
1.52656 -0.130578 2.79352
-0.366681 -0.929884 3.41288
-0.735932 0.606335 3.09671
0.187249 -0.0829085 3.01221
1.33601 1.20246 2.64947
1.65517 -0.768505 2.84831
0.150863 -0.0616243 2.96293
0.198432 -0.82767 3.31598
-0.916891 0.754175 2.58566
1.29229 0.608217 2.76375
0.260189 -0.022322 2.97597
1.6641 -0.293508 2.93036
-0.514512 0.774606 1.85322
0.936204 -1.17569 3.4478
1.645 0.465598 2.837
0.448942 -0.245926 2.99799
1.6556 1.02704 2.53683
1.61467 0.393142 2.6389
-0.800662 -1.06283 3.35243
1.17556 -0.201439 2.78977
-0.563644 0.827969 1.88046
-0.983654 0.0584034 3.10562
-0.113645 -1.0725 3.44602
0.350778 0.534109 2.90404
0.242299 -0.170899 3.00738
0.0751563 1.28343 2.88089
-0.174589 1.13455 2.96024
-0.181237 -1.00013 3.3666
0.437921 0.494472 2.88175
-0.310831 -0.0852106 3.0286
1.6488 -1.06698 2.94957
1.25113 -0.840237 3.02408
0.192886 0.679219 3.07485
-0.63284 0.830894 2.52371
1.24529 -0.802403 3.00623
1.30722 -0.0581128 2.67646
0.878409 0.601116 2.91759
1.57074 -0.724677 2.81845
1.31901 0.00674235 2.72788
-0.822662 -0.0215513 3.09293
1.30523 0.677628 2.7546
1.79259 0.586947 2.6608
1.88826 0.289748 2.712
0.750894 -0.760715 3.18382
0.20055 0.724287 3.12868
-0.255288 0.912715 1.9714
1.09659 0.494981 2.87775
0.71953 -0.223853 2.9901
-1.30509 -1.00151 3.2345
-0.586624 -0.176363 3.12924
0.660053 1.27386 2.85343
0.397058 -1.01932 3.44153
1.53039 0.523717 2.69273
0.118667 0.169564 2.95772
0.124102 -0.131024 2.98187
-0.726687 0.586216 3.17504
-0.402948 -0.986115 3.45885
-0.941161 -0.386272 3.21309
-0.166041 0.398557 2.94001
-0.982379 0.0613187 3.10551
-0.887332 -1.22726 3.43128
0.230422 1.12107 2.94275
-0.161424 1.15239 2.956
-1.29747 -1.10322 3.16516
-0.0307442 -0.337779 3.08977
0.389806 1.08269 2.90621
-1.13864 0.381016 2.99083
1.38752 -1.24872 3.668
0.120777 1.23924 2.43547
0.429126 0.468755 2.90961
-1.36744 -0.297174 3.08411
1.03548 1.12235 2.73317
-0.0477856 -0.144565 0.803017
0.383688 0.438416 2.91602
0.878475 -1.14857 3.5039
-1.3353 -0.265718 3.13737
0.972665 0.960493 2.83564
0.878251 1.09895 2.771
-0.00655706 0.523508 1.44936
1.39275 0.25075 2.82473
-0.631185 -0.526368 3.35679
2.05891 0.889513 2.83768
-1.06373 -1.34244 3.40264
0.560758 -0.449513 3.0902
0.214299 1.06759 2.96581
-0.0551758 -1.39658 3.57498
-0.867773 0.339134 2.98462
-0.363408 -0.419932 3.18623
-0.584649 0.684455 1.94567
-0.016113 0.563016 1.22706
-1.37164 -1.24829 3.33704
1.27474 0.281344 2.82382
0.58586 0.997817 2.88871
0.0325462 0.68545 1.37016
0.225447 0.290971 2.90699
0.189398 -0.460159 3.09403
0.090226 1.31671 2.24038
-0.275917 -1.3749 3.55727
0.588962 -0.412864 3.06287
-0.56778 0.730849 1.92934
0.04279 -1.31011 3.48061
-0.304883 0.352477 2.94549
-0.795358 -0.384849 3.11602
0.549185 1.04063 2.92308
0.0302641 0.599678 1.57951
-0.190182 -1.31073 3.60447
1.25503 0.302194 2.81996
-0.686962 -0.646379 3.34696
1.42718 0.177824 2.78279
1.89856 0.204243 2.83076
-0.193379 -1.66701 3.75201
-0.433392 0.901844 2.88497
1.32534 -1.53875 3.52506
2.36677 0.814361 2.90407
0.561572 0.138874 2.87755
-1.41657 -0.63871 3.4619
1.55369 0.771352 2.60536
-0.923955 0.274327 2.96261
-0.783284 -1.46855 3.59958
-0.0389067 1.37039 2.89125
1.84074 -0.515836 2.92446
-0.635005 0.680572 2.01382
0.149683 -1.45935 3.6254
0.776195 0.213554 2.87085
1.78996 -0.281551 2.72166
-0.0760546 -0.505895 3.1521
-0.629268 0.67028 2.03385
1.68781 0.658592 2.56562
0.632676 0.0352434 2.93022
2.18277 1.0715 2.92314
-1.48262 -0.734469 3.15152
-0.981502 -1.33448 3.43825
-0.0220234 0.84696 3.06033
1.5864 -0.64965 2.96094
1.30734 0.102559 2.78403
1.4443 -0.623188 2.95373
-0.569947 0.78199 2.94121
-0.525819 -1.58615 3.48079
1.65271 0.070589 3.10977
1.36869 -1.55552 3.37256
-0.627194 -0.935747 3.37207
1.91306 0.0543196 2.64831
1.01202 -0.0943189 2.89868
0.691138 0.633306 2.97769
-0.966961 -1.58674 3.34174
0.339727 -0.866224 3.2952
0.702404 0.59943 2.95988
0.0172193 1.27783 2.88544
-0.378631 -0.0669761 2.99856
-0.430806 0.0083995 3.00173
-0.509208 0.719331 1.96062
-1.21033 -0.842061 3.38003
-1.00499 0.724173 2.89857
0.0889546 -0.0226119 2.98697
-0.0555744 -0.780124 3.28843
1.91376 0.182605 2.74631
-0.377168 0.693932 3.04702
1.27462 -0.645569 2.87345
-0.467056 -1.04632 3.52866
0.577697 0.0808347 2.90853
-0.67789 0.807047 2.96468
-0.987629 -0.610336 3.31701
2.23317 1.00823 2.98867
1.35319 -0.612111 2.88625
0.268155 0.905192 3.07067
-1.22349 -1.57321 3.42197
-0.48715 0.13762 2.99574
1.69069 -0.572696 2.8395
1.39783 0.745603 2.68178
-0.370778 0.11468 2.95454
-1.07352 -1.4722 3.33306
-0.789211 -0.0598734 3.04771
-0.915741 0.777072 2.80796
-0.0226061 -0.890688 3.36523
1.20357 0.643327 2.83755
1.56489 -0.753399 2.91929
-0.810882 0.667031 3.05274
1.99377 0.00570093 2.62489
1.67942 -0.0383927 2.71122
-0.709499 -0.792174 3.35108
0.154135 0.0402128 2.9477
1.06295 0.7236 2.83008
-0.804851 -0.890926 3.38081
0.100074 1.32366 2.88292
-0.140959 -0.744815 3.26399
0.983329 -0.000550228 2.85851
0.0669862 -1.67082 3.55727
1.17185 0.693038 2.82289
0.727938 -1.00078 3.30786
0.619494 -0.183242 2.98424
1.61101 0.467975 2.59417
1.75212 0.819039 2.56456
-0.714834 0.871725 1.86062
0.455734 -0.141625 2.96563
0.0618156 -0.96811 3.34254
1.63864 0.533429 2.66931
-0.774044 0.699434 2.29267
-1.38208 -0.0998756 3.11506
-1.0756 -0.899843 3.35527
0.146942 0.555425 2.93527
0.80123 0.428463 2.90878
-0.742565 0.158473 2.68027
-0.187399 -0.342485 3.11916
-0.27345 -1.24875 3.55561
1.12853 1.06975 2.7032
-0.166303 -1.09847 3.2666
1.05748 1.0568 2.76399
0.00582771 -0.287916 3.06472
0.709169 1.40939 2.84339
0.51328 0.392095 2.8813
-0.611265 -1.10904 3.39365
-0.0713156 0.513047 2.97001
1.3874 -0.251633 2.84575
0.204223 1.32133 2.73302
-0.383508 0.721932 2.10708
1.05485 0.462015 2.88796
1.13522 -1.06638 3.36151
-1.08819 -0.106496 3.12902
-0.894076 0.811342 1.96059
0.102023 -0.219412 3.03552
0.816016 0.707417 2.93768
0.24082 -0.0253556 3.00112
1.79214 -2.09618 4.54843
-1.40138 -0.804898 3.20753
1.64869 0.0102607 2.77794
-0.549857 0.685423 3.01314
0.785466 -1.44667 3.41191
1.07909 -0.752987 3.08694
-1.01514 -0.762205 3.35869
-0.723376 0.0934009 3.03101
-0.947568 0.786848 2.83595
1.52809 -0.031583 2.25804
1.28196 0.719943 2.75386
-0.922717 0.748529 2.71925
-0.632735 0.0495447 3.04755
-0.807531 -0.728297 3.41938
1.4795 -0.86592 2.94899
1.90926 0.242581 2.70742
1.19231 0.577364 2.84002
-1.29193 -0.13847 3.10228
-0.323222 -1.66525 3.51527
0.306968 0.563258 2.92546
1.0844 -0.963099 3.42445
-0.40008 0.757412 2.07543
-1.33976 -0.0973123 3.22966
-0.267066 -0.866949 3.35372
-0.669935 -0.0618487 3.04375
1.74601 0.845383 2.55465
1.18112 0.617724 2.85195
-0.903119 -0.300378 3.14562
-0.388859 0.782165 1.90483
0.198302 -1.2297 3.57518
0.874263 0.459932 2.8945
1.25649 1.08756 2.72035
1.54693 -0.26469 2.95069
0.193801 0.439391 2.90925
-0.463923 -1.12936 3.45355
-1.06286 0.553962 2.99191
0.865355 -0.217768 2.99761
-0.130546 1.19689 2.83933
-0.427071 0.898959 2.65707
0.664087 -1.06775 3.37159
-1.28906 -0.949503 3.20375
-0.749792 0.676347 2.06743
1.08714 -0.174378 2.84763
1.34617 0.492298 2.80051
-0.556669 0.734116 3.07007
-1.48316 -1.2068 3.17723
-0.0367053 0.367835 2.95583
-0.719103 -0.43415 3.1943
1.0562 1.02214 2.75343
1.5656 -1.27727 3.40675
1.48048 0.300474 2.75342
0.876143 -0.362429 3.01127
0.156818 0.840822 1.77812
-0.101527 0.957716 2.55827
1.44267 1.00601 2.58403
2.72195 0.887604 2.82048
0.975104 0.387117 2.90431
-1.27445 -0.356132 3.1706
0.0843583 1.14884 2.27794
0.6515 -1.1835 3.31997
-0.760182 -0.251651 3.03527
-0.688678 0.687041 1.96447
0.58422 0.497989 2.93953
0.610469 -0.220793 2.94561
-0.611208 0.759243 1.86665
1.39563 0.485982 3.05037
-0.938001 -1.08457 3.51164
0.420064 1.32882 2.89683
-1.29305 -0.181898 3.12582
0.014165 -0.109054 0.6899
0.862695 -0.979985 3.22676
0.720505 0.551942 2.91853
-0.571296 -0.138656 3.07904
-0.409925 0.895206 1.91591
-1.07239 -0.982802 3.4637
0.753934 0.532526 2.94036
-0.958801 0.408416 2.94952
0.161036 1.5106 2.75288
0.208862 -1.30284 3.58045
0.354789 1.1097 2.90607
-0.195675 -0.375985 3.10749
0.759158 0.350534 2.91921
-0.627002 -1.16693 3.36451
-0.0763404 0.916668 2.37899
1.13102 -0.325059 2.90429
0.136758 1.27562 2.32274
-0.962377 -1.12543 3.36832
-1.22517 -0.302613 3.1612
-0.225425 -1.10751 3.39546
-0.0379282 0.450133 2.96276
-0.290218 -0.0220302 1.49888
-0.398413 0.771284 1.92177
-0.210214 0.965306 2.89316
0.485729 -0.543574 3.16999
0.287809 -1.55534 3.74702
-0.15049 0.26744 2.96153
0.0454907 0.539182 1.34517
1.50936 -0.463584 2.83883
0.329585 0.966914 3.01965
0.991672 -1.5359 3.76872
-0.801109 0.231671 2.98481
0.805595 -0.446437 3.05238
0.00894515 0.572697 1.30083
-0.360596 0.740499 2.01194
2.30089 0.127041 2.96404
0.968571 -1.40953 3.55328
0.140815 0.316036 2.89638
1.16694 -0.391526 2.87429
0.928574 0.967126 2.8144
0.384545 -1.32384 3.48368
1.81263 0.27603 2.7715
2.06649 0.600486 2.65346
2.01472 0.3668 2.75579
1.5197 0.144727 2.86498
1.08709 -1.76309 3.79943
1.40178 0.783638 2.64922
-0.0106117 -0.669303 3.23868
1.05465 -1.58009 3.56866
0.624579 0.103855 2.89281
-1.27778 -0.64144 3.31891
0.037122 0.844748 3.02748
0.406415 -1.51245 3.53372
1.6616 0.6156 2.6424
-1.40148 -0.603882 3.3053
-0.879256 0.196622 3.03982
-0.293716 1.40985 2.92508
-0.54747 0.671654 2.15701
0.422187 -1.60848 3.61667
0.567894 0.173177 2.87875
2.10041 0.290777 2.75107
1.22102 0.84085 2.74336
-1.13676 -0.646782 3.28527
1.59201 0.128509 2.73827
1.26291 -1.66972 3.49696
1.1973 -1.58657 3.64689
1.24906 -0.566971 3.03763
-0.250175 0.858224 3.00651
0.347658 -1.48599 3.57101
-0.404846 0.982995 2.96066
1.69794 -0.501659 2.81355
1.49824 0.1986 2.78338
-0.286993 -1.41166 3.53474
2.26263 0.24428 2.75094
-0.691174 0.664553 2.0312
-0.369394 0.755823 3.02011
0.133501 -0.795803 3.24699
2.40487 -1.53902 4.44332
-0.89133 0.0443609 3.07497
0.847687 0.699606 2.88656
-0.23691 -0.776447 3.3446
-0.983246 -1.10319 3.40953
1.12374 -0.00499373 2.81515
0.536812 -0.716109 3.24923
0.0871722 0.839274 3.04251
1.47479 0.099252 2.9389
-0.899855 0.775997 2.67336
-0.46481 0.805687 3.07208
1.5489 -0.609891 2.87347
1.79607 0.071234 2.8296
0.0319647 -1.65139 3.61087
1.93527 -0.047461 2.64252
-0.223574 -0.943747 3.426
-0.164915 0.910843 1.95835
-0.0238362 -0.105039 3.00309
-0.00891873 0.827615 3.736
0.250291 0.600116 2.94265
-0.340998 -0.885107 3.38569
1.4152 -0.0650578 2.83966
0.377211 -0.837512 3.31321
1.76801 1.04687 2.55561
-0.911227 -0.0279815 3.1016
1.80052 0.892385 2.53769
0.819254 0.661228 2.90891
1.18009 -0.245844 2.87214
-0.732385 0.687928 1.97572
-0.442307 -1.17822 3.58525
1.47954 0.47393 2.77238
-0.688166 0.757374 1.8391
0.40808 -0.217463 3.0533
-1.03732 -1.02005 3.26772
-0.592327 0.486681 2.99597
-0.703126 0.600605 3.18867
-0.660964 -0.187348 3.07562
-0.873048 0.225118 3.04006
1.44771 1.15463 2.59903
0.50261 -1.02142 3.37699
0.253879 -1.01648 3.51478
-0.467409 0.83472 1.89963
0.839138 -0.147422 2.94239
0.776297 0.522139 2.94079
0.307261 -1.69699 3.59775
0.764039 -1.63589 3.74938
0.099935 -0.0636037 2.96796
-1.2583 -0.839177 3.17731
0.958871 0.658109 2.90356
1.47897 -0.752655 2.89805
-0.986417 0.235092 2.99431
-0.946124 -0.0285783 3.08275
1.69297 0.577801 2.67202
-1.07126 0.04377 3.01083
-0.488793 0.714141 1.98687
-0.943131 -0.790824 3.35021
0.203732 0.778291 3.07908
0.518921 0.00840215 2.96392
-1.4064 -0.757761 3.2587
-0.0979728 0.950685 2.03509
0.301388 0.742806 3.03666
0.0113534 1.22462 2.80178
-0.0463883 0.537778 2.99954
0.872576 -0.187554 2.98423
-1.49506 -0.99237 3.26894
1.72522 0.758463 2.58501
1.05714 -0.147024 2.85397
-0.205574 -0.969151 3.37412
0.370204 0.597181 3.00319
-0.114471 -0.118209 3.07307
1.72604 0.511203 2.65194
0.389641 1.23774 2.90532
0.392425 -0.911254 3.27428
0.221114 0.428469 2.91428
0.37329 -1.28411 3.59133
-0.163548 -0.356552 3.1101
1.36446 1.03385 2.61016
-0.677483 -0.101577 2.15955
-0.890572 0.403001 2.94838
-0.489581 -1.22251 3.55899
0.57961 1.39537 2.86074
1.35117 1.00572 2.60142
-0.0464207 -0.306244 3.08831
0.327296 1.48954 2.70041
-0.855197 -1.07911 3.34765
1.04606 0.485683 2.90995
0.592979 -0.274888 2.98771
-0.308641 0.798527 1.88363
-0.216372 1.12965 2.95412
-0.476499 0.484757 3.01492
-1.18067 -1.01658 3.30085
-0.843906 -0.236517 3.12837
0.40398 1.15051 2.85491
-0.798872 0.691624 1.95947
-2.09127 -0.767686 4.60077
1.12445 0.269351 2.81062
0.0827789 0.76343 1.54832
-1.14981 -0.469419 3.13971
-0.533933 0.695571 2.04281
-0.0142792 -1.44209 3.69726
1.0804 0.246774 2.88356
-0.254787 -1.21992 3.51504
-0.697569 -0.435288 3.23015
0.42892 1.05681 2.86306
2.43446 0.834369 2.8975
1.05632 -1.31066 3.3887
-1.33036 0.3759 3.00307
1.67712 -0.367645 2.7666
1.47741 0.932538 2.5934
-1.53469 -1.23503 3.33275
2.30202 1.02914 2.98031
0.795253 0.304931 2.92386
1.09107 -0.979582 3.31012
0.964416 0.585622 2.90723
-0.164477 -0.140436 3.05933
0.154721 -0.938805 3.33691
-0.502652 0.575361 3.04349
-0.855299 -0.108258 3.07884
0.590912 1.28452 2.86397
-0.918793 0.775648 2.79802
0.237969 0.668795 3.13082
0.870672 -0.0873688 2.93502
-0.483368 0.806728 2.42395
-1.21793 -0.872987 3.3448
0.640109 1.35839 2.85746
1.32269 -0.283002 2.81436
0.503781 1.15527 2.88258
0.25823 -1.23028 3.57778
0.729899 0.469497 2.91961
0.808156 -0.264206 2.98647
-0.314733 0.784313 1.94953
-0.327946 0.440933 2.98592
-1.46691 -1.05409 3.19644
0.377501 -1.07664 3.41359
1.25966 0.503335 2.81286
1.79334 -0.214387 2.76296
-0.568366 0.853002 1.88067
0.139544 1.41607 2.66845
-1.42098 -0.965616 3.21573
-0.913704 0.512405 2.96231
-0.498611 -0.177429 3.05888
-0.413423 0.899507 2.65593
-0.676912 -0.101997 2.15947
-1.27258 -1.25058 3.31785
-0.96134 0.0383446 3.09987
-0.831308 -0.430303 3.19376
-0.789813 -1.25765 3.46655
0.695219 0.309511 2.90545
0.23783 1.38193 2.79824
-0.400807 0.731203 1.99746
0.137579 1.1025 2.90215
1.82717 -0.362106 2.84799
2.51539 -0.942174 3.15643
0.700196 0.38552 2.90583
1.54376 0.943774 2.47698
-1.06224 -0.358512 3.23832
1.14881 0.340927 2.8663
1.66514 -1.12756 3.11728
0.460669 -0.587393 3.16957
0.893761 0.918065 2.88323
2.18929 0.345361 2.62241
-0.181056 -1.46342 3.37539
-0.410946 0.22404 3.03971
0.44246 -0.542786 3.15863
0.226282 0.895258 2.97822
-0.0960856 0.461409 1.42334
1.33457 -1.50851 3.57809
0.586076 0.173749 2.86589
-0.515998 -1.46085 3.65783
0.315201 0.286364 2.91332
2.15312 0.265378 2.64451
1.54442 0.905618 2.60096
-0.504044 -0.493984 3.12877
-0.804516 -1.32339 3.43592
0.944361 0.256914 2.89143
0.358588 -0.460023 3.08568
0.428572 0.998835 2.97229
2.30874 0.544626 2.68843
1.04345 -1.31397 3.50032
-0.492847 0.396433 2.9826
1.36954 -0.364115 2.85747
-0.483812 0.751168 1.93168
-0.329123 -1.23863 3.49743
-0.929901 0.362805 2.94105
0.710987 1.05336 2.84505
0.182299 -0.350624 3.05931
0.116839 1.44739 2.67305
-0.710766 0.726115 1.81526
-0.955603 0.0294125 3.09134
1.40249 -1.11083 3.18186
-0.54722 -0.314043 3.0983
-0.598402 -0.978782 3.46321
-0.427962 0.438913 2.97892
0.0176394 0.973551 2.95654
0.828685 -0.526982 3.08598
-1.30299 0.281076 3.02212
-0.85835 -1.44419 3.52778
1.89904 0.417632 2.64712
-0.79945 -0.485229 3.07896
0.123171 0.971821 3.03401
2.67567 -2.00378 3.66098
-1.2536 -1.33489 3.37454
-1.20164 0.232711 2.97583
-0.721566 -0.479021 3.23789
1.73349 0.291081 2.75956
-1.22386 -1.29099 3.36285
-0.617105 0.695417 1.95001
1.96334 0.0647436 3.01678
-0.578082 -1.29314 3.43615
-1.03526 0.305048 3.00146
-0.27901 0.749125 2.11718
1.94639 0.493153 2.6396
0.967638 -0.411038 3.01294
1.24262 -1.657 3.56793
1.31447 0.131427 2.79703
-0.136139 -0.674171 3.2627
-0.690388 -1.55283 3.25848
0.594313 0.857388 2.94116
0.793725 0.101977 2.91132
-0.929195 -1.50556 3.40404
1.07794 -0.602996 3.03676
0.362417 0.833241 3.00682
2.02935 0.473667 2.61956
-0.634492 1.13515 2.85884
1.50396 0.79567 2.58911
-0.623248 0.180172 3.00429
-0.316993 1.41548 2.94107
-1.39685 -0.591242 3.20202
-2.30699 -2.44226 5.48962
0.608697 -0.0327079 2.93183
-0.343447 0.768345 3.18483
-1.03915 0.11226 3.04586
-1.34986 -0.809769 3.19532
-0.732671 0.00688445 3.04798
2.14383 1.00579 3.04584
-1.00256 0.681248 2.9059
0.521559 -0.791906 3.23475
0.373642 0.0773666 2.92946
0.239726 -0.754862 3.27711
0.705641 0.780314 2.93563
0.0454329 1.32001 2.85232
1.21622 0.0209042 2.79629
0.870863 0.741801 2.90939
0.838896 -0.690889 3.15396
-0.233683 1.00447 2.74478
-0.320728 0.738239 2.99052
0.0980583 -0.801087 3.28064
0.356 0.028159 2.95973
-0.279432 0.568599 1.83388
0.411781 0.725509 3.03965
-1.11805 -1.03136 3.33893
1.03951 -0.731768 3.09529
1.69501 -0.0118693 3.10998
-0.0559221 -0.710143 3.27298
1.02841 0.0861875 2.84099
0.165385 0.824757 3.02321
1.37875 0.194669 2.01439
1.55541 0.694801 2.61812
-0.844097 -1.59814 3.44969
1.86547 -0.282951 2.72415
0.893874 0.0589909 2.9036
-0.99668 -0.685964 3.31314
1.48524 0.566802 2.6583
0.712802 -0.92847 3.27931
0.625636 -0.115146 2.97713
0.561915 -1.7719 3.73603
-0.940773 -0.886402 3.36133
1.40525 0.540418 2.69543
-0.599106 -0.0790184 3.0634
1.76975 -1.05583 2.99638
1.20424 1.24161 2.72863
0.0997453 0.676949 3.00195
1.28726 -0.0465783 2.80785
-0.97316 -1.35311 3.41087
0.570895 -0.857247 3.32839
-0.037329 -0.256455 3.05864
-0.56364 0.777648 1.84839
0.685106 -1.13796 3.42286
-0.819362 0.521573 3.05848
-0.668672 -0.238098 3.10561
0.30993 1.16905 2.92311
0.653363 0.459174 2.90811
1.2491 -1.03008 3.2044
-0.914603 0.624577 3.23344
-0.186632 -0.193065 3.05091
1.27913 1.20423 2.69268
-0.855185 -1.0302 3.42976
-0.0142969 -0.0959905 0.798338
0.460483 -1.00354 3.42152
0.930185 0.522043 2.88357
1.45795 -0.14862 2.78068
0.000739425 1.23032 2.72951
-0.178555 1.14972 2.96055
-1.16069 -1.1756 3.26927
-1.00723 0.395383 2.91775
-1.3304 -0.39815 3.1872
0.061055 1.10784 2.9245
0.431148 -1.26659 3.53633
-1.38763 0.370538 3.00213
-1.1045 -0.216036 3.12058
-0.54373 0.734232 1.95064
0.300124 -0.361145 3.078
0.909784 1.08336 2.76122
0.0716967 0.615939 1.32756
0.906188 0.423718 2.92184
-1.35598 -0.326762 3.16853
0.0337631 1.13528 2.41431
-0.0412679 -1.19382 3.46966
1.3497 -0.220112 2.81513
-0.483744 0.824693 1.89043
1.15628 -1.07063 3.32657
-0.330347 0.538878 3.04157
-0.0238223 -0.192743 3.05694
0.745287 1.16599 2.80979
1.14993 1.24295 2.72779
0.821024 -1.00705 3.25567
1.26817 0.467085 2.8251
0.650056 -0.151558 2.97904
0.343986 1.40323 2.84484
1.75892 -0.898849 3.02171
-0.0440549 0.660722 3.21301
-0.445574 -0.106363 3.03236
0.496681 1.29919 2.87457
-1.4067 -0.903221 3.23041
1.4837 0.510378 2.69529
-1.50475 -1.18762 3.29819
-0.80847 0.438791 3.01068
-0.0740264 -0.0340229 1.01377
1.05899 -0.344166 2.92785
-0.472112 0.747648 1.89724
0.00646501 -1.18531 3.4361
1.61339 0.345508 2.67757
0.657306 1.09271 2.89805
0.200961 -0.319622 3.06309
0.0664792 1.39647 2.49519
0.410785 -1.18103 3.55691
1.05085 -0.260206 2.88766
-0.503191 0.461821 2.96137
0.10044 1.31632 2.64882
0.137785 1.14151 2.87751
0.385262 1.01937 2.98087
0.262546 -0.501168 3.12256
1.34256 0.258125 2.79486
1.01289 -1.41907 3.46819
-1.12169 -0.616011 3.31003
0.0149559 0.610138 1.52841
1.30787 -0.443216 2.88416
1.01786 0.932609 2.78344
1.07592 -1.3827 3.48322
0.121087 0.252675 2.9105
-1.18319 -0.438917 3.20612
0.871493 0.338656 2.91913
0.539195 -1.3733 3.58273
0.0129547 1.0664 2.91153
2.09501 0.451336 2.63018
-0.996521 -1.26538 3.48144
0.712486 1.00743 2.85065
2.18173 -0.116052 3.19111
1.61887 -0.361164 2.76281
-1.37809 0.325444 2.95922
1.72243 0.163525 2.74575
-1.27042 -1.42184 3.16121
1.4715 0.786262 2.60278
0.077537 -0.636669 3.19872
-0.486912 -1.49098 3.47915
-1.17535 0.145745 2.95695
1.69135 -0.538878 2.79322
2.14915 0.200142 2.88264
0.156428 0.858565 2.98924
1.25045 -1.58944 3.74759
0.702676 -1.46406 3.57432
-0.0868598 0.944695 3.02238
-0.0250539 -0.553234 3.16542
1.73175 0.202174 2.74677
2.10397 0.336225 2.64591
1.4831 0.426343 2.70339
0.329327 1.34267 2.89403
1.00634 -0.308998 2.92988
-0.638768 0.757717 1.86741
1.53343 -1.1477 3.25806
0.224943 -1.1485 3.50416
-0.20215 0.785191 1.96111
0.917623 -0.263138 2.98168
-1.03093 0.454822 3.04756
-0.256894 -1.05919 3.35604
-0.883192 0.563884 3.08191
1.38577 -0.219129 2.82786
0.0974073 1.36034 2.62329
-0.567785 0.835244 1.87882
-0.53607 0.501979 2.99471
-0.0837154 -0.0325549 1.02671
-0.489941 -1.08907 3.56818
1.07695 1.13435 2.69648
1.75489 -0.204232 2.81026
-0.354539 -1.31898 3.49879
0.254953 1.05814 2.97299
1.4325 -0.395293 2.84302
0.070856 0.610833 1.40337
-0.202566 0.321273 2.98529
0.196786 1.48422 2.64501
1.23266 1.05099 2.7373
0.0423404 -0.377675 3.10147
1.47138 0.386502 2.92437
0.255998 -1.30891 3.54705
1.40732 0.979301 2.62125
1.24909 -0.342269 2.85545
0.057259 0.933164 1.87593
-0.986813 0.36266 2.96189
-0.866822 -1.1946 3.40977
-0.9402 -0.577934 3.15033
2.07576 0.4231 2.63677
-0.0893841 0.215653 2.95688
-1.00141 -1.42265 3.30924
1.26967 0.873509 2.7433
-0.309868 0.910931 3.04921
1.0125 -1.58471 3.746
2.44059 1.08278 2.91808
1.7309 0.15748 2.74808
0.34563 -0.539653 3.137
-0.601513 -1.63086 3.42236
-0.149596 0.290827 2.96203
0.929974 -1.57313 3.81929
2.43923 1.10903 2.8632
1.04194 -0.47183 2.93188
-0.0737848 1.02197 2.99495
2.32817 0.619669 2.75649
0.542434 -1.48205 3.74211
-0.315414 0.263626 2.9857
-0.205461 -0.466733 3.15988
-0.728359 0.676287 1.98476
-0.0104747 0.784273 2.97619
-0.682681 0.0711289 3.02774
-0.989544 -0.576736 3.2997
-0.685969 -0.739235 3.3889
-0.112716 1.35311 2.90413
-0.822781 0.668905 2.25702
0.455162 -0.65628 3.14863
-0.552505 0.136886 2.98151
0.393667 -1.64034 3.56239
-0.903344 -0.664241 3.409
1.33115 0.754344 2.69565
-0.508302 -1.55867 3.50559
0.477356 0.0992767 2.89766
1.21473 0.912427 2.74653
-1.34141 -0.561384 3.2301
2.18857 0.964096 3.04347
1.93388 -0.486104 2.78773
-1.75037 -1.50448 3.52941
1.47935 0.248112 2.85542
0.486423 -0.514934 3.14572
-0.413754 0.684936 2.10552
0.0875241 0.695948 1.45821
-2.22352 -1.91726 4.62604
-1.12509 0.233411 3.05333
-0.836245 0.320761 2.96648
-0.998941 -1.37561 3.46272
0.372924 1.06291 2.97292
2.32476 0.964036 2.93273
1.5891 -0.440615 2.87352
-0.755642 -1.31873 3.50478
-1.32937 0.309546 3.01652
-0.707714 0.69414 1.97161
-0.0244925 -0.434604 3.16759
2.1022 0.356075 2.62912
0.876392 -1.69812 3.68166
1.25291 -0.635565 2.99005
0.780067 -1.68594 3.65045
-1.37872 0.118659 3.08407
-0.566742 0.821726 2.95681
2.21513 0.273475 2.63975
1.28314 1.02835 2.7134
1.3063 -0.579577 2.8589
-0.665245 0.643281 2.07408
1.18228 -1.7197 3.78445
-0.198536 0.189103 2.98443
0.504239 -0.598349 3.21282
1.07267 0.820394 2.81415
1.67653 0.123513 2.77577
-0.0800245 -1.56893 3.63691
-0.0585294 0.704023 2.96854
1.16343 -0.039753 2.82374
0.0867054 1.28038 2.76926
-0.550112 0.00358741 3.04276
1.40471 -0.758233 2.93016
-0.915681 0.674446 2.93904
2.26489 0.937399 3.2062
0.883267 -0.777306 3.15643
1.43908 0.0555666 2.87956
-0.54747 -0.769532 3.30272
-0.318577 0.793692 3.02804
0.796373 -1.54143 3.73262
-0.935249 0.041765 3.06704
-1.10954 0.229129 3.0297
-1.00851 0.775297 2.99947
0.0491493 -0.712081 3.24214
-0.0954543 -0.96948 3.37182
0.314537 -1.72296 3.62573
-0.184936 -0.146704 3.03742
0.0701305 1.2372 2.78096
0.963071 0.550522 2.8922
0.261447 1.31325 2.9055
1.82176 0.885538 2.54455
-1.16353 -0.109106 3.12657
-0.503286 0.64551 3.0588
1.49813 -0.819158 2.84357
-0.271721 -0.074939 3.04478
1.649 -0.801432 2.90401
1.21268 0.556258 2.80172
-1.25618 -0.910625 3.26698
-1.30577 -0.114594 3.10074
1.78901 0.515796 2.65449
0.20765 0.58208 2.9329
-0.650363 0.703271 2.20442
0.594346 -0.0732 2.94676
0.514522 1.27599 2.88072
-0.601369 0.682116 3.06401
0.269283 -0.900895 3.31913
-1.26544 -0.0421404 3.08051
1.04057 -0.849515 3.27765
0.605054 0.626191 2.98597
-1.28927 -0.287711 3.19929
-0.745702 0.752392 1.79274
-0.720501 -1.11883 3.42454
-0.284617 0.491125 2.98135
-0.203244 -0.231076 3.08528
0.435606 1.15548 2.89451
-3.40985 1.10839 7.05097
0.596622 -1.09071 3.38845
-0.774323 -1.05643 3.48412
0.99799 0.544024 2.9014
0.667276 -0.196998 2.96154
-0.854701 0.227351 3.03533
-0.32226 0.800773 2.09879
0.0644917 0.531416 2.96447
1.14694 -0.981286 3.29276
0.521402 1.36807 2.87876
-0.30506 0.898205 1.93697
-0.750008 -0.153746 3.07285
0.860029 -1.36524 3.67892
-0.985182 -0.392723 3.15349
-0.272806 -1.1278 3.49254
-0.0622285 0.355437 2.96754
0.0471884 1.35724 2.64194
-0.762932 0.706307 1.89747
1.75671 -0.350124 2.73584
1.61288 1.00729 2.53237
2.50311 0.700273 2.7952
1.55482 0.366956 2.51135
-1.06231 -1.09054 3.10158
-0.671716 0.733013 1.92055
0.412556 -0.318918 3.08009
-0.252638 0.37709 2.93405
0.495971 -1.28162 3.69162
0.152318 -0.554677 3.15352
2.34177 -0.158842 3.02381
-0.230656 0.249638 2.97737
-0.736645 -1.45796 3.52486
1.67921 0.853867 2.54614
1.3752 0.84321 2.64732
-0.92822 -1.39539 3.48539
0.288297 1.37765 2.90095
-0.0424973 0.219393 2.94039
0.88425 -0.506806 3.04172
-0.685478 -1.35064 3.46463
-0.794763 0.32562 3.00606
1.1358 -0.43575 2.88698
0.683034 1.01345 2.86272
2.28079 0.630687 2.7609
-0.135799 -1.35433 3.56767
0.0960261 0.275151 2.89743
2.38332 0.898159 2.93454
-0.734726 -0.435101 3.14439
0.620419 0.994937 2.89121
-1.3923 -1.14101 3.16723
0.0652915 0.422022 2.92084
1.16086 -0.352852 2.87725
-0.784899 0.730852 1.8483
0.592227 -1.23175 3.52496
0.273741 0.368497 2.89143
-1.06981 -0.130854 2.95957
-0.827717 0.716452 1.85854
1.0835 -0.313641 2.87812
0.196534 1.17292 2.94093
0.0795434 1.31176 2.44144
1.35317 0.431527 2.80092
-0.461285 -0.292788 3.08225
-0.996196 -0.0125981 3.10599
-0.652718 -1.11454 3.39485
0.39042 -1.42895 3.55342
1.3342 -0.472801 2.84638
-0.491105 0.701573 2.02319
1.2236 0.276367 2.85444
0.541917 -1.50502 3.67145
-1.38019 -0.494313 3.24437
0.632003 0.971185 2.91883
0.0596662 0.941967 1.95725
-0.952135 -1.38858 3.56705
0.664524 0.234889 2.91334
-0.608403 0.344374 2.96683
1.39532 -1.31832 3.36059
0.0536352 1.06196 2.91326
2.3384 0.24636 2.74557
-0.637583 -0.449412 3.16713
0.631696 0.293168 2.90817
0.439189 -1.29894 3.49362
-0.79603 0.684459 1.88429
0.571227 -0.392059 3.04843
1.09086 -1.67683 3.62494
-0.0694101 -1.58 3.53295
-0.521527 0.170145 2.98203
-1.44068 -0.614741 3.04716
0.782207 0.867444 2.86617
0.863162 0.122322 2.89924
-0.80886 -1.44977 3.35503
0.374582 -1.74562 3.63813
-0.544265 -0.573882 3.10874
0.353765 0.859929 2.97932
2.01199 -0.79067 3.26638
0.656704 -1.61708 3.62541
-0.45206 0.678813 2.10565
1.31363 0.197281 2.79703
1.8182 0.314938 2.81823
1.26732 -0.528349 2.92721
0.78132 -1.71833 4.0414
1.32694 0.680379 2.72356
2.23621 -0.188978 3.58822
-0.273106 0.0299678 3.01471
0.410295 -0.812941 3.31463
-0.245645 0.73285 3.09587
-0.0769311 1.09315 2.9582
0.715148 -0.0109427 2.9328
-0.796976 -0.798116 3.44644
0.911716 0.0976952 2.89167
1.67685 -0.768059 2.55868
1.04075 -0.675798 3.0433
-0.10133 0.831629 3.05794
-0.24793 0.0640335 3.0359
-0.807357 -1.60305 3.44705
1.84807 -0.50896 2.74622
1.64299 0.698164 2.66214
-0.91893 -0.694815 3.31253
-0.196368 0.768722 2.10857
-0.558798 0.321472 3.02294
-0.935795 0.0182341 3.08657
0.471942 -0.42401 3.05854
0.102176 1.24749 2.43893
-1.05064 -1.25213 3.29652
0.978769 -0.378318 2.9925
-0.346634 0.766223 1.98102
1.33781 -1.22816 3.26647
0.591249 0.37713 2.93616
0.709816 -0.359755 3.02581
1.44445 0.975505 2.63061
1.48739 -1.22537 3.35849
0.514535 0.33372 2.85762
2.50831 0.310539 2.64993
0.78843 -1.71313 3.91551
1.17654 0.204276 2.80729
2.26077 0.147898 2.97229
0.168548 -0.593041 3.17864
-0.362012 0.918267 2.7804
-0.177478 -1.50669 3.62968
0.954509 0.158113 2.84863
2.35015 -0.0868993 2.99213
1.58232 -0.49051 2.76959
1.07404 0.850295 2.82364
1.41567 -1.4119 3.38965
1.40458 0.272197 2.78683
2.17494 0.288167 2.6412
0.6603 -0.507613 3.1216
-0.33161 0.726409 2.06491
-1.45773 -1.23005 3.06677
-1.37964 0.282463 3.08954
-0.0141412 1.32403 2.89494
-0.745079 -0.478383 3.1841
0.38497 0.980298 2.97301
0.133217 0.792938 3.04516
-2.48476 -1.26761 5.22427
-0.100307 1.32773 2.89586
0.451364 0.0580549 2.91743
-0.513952 0.767913 3.03684
-0.295015 -0.717624 3.23089
-0.6734 -0.990829 3.57128
-0.160049 0.0322415 3.00269
1.06217 -0.64932 3.03975
-0.499786 0.799854 2.76914
-0.0872168 -1.69275 3.63665
1.72757 0.120455 2.74713
1.84107 -0.316216 2.72193
1.55784 -0.583214 2.85725
-0.501827 0.819167 3.00729
-0.448913 0.0974531 3.01142
0.695348 -1.74145 3.88721
0.714929 -1.58855 3.76076
0.405223 -0.877101 3.26474
-0.998346 0.78664 2.84642
-0.829224 0.704887 3.05935
-0.847046 -0.0668658 3.08248
0.0441569 -0.83923 3.28597
0.560034 0.625906 2.94653
-0.56425 -0.0382414 3.06971
1.26478 -1.78892 3.70931
-2.15819 -1.1022 4.39083
-0.283758 0.883733 2.43393
-0.30451 0.952959 2.74774
0.139479 -0.00518587 2.94465
-1.13198 0.724386 2.94486
-3.14285 -3.24878 6.92852
1.08107 0.767115 2.79482
1.46255 -0.621725 2.92334
-1.18674 0.118998 3.13699
-0.101769 -1.69848 3.5255
0.615179 -1.47264 3.57847
2.18235 0.319718 2.63301
1.23078 0.813064 2.71947
-0.179409 -0.640934 3.26437
-0.0634615 0.179429 2.95984
-0.879473 -1.52634 3.42641
1.20862 -0.575679 3.01336
1.41614 0.750521 2.6095
0.192938 -1.52896 3.52339
-0.22324 0.135959 2.99706
-0.216828 1.15673 2.95841
0.300852 -0.0348244 2.95727
-0.224613 -0.00693296 3.0464
0.0135609 1.16723 2.86773
1.43794 -0.767422 2.90763
0.139008 0.720981 3.03358
2.30895 -1.51706 4.22416
1.15651 -0.767467 3.10885
-1.16223 0.670174 2.89067
0.326148 -0.782458 3.30921
1.78332 0.0594246 2.76887
-1.00428 0.79265 2.91933
1.51874 -1.48967 3.44312
1.64143 -0.827721 2.7296
1.61119 0.0261582 2.67378
-1.33561 -0.718932 3.27628
1.71726 0.700536 2.71444
0.241721 1.25446 2.92666
-1.19936 0.534979 2.76319
1.27267 1.14238 2.67673
-1.01839 -0.158023 3.15434
0.288456 -0.998699 3.39665
1.86285 0.998359 2.54569
-0.0577467 -0.110887 3.03092
0.198129 -0.926344 3.29931
-0.711208 0.636835 2.99344
-1.20111 -0.0739962 3.10071
-1.07136 0.590061 2.90579
1.31179 -0.83646 3.04299
-0.917876 0.466833 2.96074
0.351075 1.4468 2.78662
-0.738232 -1.16403 3.41774
1.6031 -0.297401 2.73645
0.825693 1.1183 2.78805
1.47837 0.387832 2.72302
-1.04235 -1.07057 3.32585
-0.294601 -0.27695 3.06888
-0.0924804 0.832476 2.11994
-0.141712 1.17389 2.84552
-0.00996544 -1.07331 3.3942
-1.09348 0.532945 2.93606
-0.50254 -0.243061 3.07537
-0.458283 0.873202 1.89729
-1.15525 -0.248218 2.96859
0.189774 -1.09838 3.61821
-1.71161 0.622165 3.63977
-1.04449 -0.197159 3.11275
-0.136412 0.84262 2.00492
0.395095 0.479241 2.92442
1.26287 -0.269943 2.86133
-0.156334 0.839289 1.99258
-1.11054 -1.09282 3.32988
-1.31312 -1.03599 3.25759
0.74792 1.11955 2.80792
1.55605 -0.239306 2.8517
-1.10344 0.460743 2.92463
0.804679 -1.06313 3.4178
-0.954982 0.557577 2.95485
-1.35381 -0.207174 3.08635
-0.607946 0.841751 1.87088
0.356026 -0.0667735 0.179623
1.37229 0.49427 2.80321
0.627801 1.46899 2.86333
1.18328 -0.954849 3.22269
-0.879857 -0.169688 3.1095
0.938606 1.01734 2.79033
0.132179 1.33031 2.88447
1.04934 0.337065 2.87425
-0.0172135 1.07931 2.36594
-1.06383 -0.405686 3.16621
0.624022 -1.29816 3.48283
1.96253 0.508662 2.64209
-1.35572 -0.38201 3.17953
0.306458 1.16469 2.98108
-1.37073 -1.16416 3.25189
1.78118 0.397736 2.79301
-0.267649 0.775308 2.01052
0.509575 -0.323099 3.03711
2.64931 0.641449 2.72403
0.391584 -1.23163 3.52548
1.49037 0.341662 2.7411
-0.00771569 -1.51845 3.64619
-0.785492 0.254244 3.03849
2.15162 -1.09093 3.52367
1.51017 -0.493911 2.73058
-0.694507 0.66973 2.04262
0.7904 -1.71231 4.13595
-0.756849 0.21599 2.96057
1.31578 -1.7209 3.72193
0.763787 -0.51375 3.07093
-0.769362 0.64648 2.0337
-0.323944 0.313755 2.97692
1.40923 -1.67936 3.55657
1.40594 -1.51581 3.73302
2.05911 0.272427 2.76752
0.920568 -0.460596 3.03282
-0.00824857 1.02912 2.92385
0.438014 -1.40232 3.6275
0.835721 0.271713 2.87502
1.8782 0.675516 2.64674
-1.03086 -0.438148 3.17508
1.66535 0.873305 2.5619
1.63741 0.737251 2.67028
1.00782 -1.5873 3.62427
0.0500366 0.105468 2.98394
-1.4031 -0.674426 3.15296
0.492286 0.628585 2.94264
0.572007 0.881421 2.93798
0.14266 -0.64175 3.21425
0.636244 0.158661 2.87125
-1.04761 -1.5518 3.44299
1.26073 -2.00937 4.11732
0.983683 -0.581627 3.04247
0.729748 0.829331 2.89864
0.472638 -1.63187 3.7601
-0.737838 0.134516 3.01118
-0.278682 0.971916 2.38086
0.295307 -0.524237 3.11382
-0.0767301 0.481252 1.47176
0.173891 0.269828 2.90846
-0.186052 -1.4502 3.58013
0.882396 0.968082 2.8523
-1.34522 -0.497317 3.22934
-0.195838 0.969471 2.9812
2.66214 0.871705 2.8345
0.106153 -1.39174 3.48798
-1.38794 0.255317 3.01369
-0.516119 0.347999 3.01966
-0.328476 -1.34882 3.5488
-1.43299 -0.458204 3.19718
-0.342576 0.746526 2.00972
2.08496 0.49554 2.60383
-0.457155 -1.31141 3.56059
0.335032 0.296079 2.89176
2.00362 -0.458496 2.78128
-0.502645 -0.415134 3.26341
1.29181 0.966492 2.73394
-0.280476 -1.63233 3.63736
1.43978 -0.582832 2.84596
-0.883589 -0.322698 3.15478
0.944852 0.130141 2.87972
-0.369438 0.874655 3.06086
1.99949 0.303736 2.77776
-0.692726 0.958431 2.94597
0.632302 -0.597078 3.1552
0.965429 0.897903 2.85265
0.0331465 -1.53156 3.54493
1.64602 0.185764 2.69758
-0.96476 -0.564779 3.15285
-0.798739 0.638245 2.10681
-0.290676 -1.48155 3.55485
-0.305766 0.166245 2.97549
1.18591 0.0104052 2.77838
1.5225 -1.00101 3.28664
1.25211 -0.758949 3.00054
-0.22684 0.761747 3.06081
-1.19387 -0.768047 3.28022
-0.026307 0.72272 3.0545
-0.276481 1.04846 2.86695
0.16643 -0.0149241 2.94499
-0.75946 0.100818 3.0511
-0.723058 0.822406 2.95751
0.996924 -1.74023 3.67792
-0.448235 -0.739408 3.27906
1.62329 0.601115 2.54735
-1.19012 0.0685395 2.97234
0.496729 -0.687536 3.21266
0.402905 0.787925 2.99503
1.29603 -0.880982 3.05468
0.994225 0.57086 2.92627
-0.546798 -1.61757 3.44876
-0.462809 0.717303 1.93727
1.4214 -0.128831 2.75007
1.90258 0.433565 2.64691
1.1773 -0.0861401 2.75827
0.845391 0.646848 2.90369
0.976863 -0.910916 3.31877
-0.0310149 -0.0516029 3.01604
-0.669666 0.620994 2.99429
0.427341 1.28982 2.87304
1.74223 -0.735056 2.76298
0.261934 0.209232 2.95207
1.03754 -1.56322 3.57243
1.76449 -0.438592 2.74481
0.617125 0.923973 2.93725
-1.39357 -0.632391 3.33365
-1.20995 -1.41337 3.36826
-0.408308 -1.59065 3.42856
1.4068 0.1572 2.83455
-0.136371 -0.554979 3.14799
-0.4542 0.876377 2.90144
-1.08899 -1.32682 3.30135
-0.845584 -0.503112 3.19896
0.896759 -1.78335 3.64982
-0.893618 -0.510732 3.15432
0.0039113 0.24045 2.93951
2.35322 0.114717 2.96049
-0.309023 0.744246 2.19631
1.22598 0.727308 2.76046
1.40322 -0.719172 2.97987
0.801931 0.0522534 2.87551
-0.158472 0.932033 3.02687
-0.721458 -0.741352 3.30712
1.15175 0.719224 2.82965
0.647571 -1.46049 3.56133
-0.820705 0.0236861 3.09374
-1.22277 -0.714807 3.39058
1.74752 0.106372 2.74199
-1.2191 0.831896 2.82223
-0.268008 0.825247 3.02748
1.82927 -0.533561 2.79117
-1.18534 -1.561 3.4518
-0.288448 0.106931 2.96005
1.00196 -0.612231 3.02503
1.13331 -2.10464 4.8386
-0.521255 -0.959013 3.54633
-0.0137466 -0.0655339 3.00741
-0.503659 0.686352 3.09157
-0.336653 0.642586 3.09882
1.19389 -0.820504 3.11604
-1.17994 0.0101946 3.09088
1.06793 -0.0443403 2.86025
1.74759 0.986223 2.53273
-1.60794 -0.83297 3.34436
1.28774 0.658976 2.76825
-1.04972 -0.00816858 3.05202
1.85681 0.516713 2.63672
-0.369178 -0.240532 3.05763
-0.0155579 1.22639 2.64658
-1.34772 -1.00967 3.16885
0.688289 0.520647 2.94245
0.973487 1.14364 2.76294
0.028907 -0.204123 3.04699
1.01706 1.20966 2.7414
0.149787 0.480821 2.91469
-1.286 -1.05581 3.40002
-0.592925 0.620282 3.12571
1.10921 -0.153844 2.81529
0.428472 1.47279 2.83374
0.97787 -0.968709 3.25566
-0.139106 -0.94224 3.40196
0.306346 1.24953 2.90497
0.904259 -0.124275 2.91688
0.024741 0.578897 3.0342
1.86253 -0.555434 2.75565
-0.380611 -0.861272 3.36987
0.458704 -0.0208995 2.96104
-1.04965 -0.0402972 3.11146
-0.749517 0.719222 3.00594
-0.142842 -0.811716 3.31326
1.09028 0.652176 2.89421
-0.76857 0.0712666 3.08052
1.89559 0.142146 2.74216
-1.13768 -0.787706 3.34771
-0.77722 0.799162 3.00818
-0.322327 0.0228902 2.9691
-1.01899 0.783415 2.83075
0.940654 0.724071 2.87219
1.11239 -0.687516 3.01047
-0.583113 -0.204175 3.11248
-0.654658 0.793302 1.86477
-1.82991 -1.1823 3.78325
0.202011 0.547255 2.90653
0.898244 1.18883 2.77046
1.52987 -0.154306 2.80897
-0.595437 0.827256 1.87271
-0.991027 -0.974201 3.35144
0.886436 0.241923 1.36439
-1.0417 0.789633 2.85292
-0.40569 -0.118901 3.0167
-0.594362 0.626333 3.04745
0.275678 -0.961353 3.38932
-2.66445 -0.26506 5.76574
1.38669 -0.791885 2.86906
-1.21517 0.590349 2.90006
0.140528 0.442719 2.92663
1.48448 -1.15714 3.2452
-0.837582 -0.341472 3.1977
0.427083 1.50051 2.79811
-0.661927 0.745041 1.84559
1.40637 -1.15507 3.38454
-0.0901631 0.421117 2.95874
0.806682 1.096 2.81832
-1.07366 -0.285375 3.14982
-1.25228 -0.337797 3.18168
-0.529935 -1.15217 3.59917
1.39884 -0.22668 2.74766
1.69393 0.471504 2.85783
-1.01746 -0.271087 2.94854
0.353184 1.19606 2.91294
0.979059 0.982744 2.76411
-1.00019 -0.465031 3.09014
-0.132096 0.30978 2.97558
-0.538357 -1.35948 3.47391
0.832935 0.964096 2.83141
2.37654 0.464663 2.59385
-0.447832 -0.45262 3.25475
0.119932 1.4193 2.54877
1.11484 -1.33201 3.38298
-0.898196 0.290462 3.00438
0.369933 -0.40037 3.11011
0.677627 1.08055 2.88877
-1.145 -1.22162 3.3547
2.32773 0.00697663 2.88737
0.467487 0.363132 2.87216
-0.650034 0.719997 1.92824
0.373112 -0.370597 3.12524
0.11376 -1.27639 3.56553
1.72119 -0.145678 2.83234
1.5469 0.295808 2.67922
0.163656 1.0606 2.95104
0.974836 -0.439039 3.0034
-1.14966 0.352317 2.99076
0.69971 -1.40235 3.59939
-0.479905 0.715394 1.98404
0.00962844 1.13174 2.31639
1.49662 -0.378566 2.78344
0.507964 -1.3602 3.61746
-0.409219 0.307098 2.95609
1.86655 0.525263 2.64414
0.65361 -0.363104 2.95863
-0.361401 0.764057 1.94932
-0.0447284 0.538021 1.37143
0.0977963 -1.28608 3.56607
-1.2358 0.430225 2.99415
1.57473 0.983655 2.55912
-0.256796 -0.3314 3.12449
1.36404 -1.18982 3.33452
2.63194 0.690525 2.76086
0.191042 0.362053 2.92722
1.06598 0.226796 2.87759
-1.04141 -1.38258 3.27542
-0.0149509 0.560813 1.28744
-0.377589 0.708805 2.11913
1.50566 -0.53114 2.87487
0.618501 -1.53101 3.71455
0.63873 0.197508 2.88342
-0.573883 -0.537986 3.22806
-0.588185 0.654605 2.05026
1.2367 -1.48081 3.65206
2.03829 0.361445 2.66134
1.56824 -0.443332 2.75766
0.99559 0.260475 2.89432
2.22849 0.471431 2.60251
-0.250898 0.906655 2.58451
1.28519 -0.673004 2.8998
1.38444 0.739376 2.70697
0.561969 -1.46256 3.58664
1.71207 0.0889262 2.76223
-1.1771 0.737237 2.73776
1.35508 -0.650355 2.9799
-0.666929 0.79171 2.97624
1.64484 0.043792 2.81545
0.740143 -0.64111 3.12515
1.05298 0.152937 2.8222
1.43724 -1.66761 3.62669
-0.829811 0.632459 2.08632
0.673564 0.844118 2.95949
1.34185 -0.56863 2.89114
2.4005 -0.945066 3.83557
-0.580117 0.125416 3.01241
1.20404 -1.68546 3.83083
-0.277238 1.08585 2.45641
0.87093 -0.846387 3.22669
-1.16591 -0.0155882 3.0874
0.52081 -1.46233 3.57378
-0.0696168 -0.0516742 3.01317
1.33468 0.641194 2.70965
-0.191632 -0.794374 3.29332
1.45862 0.607048 2.73155
0.74098 -1.88569 3.97005
0.996373 -0.781605 3.23459
1.9038 0.375675 2.67774
1.58955 -1.48323 3.3964
1.6217 0.0128477 2.76267
0.0518554 0.753457 3.04767
-0.760495 0.626127 2.15697
-0.21021 -1.68183 3.60839
-1.3247 0.139514 3.08831
-0.486514 1.38187 2.96069
1.64033 -0.601836 2.84817
2.2225 0.241625 2.76081
0.212348 -1.68086 3.69916
-0.478482 0.679734 2.12436
-0.209979 -0.623663 3.19192
-1.05933 0.217397 3.02874
1.1434 -1.49493 3.36526
0.930033 -0.556567 3.01082
-1.1393 0.745894 2.45969
-1.16404 -1.40434 3.32469
-0.714647 0.16904 2.97397
1.86463 0.995941 2.54951
1.08435 -0.78207 3.10481
-0.863332 -1.264 4.49538
0.909952 0.017472 2.89428
1.48204 -0.0320639 2.79407
1.25883 0.694601 2.77729
-0.590596 -0.76045 3.218
-0.251984 1.08073 2.45388
1.14054 0.68001 2.84915
0.0240958 0.0944255 2.96574
1.56844 -1.37761 3.19725
0.797636 -0.721602 3.16917
1.10592 0.755664 2.79909
0.959968 0.052774 2.89178
-0.525982 0.78032 2.26796
0.494543 0.761859 2.92133
1.65449 -0.627582 2.82511
-0.379036 0.59277 3.05528
1.82676 1.03905 2.55017
1.35298 -0.123328 2.70035
-0.0471997 1.07 2.40805
1.36798 -0.895547 3.08678
1.87948 0.0755989 2.72029
-0.317898 0.669638 3.07452
-0.520566 -0.0919186 3.07459
1.3981 -0.83774 3.00796
1.7372 -0.0567762 2.77601
-0.0821605 -0.868568 3.33662
1.4536 0.559329 2.67306
1.02229 -1.12122 3.3074
0.567213 0.47323 2.91809
0.502607 1.24472 2.87666
0.737613 -0.277873 3.03027
0.99418 1.12837 2.74199
1.45859 0.418263 2.79754
-1.14221 -1.03321 3.30316
-0.70835 -0.242428 3.05752
0.714976 1.1394 2.85658
-1.10546 -0.088628 3.12752
-0.58753 -1.10777 3.61083
1.30871 0.512429 2.79047
-0.778959 -0.206211 3.06056
-0.159112 1.14928 2.95565
-0.144271 -0.998069 3.36301
-0.769785 0.526621 3.04543
-1.43871 -0.171181 3.088
-0.443713 0.899866 1.87767
-0.118546 0.77551 2.98791
-0.360981 0.843172 1.92765
1.29991 -0.717336 2.97272
1.09091 0.0499709 2.80628
-0.575653 0.757718 3.05287
-1.35773 -0.725996 3.21653
0.52916 -1.4647 3.57297
-0.0340574 0.0245332 2.96771
-1.41057 0.136623 3.05333
1.94812 0.712646 2.569
-0.725693 -0.687619 3.28422
-0.66917 0.857397 2.89341
-1.1116 0.112698 3.12218
-0.443625 -1.60905 3.56746
0.270646 -0.0857754 0.144047
0.646144 -0.645259 3.1879
1.49258 0.724081 2.62578
1.10499 -0.845076 3.08488
-0.179315 0.65722 2.9577
1.8626 0.1052 2.72388
0.964558 -0.0760634 2.90157
-1.28941 -0.824192 3.18784
0.77748 0.605043 2.9303
-1.47618 -1.58449 3.36436
1.47056 -0.0521192 2.83843
1.5268 0.377351 2.27681
1.79454 0.957757 2.52724
-0.861552 0.713455 2.97693
-1.00502 -0.00448218 3.07337
1.18018 -0.765319 3.06999
-1.09396 -0.249879 3.14157
-0.548552 0.819918 1.88862
0.786487 -1.08242 3.34768
1.67622 0.448065 2.59266
0.975363 -0.199164 2.92312
-0.716879 0.781934 1.86342
-0.125541 0.684598 1.64051
-0.544403 -1.06297 3.43899
-0.383474 0.489855 2.97604
-0.488524 -0.995533 3.36422
0.0962026 0.595006 3.00014
-1.46778 -0.167418 3.0931
-0.17142 1.16707 2.95566
-0.983951 -0.917942 3.30818
0.509892 0.526748 2.87839
-0.659081 -0.133558 3.04932
-0.653145 0.857668 1.86069
1.37672 -1.22212 3.31931
0.265694 1.3941 2.73614
0.33382 -0.366744 3.08861
1.28138 0.355946 2.83827
-0.158556 -0.0673481 1.14545
-0.540035 0.74827 1.9445
0.0559207 -0.32222 3.05823
-0.315016 0.790245 1.968
0.282231 1.52508 2.78358
-0.546949 0.453605 2.99012
-1.52238 -1.14864 3.26503
0.995626 1.11013 2.83529
0.129603 -0.281614 3.05113
1.81274 0.388803 2.78038
0.541315 -1.18305 3.52536
-0.241608 -0.206426 3.08365
-0.262611 0.869326 1.95665
0.449757 -1.06404 3.42862
0.376349 1.32533 2.89816
-0.858306 0.594701 3.16789
-0.283234 0.921988 1.9355
1.755 0.725498 2.58713
-0.415553 -0.168367 3.0837
0.276677 0.511447 2.92867
0.208747 -1.04387 3.54259
-0.194683 0.638672 3.09066
-0.537367 -0.13898 3.07886
-1.3227 -0.922027 3.26124
-0.465793 -0.966438 3.52483
-0.0605384 -0.0864795 3.00937
-0.116593 0.593126 3.00029
0.722118 -1.22414 3.47581
1.73151 0.420771 2.696
0.962077 -0.316232 2.90333
1.48352 1.02877 2.52998
0.482854 0.401807 2.88973
1.35908 -1.14156 3.33878
-0.156459 1.16808 2.94926
1.12604 -0.275654 2.83891
0.0986549 1.10727 2.90123
1.1848 1.11599 2.6909
2.48459 0.371275 2.60301
1.53469 0.417049 2.71302
0.984833 -0.242626 2.92904
-0.133762 -0.107644 1.03978
0.207449 -1.11248 3.45606
0.88563 -0.48045 3.05653
-0.0543767 1.04713 2.98227
1.53643 0.276969 2.71831
-1.07499 -1.30943 3.3488
2.50959 0.0302607 2.93438
0.246624 1.52808 2.72692
-0.943303 -0.465088 3.26921
-0.0483221 1.00678 2.9524
-1.44797 -1.19888 3.08482
1.72103 0.252223 2.6809
-1.12941 -0.421153 3.25361
0.0837657 0.361501 2.91358
1.52112 -1.31117 3.42098
0.278708 1.11619 2.97975
-0.00549808 0.530909 1.21694
1.61555 -1.18823 3.20487
-1.48035 -0.385226 3.21888
-0.758138 0.70642 1.89606
0.0289735 0.582558 1.46442
0.187345 0.334626 2.91676
0.576607 -1.56641 3.60522
-1.2695 0.222942 3.02592
-1.4303 -0.605547 3.1667
1.56948 0.811522 2.58887
0.506051 -1.57745 3.75221
-1.1059 0.171329 2.92567
2.43949 0.653367 2.78886
1.50501 -0.556881 3.05396
1.39665 0.800702 2.69615
-0.49019 1.44518 2.95956
0.976126 0.927878 2.84656
0.596356 0.22933 2.88878
0.0613859 -0.525272 3.17047
2.15119 -0.707972 3.22991
-1.35806 -1.32646 3.25689
0.62847 0.227935 2.90849
-1.18207 -1.36405 3.22739
0.189738 0.954601 2.99448
0.677854 -0.57174 3.11736
-0.413194 -1.46965 3.59166
-0.819319 0.206449 2.97234
-1.27442 -0.541749 3.25634
-0.259924 0.930867 3.03881
0.022995 0.710353 1.80127
0.11668 0.988882 2.95945
2.49773 0.818581 2.88013
-1.03163 -1.62978 3.45937
0.438212 0.261601 2.86755
-1.06118 -0.485758 3.09076
2.26514 0.0285458 2.97285
0.321373 -1.47151 3.64832
-1.12888 0.77059 2.76615
-1.08073 -0.765955 3.33729
-0.22052 0.0912909 3.02725
0.056574 1.31679 2.88024
-0.0329171 -0.69624 3.24608
-0.412033 1.31602 2.95314
-0.0348156 0.764789 2.98838
-0.718433 0.0621333 3.04132
0.378547 -0.64368 3.15347
-0.0993503 0.170071 3.00595
-0.33942 -1.59384 3.52051
-0.177852 0.876857 3.03034
0.0872761 0.701616 3.34983
-0.743605 0.861899 2.93904
-1.03317 -1.46144 3.30643
1.40544 0.106801 2.8625
1.43829 -0.569361 2.94253
-0.298409 0.858929 1.9311
-0.838886 -0.995208 3.80012
-0.958014 0.699852 2.944
-0.139646 -0.056116 3.01518
1.51094 -0.681115 2.66972
-0.97405 0.728643 3.25019
0.314828 -0.0161959 2.9696
-0.212204 1.01318 2.76517
1.804 0.350763 2.66927
0.699544 0.729252 2.95058
-1.20406 0.0249272 3.09143
1.51559 0.406715 2.27159
1.45146 -0.714429 2.9364
0.434261 -0.203992 2.99244
-0.129502 0.942663 2.14989
0.346246 1.26105 2.91128
-0.432644 -1.09129 3.50256
-0.987684 0.55402 2.96334
1.32634 -0.163302 2.80052
-0.633037 0.807645 1.86557
1.69799 1.11181 2.56109
-1.10889 -0.967978 3.26557
