ply
format ascii 1.0
element vertex 1848
property float x
property float y
property float z
end_header
-0.341956 -1.17706 3.61147
0.318191 0.474843 2.86589
2.64079 -0.596124 3.77915
0.0849984 -0.268014 3.04894
-0.183757 0.892009 2.00249
0.312691 -1.68943 3.62292
-0.0438577 -0.0775401 0.952945
0.219346 0.451351 2.88148
-0.602775 -1.04566 3.41098
0.755973 1.24555 2.40368
1.54288 -0.219792 2.93805
0.897424 1.11027 2.75403
-0.242935 -0.138411 1.24061
-1.41417 -1.26026 3.23989
-0.225104 -0.942811 3.61987
1.39917 1.18107 2.59122
-0.404914 -0.453596 3.21217
2.47462 0.0323169 2.93966
2.58401 -1.06834 3.2027
0.943822 0.281369 2.87916
0.760312 1.25916 2.42531
0.0576109 1.14196 2.33179
1.52998 0.0542182 2.84889
1.12953 0.955247 2.76564
1.63418 0.95486 2.49931
0.870802 -0.405004 2.99744
0.0655452 0.541299 1.23229
0.792928 0.343477 2.92549
1.24821 -1.28699 3.38897
-0.478443 0.727034 1.96882
1.62435 -2.30941 4.41979
1.2898 -0.354943 2.84824
1.19619 -1.46136 3.47803
-0.0436 0.318225 2.91255
0.384463 -1.27022 3.4958
0.271498 -0.651805 3.2716
2.42179 0.567796 2.75407
1.56137 0.173253 2.81641
-0.300375 -1.66145 3.7658
1.6146 -1.88617 3.43626
-0.152899 0.608079 3.01511
1.10504 0.859494 2.79291
0.904062 0.841169 2.89743
1.08182 -1.74529 3.72611
-0.0241909 0.533643 1.29635
-0.186073 0.455496 2.97197
-0.6131 0.157769 3.02238
-0.680414 -1.44286 3.40705
1.34305 -0.554518 2.94107
1.28123 -2.35899 3.90763
1.46061 -2.05429 3.66761
0.784928 0.252617 2.86061
-0.668185 -1.40167 3.44913
-1.07185 -0.694335 3.34656
-0.323074 -1.07973 3.48133
1.69958 -0.482763 2.73787
1.13021 0.909589 2.72821
0.247324 -1.43024 3.58649
-1.19167 0.248799 3.1191
2.61606 0.917467 2.90245
1.41268 -1.04865 3.21705
0.821841 -0.489765 3.04208
1.62974 0.84007 2.56724
3.11923 -0.808094 3.25817
1.23388 0.925882 2.71394
1.09336 -0.712801 3.07506
2.43436 -1.14019 4.09352
2.61548 -0.54367 2.82642
1.18495 0.0219686 2.81506
0.56692 -1.49472 3.58752
-1.16632 0.790816 2.98415
-0.989741 -0.534003 3.20352
1.07728 -2.8162 3.56745
2.20104 -1.51157 4.15676
-0.805786 0.854851 2.96734
-1.00932 -0.75344 3.40956
0.31208 0.115856 2.91554
2.35602 -1.52765 3.27594
-1.16702 0.838398 3.01831
-0.772036 -0.67556 3.36629
0.895411 1.27459 2.78656
-1.30681 0.0965779 3.0419
-0.187508 -1.71942 3.74062
0.14201 0.573777 1.30999
0.786227 0.9192 2.89055
1.80897 -1.80054 4.15503
-0.34581 -0.588194 3.29496
2.17291 -0.364275 3.27317
0.480076 0.204026 2.84623
-0.928438 -1.46775 3.4404
-0.202672 -0.524558 3.16446
-0.922169 0.659169 2.08947
0.0988287 0.610626 1.49815
1.41772 -1.53607 3.69221
2.07636 -1.93819 4.45318
1.74926 0.177159 2.74889
2.41079 -0.907681 3.25664
-0.318952 -0.498775 3.20795
-0.681289 0.29096 3.07573
1.2564 -2.10022 3.50827
-0.750658 -1.39543 3.5068
1.58816 0.886866 2.53045
1.7615 -1.91214 3.67961
0.932859 -1.702 3.67818
0.13048 -1.35534 3.4917
-0.83302 0.27721 2.97627
0.451993 0.947748 2.90975
1.60284 -1.86474 3.45722
-1.06855 -1.65082 3.48329
-1.38332 -0.464657 3.18769
-0.782883 0.112065 3.09439
2.12943 0.522402 2.60224
0.5882 -1.44753 3.58844
0.906036 -0.680455 3.08605
1.54083 0.739319 2.62661
2.94435 -0.807783 3.14008
0.594466 0.0653222 2.86699
-0.90727 -1.53963 3.37534
1.21192 -1.5775 3.50208
0.627275 0.798758 2.98521
0.798825 -0.637488 3.1432
-0.672887 0.88342 2.95039
2.17739 1.11469 2.89259
-0.11959 0.877452 3.07783
1.21394 1.32524 2.62223
0.0990735 0.575149 2.99461
0.518274 0.129021 2.8257
0.128438 0.609203 2.96918
1.0394 -2.69058 3.59723
-0.0709124 -0.616649 3.18636
1.57926 -0.0178289 2.85057
-1.13853 -1.40165 3.20178
0.542956 0.657387 2.93214
0.011209 1.24793 2.65232
0.706461 -0.037446 2.85345
0.57764 -1.74839 3.68439
0.736391 -0.857849 3.25101
-1.30294 0.637163 2.86804
-0.373894 -1.44754 3.54141
1.9511 -0.0323651 2.98128
2.53078 0.219472 3.67073
-0.580355 0.27538 3.0329
0.1077 -0.828334 3.2893
0.82901 -2.09275 3.56845
-0.868762 0.167011 3.03747
-0.448527 -0.806124 3.36769
0.69715 0.037887 2.89411
1.91426 0.222288 2.73682
2.83851 -1.00307 3.01736
1.02287 0.721746 2.8328
-0.947581 0.280024 3.03624
0.0680084 0.0267647 2.9327
1.6147 -1.07405 2.95589
-0.115927 0.690416 2.95888
0.385259 -0.739307 3.22683
-0.457262 0.251431 3.00795
-0.750948 -0.987155 3.32768
1.22356 -1.38257 3.44199
-0.772558 -0.177366 3.08783
2.52973 -0.116833 3.08454
-0.835754 -0.96579 3.4412
1.07698 0.51469 2.88729
0.160563 1.42286 2.71302
-0.340917 0.851524 1.92855
1.78323 0.828047 2.55813
-0.893146 0.154519 3.48932
-0.496508 -0.16255 3.13055
-0.470152 0.619518 3.05631
-0.477575 -1.02375 3.44591
0.0737903 -0.108625 2.96841
0.613227 1.24875 2.87197
1.2129 -2.57481 3.49641
-0.759025 -0.992164 3.59628
-0.0162943 0.601473 3.07265
2.47135 0.829876 2.88181
0.399062 -1.64049 3.51545
-1.42506 -1.50169 3.26297
1.0613 0.134592 2.76862
2.50982 -1.43195 3.18369
0.772901 -0.631915 3.1431
1.32656 0.798485 2.69493
1.3389 -2.06546 3.48605
-0.950581 0.124554 3.0775
0.388118 -1.54867 3.58133
1.84426 -0.969655 3.2375
1.50439 -2.34758 3.81637
-0.543415 -0.631627 3.31677
-0.843541 0.669601 2.3312
1.149 -1.61413 3.72652
-0.182319 0.234489 2.96448
-1.17261 -1.14863 3.3878
-0.891375 -0.569559 3.23004
1.55763 0.842028 2.59359
2.19779 -1.0549 3.29603
2.1438 -0.138134 2.91816
1.39517 1.02566 2.79866
1.27026 -1.52491 3.64744
0.426189 0.180677 2.87853
-0.672926 0.889708 2.95045
-0.276584 -0.525692 3.1803
1.53943 0.805221 2.59404
2.23422 -1.02672 3.20953
2.69002 -0.528567 3.07984
0.685731 -1.8478 3.58322
-0.731751 0.740135 2.9933
1.07574 -2.8953 3.56135
2.69966 -1.25831 4.26993
-1.11724 0.0266377 3.06717
0.980843 -1.54704 3.53529
-1.11624 0.727734 3.03606
-0.179985 1.08846 2.8829
-0.580889 -0.77422 3.28582
2.44486 -1.0272 3.21252
1.57813 -0.689039 2.94198
-1.04018 0.78379 2.81556
0.135365 0.636786 3.01762
1.11386 0.0759078 2.81525
1.54982 -0.0207734 2.78855
2.55973 -1.14995 3.13579
-0.183767 0.768527 3.07838
0.321436 -0.70152 3.21738
1.83145 -0.497647 2.78501
1.33069 0.0281152 2.73996
1.94339 0.638939 2.60415
0.358457 -0.966206 3.37963
-1.18397 0.612833 2.91705
1.87333 0.306199 2.67731
2.4129 -0.460429 3.45444
1.51887 -0.130941 2.78416
0.561185 1.5092 2.86682
-0.357739 -0.925348 3.42472
-0.735932 0.606335 3.09671
2.58255 -0.846219 3.42999
0.174584 -0.0839063 2.9894
2.12964 0.197708 2.82228
1.33601 1.20246 2.64947
1.64804 -0.758082 2.84884
-0.889098 -0.0551198 3.12622
0.14924 -0.0698693 2.93289
0.196432 -0.817859 3.31232
-0.916891 0.754175 2.58566
1.28378 0.601155 2.76198
0.837877 -1.50195 3.56336
0.248743 -0.0271381 2.95631
1.38432 0.953562 2.61116
1.65819 -0.294024 2.92452
-0.514512 0.774606 1.85322
0.936301 -1.16365 3.45396
1.63782 0.462643 2.8353
1.66273 -1.69909 3.77042
1.80522 -0.741541 3.02037
0.441246 -0.242509 2.99281
1.6556 1.02704 2.53683
-0.378608 -0.96974 3.42218
1.60536 0.384262 2.6366
-0.800662 -1.06283 3.35243
-1.11457 0.2678 3.76769
1.2975 -1.75317 3.86983
1.16932 -0.202007 2.77645
-0.563644 0.827969 1.88046
-0.983654 0.0584034 3.10562
-0.10054 -1.05522 3.45584
0.343646 0.518278 2.88111
1.08202 -2.19921 3.66947
0.232346 -0.178391 2.97822
0.0751563 1.28343 2.88089
-0.177283 1.13649 2.95897
2.55719 -0.520177 3.0649
-0.181237 -1.00013 3.3666
0.429634 0.479306 2.85998
1.23634 1.33465 2.87348
-0.310119 -0.0833332 3.01388
1.6488 -1.06698 2.94957
1.25323 -0.828966 3.02861
0.192886 0.679219 3.07485
-0.63284 0.830894 2.52371
1.24919 -0.790916 3.01303
0.127719 0.608623 2.97537
2.43261 -0.559862 3.46665
1.29753 -0.0621045 2.66546
0.871791 0.591081 2.9116
-0.704499 0.555924 3.05071
1.57074 -0.724677 2.81845
1.30982 0.00014274 2.71949
0.0364645 1.28132 2.72855
0.33693 -1.79147 3.59872
-0.803139 -0.0218936 3.12367
1.29644 0.666468 2.75262
1.78729 0.574128 2.6521
1.88826 0.289748 2.712
0.751534 -0.749774 3.18338
2.7378 -0.12291 3.08488
-0.831317 -0.488996 3.18332
0.191706 0.709324 3.10878
-0.255288 0.912715 1.9714
-0.483364 -0.87528 3.3494
1.29099 0.975958 2.6467
1.08378 0.48755 2.86297
0.708268 -0.226224 2.96377
1.82334 -0.20739 2.82785
-1.30509 -1.00151 3.2345
1.02601 -2.20095 2.9099
-0.581285 -0.177083 3.16685
0.63892 1.25129 2.86446
0.396724 -1.00612 3.44367
1.39533 -2.57087 3.57726
1.52176 0.515883 2.68714
0.118667 0.169564 2.95772
0.116749 -0.13341 2.95951
-0.726687 0.586216 3.17504
1.38273 -2.07426 3.50547
-0.384587 -0.986663 3.46404
-0.936515 -0.391934 3.1987
-0.16742 0.381838 2.93286
0.575412 -1.71761 3.62413
-0.982379 0.0613187 3.10551
-0.887332 -1.22726 3.43128
0.224802 1.09986 2.9596
2.5347 -0.0314339 3.34113
-0.166241 1.1546 2.95324
-1.29747 -1.10322 3.16516
-0.032902 -0.335655 3.07737
0.380813 1.06284 2.91793
0.560903 -1.45926 3.59454
-1.13864 0.381016 2.99083
1.52536 -1.9623 3.95996
1.3785 -1.24687 3.67789
0.120777 1.23924 2.43547
0.419289 0.452972 2.8857
0.963846 1.05897 2.39926
-1.36744 -0.297174 3.08411
1.03425 1.12547 2.73262
-0.0477856 -0.144565 0.803017
2.61271 -1.04803 3.19332
0.373405 0.424123 2.89482
0.878142 -1.1431 3.50808
1.10532 1.01009 2.51241
-1.3353 -0.265718 3.13737
0.957575 0.941388 2.81581
0.857544 1.07437 2.74691
1.73428 -2.09762 4.36299
-0.00655706 0.523508 1.44936
1.66512 -0.471189 2.80342
1.38162 0.24972 2.82521
1.82807 -1.20141 3.55427
-0.617719 -0.529956 3.37596
2.05891 0.889513 2.83768
-1.06373 -1.34244 3.40264
0.5658 -1.45508 3.61831
0.55078 -0.45206 3.07764
0.205399 1.04621 2.98129
2.83299 -1.08085 3.12468
-0.039776 -1.37731 3.56984
-0.867773 0.339134 2.98462
0.0878475 -1.87318 4.32861
-0.366576 -0.412784 3.19465
-0.584649 0.684455 1.94567
-0.016113 0.563016 1.22706
-1.37164 -1.24829 3.33704
1.26567 0.267781 2.81523
0.579022 0.977023 2.86924
-1.1522 0.0241505 3.61037
0.0325462 0.68545 1.37016
0.215723 0.280663 2.88233
2.62319 -0.958648 3.18897
0.183677 -0.458804 3.07436
-1.19023 -0.388129 4.11094
0.225837 -1.2599 3.55597
0.090226 1.31671 2.24038
-0.275917 -1.3749 3.55727
0.577215 -0.410324 3.05466
-0.56778 0.730849 1.92934
0.523245 -1.75631 3.64147
0.0610627 -1.28967 3.47714
-0.303226 0.338515 2.94909
1.85078 -2.0225 4.45239
-0.775145 -0.385543 3.13419
0.534901 1.01639 2.92381
0.0302641 0.599678 1.57951
-0.190182 -1.31073 3.60447
1.24786 0.288077 2.81356
-0.677835 -0.648212 3.35439
1.42718 0.177824 2.78279
1.88898 0.194579 2.8278
0.435527 -2.06156 3.64979
-0.184108 -1.67265 3.74671
-0.433392 0.901844 2.88497
2.16151 -0.213616 2.95805
1.32107 -1.5383 3.52338
2.36677 0.814361 2.90407
0.549289 0.125458 2.83683
2.52682 -1.63745 3.21749
-1.41657 -0.63871 3.4619
1.55369 0.771352 2.60536
-0.923955 0.274327 2.96261
-0.564108 0.44186 3.02056
1.42423 -1.91554 3.74573
-0.783284 -1.46855 3.59958
-0.0389067 1.37039 2.89125
1.83953 -0.514003 2.92299
1.22091 -1.57557 3.50131
-0.635005 0.680572 2.01382
2.59018 -0.783002 3.10463
0.16483 -1.44873 3.63422
0.768051 0.202202 2.84015
1.78288 -0.284675 2.72738
-0.0766111 -0.504398 3.14282
-0.629268 0.67028 2.03385
1.97283 -0.641498 2.9912
2.05436 -0.812179 3.09001
1.68781 0.658592 2.56562
0.616908 0.0281799 2.90176
2.18277 1.0715 2.92314
0.610137 1.59443 2.86333
1.48653 -2.43155 3.86747
-1.48262 -0.734469 3.15152
-0.981502 -1.33448 3.43825
2.40758 -0.0321906 3.14977
-0.0185583 0.82514 3.07277
1.58553 -0.641976 2.96043
1.29579 0.0945355 2.77717
2.47724 -1.17921 3.16967
1.43871 -0.625278 2.95018
-0.569947 0.78199 2.94121
-0.525819 -1.58615 3.48079
0.7161 -1.5668 3.59169
1.63068 0.0696099 3.10376
1.36869 -1.55552 3.37256
-0.627194 -0.935747 3.37207
1.91306 0.0543196 2.64831
1.22694 1.37148 2.76479
-0.94122 -0.299057 3.12302
1.00777 -0.0949563 2.89507
0.681473 0.621148 2.95969
-0.966961 -1.58674 3.34174
0.340388 -0.857773 3.2971
0.691877 0.587099 2.93997
0.0172193 1.27783 2.88544
-0.376878 -0.0726934 2.99912
0.0756171 -1.69753 3.54829
2.90248 -0.928001 2.97502
-0.439982 0.00135489 3.00403
-0.509208 0.719331 1.96062
-1.21033 -0.842061 3.38003
0.226383 -1.49952 3.6081
-1.00499 0.724173 2.89857
0.906117 -1.67822 3.61942
0.0855347 -0.0298841 2.95724
-0.0545302 -0.76947 3.29411
1.91376 0.182605 2.74631
-0.36672 0.680427 3.07095
1.29845 1.05837 2.56132
-0.719574 0.459728 3.04727
1.55929 -1.44658 3.30747
1.26784 -0.639127 2.86902
0.946638 0.658358 3.06965
-0.467056 -1.04632 3.52866
0.566731 0.0748037 2.88005
1.25072 -1.90838 3.53014
1.16587 0.395886 2.83408
-0.67789 0.807047 2.96468
-0.967283 -0.612129 3.32264
2.23317 1.00823 2.98867
1.34749 -0.606986 2.88553
0.265519 0.886636 3.07029
0.721605 -2.07753 3.57778
-1.22349 -1.57321 3.42197
-0.502591 0.124987 3.00292
2.11917 0.0714812 2.97183
1.69091 -0.567101 2.83996
1.39309 0.747341 2.68164
-0.366797 0.109769 2.97117
-1.07352 -1.4722 3.33306
0.865563 -2.46578 3.78239
-0.778777 -0.0592142 3.06855
-0.915741 0.777072 2.80796
-0.0190196 -0.882132 3.36546
1.19579 0.631809 2.83828
-0.847003 -0.317025 3.10979
1.56375 -0.74151 2.91763
-0.810882 0.667031 3.05274
1.97487 -0.000988906 2.63519
2.04258 0.688586 3.24377
1.67251 -0.0400753 2.70411
1.83507 0.38993 2.82
-0.68787 -0.786595 3.35945
0.148318 0.0299539 2.91211
0.741534 0.732396 2.91906
-0.198613 -1.03805 3.4355
1.05264 0.707907 2.82573
-0.803967 -0.892528 3.37982
0.100074 1.32366 2.88292
-0.142498 -0.733273 3.26034
0.971266 -0.00544311 2.847
-1.32462 0.318243 4.24968
0.0669862 -1.67082 3.55727
1.15999 0.682638 2.8214
-0.61434 0.415804 3.05205
0.732863 -0.988322 3.31472
-0.853423 0.042233 3.09212
1.58579 0.703886 2.6215
0.607284 -0.187795 2.96105
1.99162 0.176851 2.9113
1.61101 0.467975 2.59417
1.75212 0.819039 2.56456
-0.714834 0.871725 1.86062
0.567112 -2.284 3.78633
0.45597 -0.148264 2.95346
0.0680945 -0.954051 3.34424
-0.51783 0.288247 3.24313
1.63173 0.538406 2.6761
-0.774044 0.699434 2.29267
2.33834 0.0218579 2.92338
-1.38208 -0.0998756 3.11506
-1.0756 -0.899843 3.35527
0.143876 0.533229 2.91297
0.794138 0.41709 2.89705
-0.742565 0.158473 2.68027
0.693311 0.550001 1.17991
-0.188358 -0.339662 3.10958
-0.258029 -1.23999 3.56256
1.12853 1.06975 2.7032
1.46766 0.102954 2.73187
-0.163981 -1.09194 3.26914
1.04393 1.03397 2.74075
-0.000834736 -0.281922 3.04663
0.686143 1.3887 2.85375
2.29968 -0.0173441 3.12221
0.506085 0.377736 2.85509
-0.606793 -1.10317 3.3847
1.95008 0.332288 3.23975
-0.07159 0.501165 2.94394
1.38151 -0.252534 2.83936
0.203205 1.32469 2.73387
-0.383508 0.721932 2.10708
1.42066 1.08507 2.6034
1.04635 0.452009 2.8787
1.14216 -1.0587 3.36515
-1.08819 -0.106496 3.12902
-0.894076 0.811342 1.96059
2.08983 -1.92021 4.36407
0.096659 -0.220289 3.01363
1.27808 1.31101 2.53959
0.803392 0.691502 2.92943
0.230916 -0.0327634 2.98211
1.85143 -0.276132 2.79835
1.10314 1.05939 2.51974
1.81419 -2.08212 4.53799
-1.40138 -0.804898 3.20753
1.64869 0.0102607 2.77794
-0.546366 0.680569 3.0208
0.784132 -1.447 3.41178
1.07926 -0.748411 3.09041
0.552976 -2.00161 3.63645
1.4678 -1.37961 3.35718
-1.01514 -0.762205 3.35869
-0.709419 0.0893819 3.07948
1.78458 0.328489 2.81026
1.18184 1.46196 2.80709
-0.947568 0.786848 2.83595
1.52809 -0.031583 2.25804
1.27641 0.712587 2.75024
-0.330411 -1.33523 3.54181
-0.922717 0.748529 2.71925
-0.624363 0.0421179 3.07598
-0.807531 -0.728297 3.41938
0.291247 0.778251 3.01039
1.4795 -0.86592 2.94899
1.89986 0.246118 2.71355
1.18409 0.564443 2.83885
-1.29193 -0.13847 3.10228
-0.323222 -1.66525 3.51527
1.78128 -0.146526 2.84966
0.295582 0.545143 2.90315
0.464191 -2.36342 3.56535
1.08879 -0.966533 3.42394
-0.40008 0.757412 2.07543
-1.33976 -0.0973123 3.22966
0.843974 -1.57834 3.53605
-0.264057 -0.868513 3.34512
-0.66036 -0.0595735 3.08089
1.48038 -1.40413 3.34438
1.74601 0.845383 2.55465
1.51227 0.778417 2.56531
0.957743 -1.63452 3.62538
1.17259 0.607323 2.84987
-0.902765 -0.301512 3.14313
0.505877 -1.62135 3.64095
-0.388859 0.782165 1.90483
0.198302 -1.2297 3.57518
0.870688 0.448758 2.88665
0.187103 -1.27719 3.54768
1.25649 1.08756 2.72035
1.53835 -0.267589 2.94639
0.189983 0.427909 2.87408
-0.445987 -1.11763 3.45183
1.72668 0.438064 2.70271
1.34062 -2.86732 4.22143
-1.06286 0.553962 2.99191
0.998438 -2.13899 3.34234
0.856156 -0.220116 2.98822
-0.130546 1.19689 2.83933
-0.427071 0.898959 2.65707
1.20189 -1.83105 4.09517
0.669525 -1.05741 3.37218
-1.28906 -0.949503 3.20375
-0.749792 0.676347 2.06743
2.95103 -0.979453 3.12888
1.08051 -0.175935 2.84064
1.34098 0.491057 2.79211
-0.556669 0.734116 3.07007
-1.48316 -1.2068 3.17723
-0.0378604 0.354536 2.92732
-0.702303 -0.435027 3.22181
2.09882 0.334092 2.82579
1.03583 0.998481 2.73237
1.5775 -1.26462 3.41512
1.19771 0.979797 2.57572
1.46969 0.293139 2.74541
0.872043 -0.357635 3.00819
0.163845 0.83746 1.77761
-0.101527 0.957716 2.55827
1.44267 1.00601 2.58403
2.72195 0.887604 2.82048
2.5005 -0.227718 2.96679
0.965612 0.37873 2.89144
0.888519 -1.75749 4.15984
-1.27445 -0.356132 3.1706
0.0843583 1.14884 2.27794
1.54669 0.0941794 2.7967
1.37523 -1.81252 4.24188
0.66159 -1.17097 3.32417
-0.745608 -0.250468 3.05746
-0.688678 0.687041 1.96447
1.97047 -1.09272 3.37502
0.579868 0.484441 2.93735
1.35953 0.962707 2.59398
0.601703 -0.22419 2.92498
-0.611208 0.759243 1.86665
2.05499 0.28547 2.89373
1.38899 0.492235 3.04477
-0.938001 -1.08457 3.51164
1.02653 1.17185 2.48958
0.408346 1.31432 2.90851
-1.29305 -0.181898 3.12582
0.014165 -0.109054 0.6899
0.86155 -0.969846 3.22697
0.71811 0.533847 2.91176
0.948284 1.14915 2.38335
-0.568872 -0.134739 3.11714
-0.409925 0.895206 1.91591
0.0795698 1.22338 2.70213
0.854895 -1.62592 3.63396
-1.07239 -0.982802 3.4637
0.749315 0.519297 2.92685
-0.958801 0.408416 2.94952
0.161036 1.5106 2.75288
0.208303 -1.29956 3.58031
0.348439 1.09087 2.92054
-0.19672 -0.375403 3.09576
0.754061 0.334749 2.89716
1.4893 -1.60944 3.96822
-0.627002 -1.16693 3.36451
-0.0763404 0.916668 2.37899
1.12493 -0.319873 2.89555
-0.258686 -0.259386 3.07947
0.136758 1.27562 2.32274
-0.962377 -1.12543 3.36832
2.31334 -1.08661 3.2952
0.823925 1.18109 2.45992
-1.22517 -0.302613 3.1612
1.09225 -1.23267 3.41443
-0.223725 -1.09416 3.41285
-0.0396487 0.437244 2.93529
-0.290218 -0.0220302 1.49888
-0.398413 0.771284 1.92177
1.56684 -2.26251 4.00676
-0.211159 0.96907 2.89987
1.32227 -2.35335 3.99572
0.474314 -0.545407 3.15184
2.38403 -0.0344863 3.11665
0.289446 -1.557 3.74514
-0.153173 0.255747 2.93229
0.0454907 0.539182 1.34517
1.50108 -0.459103 2.84103
0.326081 0.950918 3.01158
0.51702 -0.185312 0.369579
0.992343 -1.53557 3.78432
-0.801109 0.231671 2.98481
0.800758 -0.439962 3.04818
0.00894515 0.572697 1.30083
-0.360596 0.740499 2.01194
2.28627 0.13815 2.97532
0.978627 -1.40196 3.55931
1.15865 -1.63347 3.55487
0.141834 0.301091 2.86379
1.1556 -0.388246 2.86328
-1.2529 -0.354956 3.93368
0.906977 0.937422 2.79535
-0.0788616 0.638527 3.00585
0.397934 -1.30494 3.47885
1.81263 0.27603 2.7715
2.06649 0.600486 2.65346
1.28749 -1.59958 3.64766
2.00933 0.37252 2.76192
1.5168 0.146963 2.86714
0.582438 -1.5384 3.66918
1.09015 -1.76356 3.79159
1.39394 0.78107 2.62232
-0.00851248 -0.66682 3.23302
1.05834 -1.57542 3.56655
-0.327233 -1.09386 3.49564
0.613393 0.0924359 2.85516
-1.27778 -0.64144 3.31891
1.42158 -1.92365 3.77589
0.039831 0.827134 3.04299
0.415709 -1.49197 3.52765
1.64952 0.603176 2.64015
2.99823 -0.880716 3.18681
-1.40148 -0.603882 3.3053
1.92384 0.298951 2.84887
-0.879256 0.196622 3.03982
-0.293716 1.40985 2.92508
0.588187 -1.56176 3.64416
-0.54747 0.671654 2.15701
1.28428 -2.42418 3.48668
0.422187 -1.60848 3.61667
0.558747 0.16302 2.83844
2.09095 0.285446 2.75534
1.20202 0.821275 2.71757
-1.13676 -0.646782 3.28527
2.29498 -1.16712 3.27322
1.58547 0.1258 2.73231
1.26291 -1.66972 3.49696
1.20482 -1.57594 3.65199
1.17944 -1.6328 3.60943
1.24382 -0.562222 3.03637
-0.250222 0.845972 3.01881
0.351473 -1.46036 3.5701
-0.404846 0.982995 2.96066
2.09558 -1.04751 3.41195
1.69794 -0.501659 2.81355
0.77247 1.43122 2.84664
1.48757 0.197066 2.78088
-0.286993 -1.41166 3.53474
2.26263 0.24428 2.75094
0.129711 0.516285 2.7399
-0.691174 0.664553 2.0312
2.10973 -0.428752 2.80576
1.50282 0.112296 2.8232
0.864294 -2.20949 3.53925
-0.356824 0.749813 3.03875
0.131738 -0.790245 3.23667
2.41583 -1.56142 4.44591
-0.89133 0.0443609 3.07497
0.835992 0.68726 2.87821
-0.230226 -0.778211 3.33853
-0.983246 -1.10319 3.40953
1.11355 -0.00922247 2.79974
0.747739 -1.80537 3.57599
0.536913 -0.71367 3.24115
0.0823764 0.813256 3.04571
2.34284 -1.26674 3.25013
-0.867735 -0.309055 3.11476
1.46467 0.0984986 2.93466
-0.899855 0.775997 2.67336
0.920869 -2.67021 3.73056
-0.45976 0.793836 3.09151
1.547 -0.603808 2.87147
-0.84806 -0.315926 3.11038
1.79607 0.071234 2.8296
0.0319647 -1.65139 3.61087
1.91021 -0.033551 2.64094
-0.428207 0.247438 2.93195
-0.215713 -0.941868 3.41773
-0.164915 0.910843 1.95835
-0.0245895 -0.110216 2.98449
-0.00891873 0.827615 3.736
-0.708851 0.552018 3.04097
0.249218 0.581882 2.91993
2.5285 -0.341802 3.33205
-0.327558 -0.868031 3.39744
1.40564 -0.0651621 2.83341
-0.888242 0.0210821 3.47337
0.381582 -0.833743 3.31646
1.76801 1.04687 2.55561
-0.911227 -0.0279815 3.1016
1.81701 -0.746646 3.04554
1.80052 0.892385 2.53769
1.00902 1.59809 2.95885
1.50832 -2.21175 3.4738
0.806546 0.647418 2.89653
1.16603 -0.240163 2.86393
-0.763078 -0.666088 3.26942
1.43952 0.795914 2.55003
-0.732385 0.687928 1.97572
-0.422863 -1.16719 3.59446
1.47322 0.467067 2.76672
-0.688166 0.757374 1.8391
0.395323 -0.215773 3.04217
-1.03732 -1.02005 3.26772
-0.566217 0.476633 3.05196
-0.859754 -0.45716 3.17901
0.887536 -2.08212 3.68197
-0.703945 0.594591 3.18995
-0.651965 -0.190479 3.11562
1.03451 1.14902 2.52085
-0.873048 0.225118 3.04006
1.44771 1.15463 2.59903
0.993702 -2.24999 3.43903
0.502809 -1.01124 3.38029
0.245557 -1.00578 3.51448
-0.467409 0.83472 1.89963
0.311997 -1.69231 3.62779
0.832111 -0.142205 2.9414
0.766824 0.507459 2.93845
0.315758 -1.68569 3.59004
0.764039 -1.63589 3.74938
2.08313 0.214328 2.8812
0.0932839 -0.0669448 2.93958
-1.2583 -0.839177 3.17731
0.951382 0.645549 2.901
1.47778 -0.741472 2.90105
-0.986417 0.235092 2.99431
0.318372 -1.92371 3.60811
1.89074 0.776404 2.9598
-0.946124 -0.0285783 3.08275
0.145375 -1.65167 3.59862
1.69297 0.577801 2.67202
-1.07126 0.04377 3.01083
-0.488793 0.714141 1.98687
-0.943131 -0.790824 3.35021
2.54341 -0.377508 2.96497
0.198252 0.761531 3.05524
-1.01782 0.365174 3.02774
0.507882 0.0048537 2.93529
-1.4064 -0.757761 3.2587
-0.0979728 0.950685 2.03509
0.301468 0.728836 3.0215
1.67875 0.773233 2.67993
-0.946581 -0.0718949 3.09866
-0.106224 -1.41982 3.54996
0.0113534 1.22462 2.80178
-0.0503923 0.524313 2.97663
0.74959 -1.60278 2.1883
0.86584 -0.182164 2.98019
-0.767779 0.158477 3.05743
-1.49506 -0.99237 3.26894
1.72522 0.758463 2.58501
-0.892453 0.197821 3.62211
1.05441 -0.149317 2.85469
-0.190165 -0.956244 3.38051
0.366031 0.57798 2.98149
1.1003 1.09654 2.50316
1.92222 -0.546323 2.9249
-0.112748 -0.125143 3.05569
1.72428 0.508951 2.65064
0.379108 1.21944 2.92078
0.394736 -0.903366 3.27075
0.217867 0.413493 2.88534
0.583569 -2.05041 3.57771
0.37568 -1.27233 3.5893
-0.167101 -0.353634 3.09445
1.36446 1.03385 2.61016
-0.677483 -0.101577 2.15955
0.507772 -1.71173 3.82848
-0.890572 0.403001 2.94838
-0.473656 -1.20939 3.55497
0.56577 1.37946 2.86599
1.35117 1.00572 2.60142
-0.0471618 -0.308046 3.07669
0.567117 -1.43463 3.57235
0.327296 1.48954 2.70041
-0.855197 -1.07911 3.34765
1.03733 0.473456 2.90239
1.9157 -2.62099 4.51477
0.582749 -0.27838 2.96817
-0.308641 0.798527 1.88363
-0.205559 1.13752 2.95333
1.72521 0.666645 2.62378
-0.46765 0.478177 3.02876
-1.18067 -1.01658 3.30085
1.41333 0.721892 2.60711
0.43124 0.130708 2.88006
-0.830122 -0.238388 3.14412
0.396098 1.13101 2.8665
-0.798872 0.691624 1.95947
-2.09127 -0.767686 4.60077
1.60168 -1.91327 4.31379
1.11469 0.259724 2.79234
0.0827789 0.76343 1.54832
2.14207 -2.02522 4.14042
-1.14981 -0.469419 3.13971
-0.533933 0.695571 2.04281
0.643869 -1.48262 3.73615
-0.00969841 -1.41917 3.69268
1.06967 0.234229 2.86161
-0.238028 -1.212 3.51964
-0.68296 -0.43312 3.25616
1.01457 -2.19558 4.112
0.417212 1.03229 2.87553
2.43446 0.834369 2.8975
1.06655 -1.29832 3.39734
2.92181 -1.10613 3.12129
-1.33036 0.3759 3.00307
1.66743 -0.365789 2.76044
1.51156 -2.25447 4.50365
1.47741 0.932538 2.5934
2.1828 0.258748 2.86442
-1.53469 -1.23503 3.33275
2.30202 1.02914 2.98031
0.787343 0.288481 2.89918
1.81702 -1.90807 4.20527
1.0872 -0.977087 3.30695
0.959651 0.573262 2.90269
1.18666 1.21113 2.57745
-0.170924 -0.141526 3.05363
0.157447 -0.930557 3.32314
-0.487431 0.566535 3.05966
0.741759 1.37978 2.84468
-0.83943 -0.110553 3.10588
0.576069 1.26522 2.874
-0.918793 0.775648 2.79802
1.57237 0.743572 2.57148
0.23383 0.661655 3.10992
-0.785666 -0.566659 3.23781
1.46961 0.759914 2.53772
0.858614 -0.0915613 2.90164
-0.483368 0.806728 2.42395
-1.21793 -0.872987 3.3448
1.7849 -0.202974 2.76142
0.619399 1.33804 2.8647
1.31349 -0.283616 2.81422
0.491468 1.13326 2.89463
-0.866786 0.430192 3.4731
0.253805 -1.22037 3.58486
0.722672 0.459621 2.90824
0.460601 -0.107666 0.239351
0.799037 -0.263417 2.97654
-0.314733 0.784313 1.94953
-0.322947 0.430447 3.01122
-1.46691 -1.05409 3.19644
0.382431 -1.06318 3.41675
1.24965 0.493308 2.81343
1.77475 0.324699 2.79775
0.619919 -1.91304 4.50815
1.78962 -0.218062 2.76534
-0.568366 0.853002 1.88067
2.02603 0.325939 2.89868
0.139544 1.41607 2.66845
-0.168525 0.800802 3.0402
-1.42098 -0.965616 3.21573
-0.913704 0.512405 2.96231
-1.13787 -0.00468734 3.68743
-0.492534 -0.177808 3.0875
-0.413423 0.899507 2.65593
-0.676912 -0.101997 2.15947
-1.27258 -1.25058 3.31785
1.85556 -1.8882 4.34146
-0.96134 0.0383446 3.09987
-0.81383 -0.430461 3.2235
0.15601 -1.25384 3.52041
-0.789813 -1.25765 3.46655
2.74242 -0.129003 3.75388
0.683915 0.29779 2.88102
0.244519 1.3857 2.79563
1.48462 -2.42341 3.85566
-0.400807 0.731203 1.99746
0.13675 1.08437 2.90847
1.82988 -0.357922 2.83753
2.51539 -0.942174 3.15643
0.697389 0.369548 2.88317
1.2458 -2.35107 4.28215
1.54376 0.943774 2.47698
-1.06224 -0.358512 3.23832
0.238286 -1.30885 3.55464
1.1332 0.332563 2.84761
1.66514 -1.12756 3.11728
0.450713 -0.585164 3.1655
0.879605 0.899362 2.86915
2.18929 0.345361 2.62241
0.588969 -1.46513 3.62968
-0.181056 -1.46342 3.37539
-0.412381 0.21442 3.03959
1.10681 -2.40667 3.88616
0.434886 -0.538979 3.15328
0.217189 0.871496 2.97099
-0.0960856 0.461409 1.42334
0.247247 0.73708 3.02436
1.33457 -1.50851 3.57809
0.574557 0.164441 2.82454
1.45228 -2.47209 4.01064
1.26651 -1.80863 3.80277
-0.515998 -1.46085 3.65783
0.307448 0.27192 2.87984
1.38363 -2.05932 3.5061
2.1507 0.262254 2.64257
1.54442 0.905618 2.60096
-0.484171 -0.488011 3.14845
-0.804516 -1.32339 3.43592
0.933837 0.249074 2.86076
2.11769 -0.18741 2.94222
0.353734 -0.459924 3.07499
0.41764 0.978053 2.9422
2.30874 0.544626 2.68843
2.26877 -1.11355 3.29646
1.05749 -1.30759 3.51161
-0.479851 0.384149 3.01174
2.47671 -0.27332 3.02138
1.36327 -0.360802 2.85815
-0.483812 0.751168 1.93168
-0.329123 -1.23863 3.49743
-0.929901 0.362805 2.94105
2.5041 -0.149774 3.56392
0.700107 1.03269 2.83379
0.175825 -0.349557 3.03565
0.116839 1.44739 2.67305
-0.710766 0.726115 1.81526
-0.955603 0.0294125 3.09134
1.41119 -1.09258 3.18392
2.09972 -1.58836 3.76293
-0.538562 -0.31448 3.13372
0.876217 1.13764 2.46379
-0.591703 -0.971825 3.46357
-0.41535 0.427288 3.02391
2.04858 -1.97575 4.15822
2.70607 -0.164307 3.74002
0.0144912 0.958699 2.96188
0.821394 -0.523647 3.08034
1.30277 -2.45894 3.99823
1.99727 -0.0458033 2.96295
-1.30299 0.281076 3.02212
-0.85835 -1.44419 3.52778
1.89904 0.417632 2.64712
-0.794791 -0.483731 3.0778
0.121818 0.951432 3.05054
2.67624 -2.00483 3.65051
-1.2536 -1.33489 3.37454
1.59625 -1.81071 4.29797
-1.20164 0.232711 2.97583
3.10043 -0.998687 3.11092
-0.712252 -0.475282 3.26078
1.72895 0.285866 2.75465
2.10348 -0.139918 2.94901
-1.22386 -1.29099 3.36285
-0.617105 0.695417 1.95001
1.95637 0.0604292 3.01518
-0.228159 0.557768 2.98867
1.0455 -2.23822 3.86839
-0.578082 -1.29314 3.43615
-1.03526 0.305048 3.00146
-0.27901 0.749125 2.11718
1.94617 0.491737 2.63572
0.960217 -0.407125 3.00911
1.24262 -1.657 3.56793
1.30705 0.124484 2.78569
1.17055 -1.57751 3.55795
-0.133396 -0.668532 3.26764
-0.690388 -1.55283 3.25848
0.584226 0.841224 2.92648
1.71065 -1.88545 3.63926
0.781385 0.0925761 2.88222
-0.929195 -1.50556 3.40404
1.03306 -1.76699 3.57327
1.07599 -0.599505 3.03439
0.353322 0.812187 2.98643
2.02935 0.473667 2.61956
-0.634492 1.13515 2.85884
1.50396 0.79567 2.58911
3.16487 -1.09153 3.2642
2.16978 -0.0299693 2.9252
-0.621411 0.171051 3.04063
-0.316993 1.41548 2.94107
-1.39685 -0.591242 3.20202
0.561745 -1.44066 3.5907
-2.30699 -2.44226 5.48962
-0.352461 -0.853292 3.3478
0.596673 -0.0401711 2.89819
-0.337918 0.770355 3.19209
0.0212326 -1.36174 3.54184
-1.02366 0.107335 3.06342
-1.34986 -0.809769 3.19532
-0.724389 0.00846236 3.05903
0.521734 -2.0723 3.57414
2.14383 1.00579 3.04584
-1.00256 0.681248 2.9059
1.99591 0.389786 2.86643
0.110724 0.599385 2.97199
0.51668 -0.785897 3.22829
-0.582692 -0.920903 3.35924
0.360229 0.0706553 2.90827
-0.414385 -0.182891 2.99528
0.238306 -0.746972 3.27151
0.695734 0.766337 2.92941
0.0454329 1.32001 2.85232
0.450199 -1.85457 3.58414
1.2033 0.0126362 2.79087
0.859501 0.727935 2.90217
0.834437 -0.684485 3.15046
-0.233683 1.00447 2.74478
-0.314431 0.723018 3.0066
1.79871 -0.559871 2.85755
0.105836 -1.51595 3.57211
0.099353 -0.794032 3.27196
0.34617 0.0157017 2.93141
-0.279432 0.568599 1.83388
2.15842 0.229704 2.99866
0.406354 0.711202 3.01751
-1.11805 -1.03136 3.33893
1.2671 -2.57863 3.61436
1.04053 -0.72981 3.09673
1.70042 -0.0138479 3.1047
-0.0529117 -0.699714 3.27552
1.01121 0.0724234 2.80801
-1.10335 -0.103897 3.14015
1.92653 -0.165681 2.89537
2.43339 -1.89203 3.32841
0.166704 0.80151 3.01141
1.37875 0.194669 2.01439
1.55541 0.694801 2.61812
-0.844097 -1.59814 3.44969
0.467083 -1.53812 3.5903
1.86055 -0.280673 2.72528
0.882937 0.0475759 2.88356
-0.99668 -0.685964 3.31314
0.0738782 0.20147 2.75471
1.48076 0.569674 2.66168
0.717546 -0.91849 3.28083
0.612322 -0.12325 2.94454
2.64844 -0.319927 2.93199
0.575185 -1.77194 3.72997
-0.940773 -0.886402 3.36133
1.39684 0.531145 2.68979
-0.995265 0.262812 3.054
-0.581955 -0.0832805 3.09298
1.76888 -1.05341 2.99298
1.20424 1.24161 2.72863
-0.926184 0.0142993 3.61757
0.0984621 0.659204 2.97602
0.257664 1.63302 2.79039
-0.420148 0.706684 3.6495
1.27495 -0.0596304 2.7945
-0.97316 -1.35311 3.41087
0.571272 -0.848213 3.32469
-0.0551108 0.00663549 0.839365
-0.0464288 -0.252317 3.05073
-0.56364 0.777648 1.84839
1.22478 1.07896 2.57585
0.69209 -1.1269 3.42741
-0.819362 0.521573 3.05848
0.590476 -1.75224 3.65196
-0.664903 -0.23946 3.14353
0.299289 1.14858 2.93385
0.849196 -2.14323 3.44354
0.648023 0.444977 2.88763
1.2458 -1.0144 3.20728
1.88884 -1.8662 3.41727
-0.914603 0.624577 3.23344
0.945267 -1.87077 4.36295
-0.189918 -0.195249 3.0455
1.27913 1.20423 2.69268
0.918487 -1.79605 4.20447
-0.855185 -1.0302 3.42976
-0.0142969 -0.0959905 0.798338
0.46246 -0.993658 3.42162
0.920258 0.513014 2.8753
-0.144044 -0.794774 3.29977
1.45034 -0.153418 2.77336
0.000739425 1.23032 2.72951
-0.178555 1.14972 2.96055
-1.16069 -1.1756 3.26927
0.981691 -1.91618 3.94156
-1.00723 0.395383 2.91775
2.49233 -0.293757 2.98586
-1.3304 -0.39815 3.1872
0.0576879 1.0947 2.93104
0.428314 -1.25381 3.53332
0.594071 -1.69869 4.17095
-1.38763 0.370538 3.00213
-1.1045 -0.216036 3.12058
0.782993 -1.57289 3.62186
-0.54373 0.734232 1.95064
0.291842 -0.362015 3.07017
0.891809 1.05763 2.73974
0.0716967 0.615939 1.32756
0.900478 0.411603 2.89475
0.993742 1.04469 2.47075
-1.35598 -0.326762 3.16853
0.0337631 1.13528 2.41431
1.30963 1.26736 2.53918
-0.0412679 -1.19382 3.46966
1.34321 -0.220062 2.80931
-0.483744 0.824693 1.89043
1.89362 0.297343 2.82022
1.6174 0.674911 2.56748
1.15868 -1.0621 3.32793
-0.331578 0.529705 3.05562
-0.0266206 -0.195211 3.04557
0.731007 1.14737 2.79886
1.14993 1.24295 2.72779
0.82298 -0.998166 3.25863
1.25862 0.460239 2.82413
0.796271 0.146815 2.86289
1.35516 0.884915 2.58998
0.637587 -0.153064 2.95661
0.340555 1.39996 2.85324
1.75892 -0.898849 3.02171
-0.0440549 0.660722 3.21301
-0.908507 0.251085 3.40227
-0.439437 -0.106664 3.05353
0.486464 1.28136 2.88457
0.579335 -1.51027 3.61196
-1.4067 -0.903221 3.23041
1.47259 0.50604 2.69372
0.803582 -2.24732 3.58263
-1.50475 -1.18762 3.29819
-0.80847 0.438791 3.01068
-0.0740264 -0.0340229 1.01377
1.05109 -0.343601 2.91804
1.0422 -1.96176 3.82267
-0.472112 0.747648 1.89724
0.0194325 -1.17025 3.42647
1.61356 0.337567 2.67194
0.647502 1.07535 2.88978
0.19597 -0.320877 3.03282
1.11852 1.2743 2.49286
0.0664792 1.39647 2.49519
0.408146 -1.17371 3.56016
1.82956 -2.44406 4.15947
1.92364 -1.27844 3.56078
1.04082 -0.257346 2.8769
1.29081 1.28211 2.54342
-0.501931 0.452371 2.99191
0.10044 1.31632 2.64882
0.133845 1.12206 2.88132
1.46104 -1.50111 3.72822
2.70692 -1.10803 3.16579
0.3767 0.995743 2.99397
0.254755 -0.495024 3.10908
-1.51718 -0.232451 4.42751
1.33346 0.245826 2.78883
1.01173 -1.41632 3.46098
-1.12169 -0.616011 3.31003
0.0149559 0.610138 1.52841
1.30427 -0.442844 2.88417
1.01105 0.917608 2.77144
1.07892 -1.36615 3.49124
0.117446 0.242852 2.87952
-1.21528 0.0664761 3.52293
-1.18319 -0.438917 3.20612
0.862661 0.329664 2.89074
2.068 0.311607 3.18862
0.705911 1.15361 2.83878
0.530825 -1.35468 3.58328
0.0115855 1.05201 2.91467
2.09501 0.451336 2.63018
3.11661 -1.03666 3.11803
1.20056 -1.88698 4.08918
-0.996521 -1.26538 3.48144
0.702371 0.985121 2.83701
1.78902 -1.87649 3.95117
2.18691 -0.117535 3.1819
1.607 -0.360361 2.75738
-1.37809 0.325444 2.95922
1.72243 0.163525 2.74575
-1.27042 -1.42184 3.16121
-0.591775 0.322826 3.14457
1.4715 0.786262 2.60278
0.0718628 -0.630159 3.18576
-0.486912 -1.49098 3.47915
1.51897 -1.90181 3.46476
-1.17535 0.145745 2.95695
1.68698 -0.535612 2.79295
2.13229 0.209407 2.89431
0.156603 0.833135 2.98847
1.25394 -1.58531 3.75294
0.701732 -1.44724 3.58888
-0.0837136 0.926191 3.03331
-0.0246691 -0.548869 3.16029
1.93805 -0.209183 2.89142
0.637813 -1.60929 3.68311
1.73175 0.202174 2.74677
2.10397 0.336225 2.64591
2.66612 -0.761381 3.10433
-0.324894 -1.04327 3.47911
1.47684 0.416843 2.69693
0.321172 1.33213 2.90479
1.05009 -2.34794 3.31521
0.997658 -0.312001 2.91849
-0.638768 0.757717 1.86741
1.53851 -1.13486 3.26099
0.22399 -1.13475 3.50734
-0.20215 0.785191 1.96111
0.997723 -1.49529 3.69634
0.909772 -0.258354 2.98025
1.74264 0.453195 2.70006
-1.03093 0.454822 3.04756
-0.256894 -1.05919 3.35604
2.0489 0.0735335 3.14976
-0.883192 0.563884 3.08191
1.37945 -0.219708 2.82094
0.0974073 1.36034 2.62329
-0.567785 0.835244 1.87882
-0.525952 0.486432 3.018
-0.0837154 -0.0325549 1.02671
-0.489941 -1.08907 3.56818
2.48452 -0.332806 2.98043
1.07695 1.13435 2.69648
0.630207 -0.109858 0.374258
0.564194 -1.45103 3.58166
1.74845 -0.210253 2.81097
-0.354539 -1.31898 3.49879
0.245648 1.03749 2.98828
1.4507 -3.07632 4.67328
1.42432 -0.391745 2.8408
0.070856 0.610833 1.40337
1.47859 -2.52476 3.86994
-0.202996 0.309508 2.96385
2.74167 -0.473852 3.85426
2.61968 -0.713966 3.14115
0.196786 1.48422 2.64501
1.23266 1.05099 2.7373
0.0358943 -0.373365 3.08715
0.946656 1.19516 2.57204
1.46551 0.383205 2.91855
0.261011 -1.29298 3.53999
1.40732 0.979301 2.62125
1.2392 -0.347759 2.84994
2.237 -1.79356 4.36467
0.057259 0.933164 1.87593
-0.986813 0.36266 2.96189
-0.866822 -1.1946 3.40977
-0.9402 -0.577934 3.15033
2.07576 0.4231 2.63677
-0.0943217 0.200594 2.92133
3.02115 -1.24351 3.09495
-1.00141 -1.42265 3.30924
1.2511 -2.36201 3.9293
1.2623 0.875032 2.7456
-0.307066 0.904221 3.0656
1.0125 -1.58471 3.746
2.44059 1.08278 2.91808
1.72442 0.15429 2.7401
-0.178466 0.598533 2.99869
0.335474 -0.53068 3.14094
-1.22024 0.339857 3.68178
-0.601513 -1.63086 3.42236
-0.150741 0.279098 2.93102
0.915099 -1.5635 3.83336
2.43923 1.10903 2.8632
1.19491 -1.79645 3.53947
1.0391 -0.465181 2.9376
-0.0701095 1.00647 2.99885
2.32817 0.619669 2.75649
0.539501 -1.4697 3.7406
-0.318744 0.251627 2.98232
0.970823 -1.67009 3.70027
2.31267 -0.205969 2.9365
-0.207965 -0.463308 3.1499
-0.728359 0.676287 1.98476
1.26907 -2.1976 3.75484
-0.00893254 0.76509 2.98651
0.277283 -2.01415 3.59885
-0.671642 0.0672246 3.05244
-0.985403 -0.573509 3.30399
2.78501 -0.784781 3.15425
-0.667539 -0.733017 3.40544
-0.410613 -0.928145 3.39969
-0.112716 1.35311 2.90413
1.23253 1.28663 2.70586
-0.822781 0.668905 2.25702
0.449057 -0.651632 3.14327
-0.551936 0.131791 2.99341
0.40353 -1.61641 3.55623
-0.899337 -0.668075 3.40298
2.43284 -1.88942 3.43093
1.31897 0.737756 2.68069
-0.402817 -0.958024 3.4284
-0.508302 -1.55867 3.50559
0.464677 0.0888612 2.8596
1.19418 0.898843 2.73951
-1.34141 -0.561384 3.2301
2.18857 0.964096 3.04347
1.91759 -0.490977 2.797
-1.75037 -1.50448 3.52941
1.4749 0.238457 2.85082
2.42041 -1.28142 3.77747
2.02209 0.244913 2.90755
0.477885 -0.51541 3.13626
-0.413754 0.684936 2.10552
0.0875241 0.695948 1.45821
2.9551 -1.16707 3.10977
2.54905 -0.792838 3.71496
-2.22352 -1.91726 4.62604
-1.12509 0.233411 3.05333
-0.836245 0.320761 2.96648
2.3831 -1.3015 3.2578
-0.998941 -1.37561 3.46272
0.363933 1.04238 2.98562
2.32476 0.964036 2.93273
1.58579 -0.437524 2.86971
1.87736 -1.95533 4.11956
-0.755642 -1.31873 3.50478
-1.32937 0.309546 3.01652
-0.707714 0.69414 1.97161
1.09217 -2.2021 3.70496
-0.027691 -0.434445 3.15527
2.1022 0.356075 2.62912
0.876392 -1.69812 3.68166
1.0334 -1.52944 3.55153
2.08841 -0.149185 2.92777
1.24725 -0.62698 2.982
0.559555 -1.44235 3.59605
0.787993 -1.69121 3.64394
-1.37872 0.118659 3.08407
1.27243 -2.48142 3.47806
-0.566742 0.821726 2.95681
2.77376 -0.700764 3.15027
2.21513 0.273475 2.63975
1.28314 1.02835 2.7134
1.29953 -0.570939 2.85604
-0.665245 0.643281 2.07408
2.10281 -0.0010384 2.93209
1.18228 -1.7197 3.78445
-0.1993 0.186708 2.95945
0.498206 -0.595765 3.20515
1.06074 0.802622 2.801
1.28573 1.24196 2.61726
1.67159 0.120973 2.76844
-0.0800245 -1.56893 3.63691
-0.0611742 0.677411 2.98007
1.97673 -2.25078 3.5901
1.15179 -0.0412795 2.79991
0.0867054 1.28038 2.76926
-0.546253 0.000752693 3.06851
-0.371419 -1.37915 3.52906
1.40021 -0.745292 2.93006
-0.915681 0.674446 2.93904
2.26489 0.937399 3.2062
0.903597 -2.65656 3.72869
-0.552777 0.594554 3.0555
0.87798 -0.769267 3.1539
1.43436 0.0480562 2.87465
-0.54747 -0.769532 3.30272
-0.867252 -0.562938 3.17998
-1.05582 0.408364 4.04579
-0.314026 0.786338 3.03612
0.805886 -1.52779 3.72846
-0.925233 0.0377364 3.08
2.7854 -0.502214 2.90426
-1.10725 0.230313 3.03184
-1.00851 0.775297 2.99947
0.0455066 -0.705587 3.23039
0.177862 -1.7498 3.59394
1.83723 -0.161787 2.87728
-0.0927788 -0.954134 3.37576
0.314537 -1.72296 3.62573
-0.192751 -0.143673 3.03581
0.0701305 1.2372 2.78096
1.39718 1.04314 2.62179
0.954649 0.541246 2.88303
-1.02215 0.369487 3.03135
0.251666 1.30438 2.91584
1.82176 0.885538 2.54455
-0.548962 0.728403 3.71008
-1.16353 -0.109106 3.12657
-0.495696 0.63709 3.07105
1.49324 -0.82324 2.84436
-0.279306 -1.0761 3.48743
-0.271323 -0.0812066 3.03455
-0.307297 0.495759 3.29046
1.64583 -0.791672 2.90181
1.2006 0.544061 2.79924
-1.25618 -0.910625 3.26698
-0.00555211 -0.0489876 0.66401
-1.30012 -0.111687 3.1075
1.78218 0.502286 2.65346
0.62194 -1.40149 3.55648
0.203787 0.563877 2.91144
-0.801463 0.4177 3.0484
-0.650363 0.703271 2.20442
1.44383 1.03604 2.65779
0.586628 -0.0795547 2.91508
0.503002 1.2583 2.89336
-0.593238 0.67998 3.09169
0.266157 -0.892057 3.31788
2.03213 0.213868 2.82799
-1.26544 -0.0421404 3.08051
1.1367 1.22743 2.58195
1.03703 -0.841841 3.28103
0.595539 0.612977 2.95669
0.718796 -2.42968 3.61176
-1.28927 -0.287711 3.19929
-0.745702 0.752392 1.79274
-0.720501 -1.11883 3.42454
-0.277824 0.488575 2.99252
0.520494 -1.7493 3.62906
-0.206743 -0.230689 3.08058
0.430344 1.13781 2.90979
1.56472 -2.05946 3.43499
-3.40985 1.10839 7.05097
0.601765 -1.08005 3.39348
-0.774323 -1.05643 3.48412
-0.832949 0.751186 4.00005
0.959319 -1.45832 3.52782
0.986906 0.533162 2.89646
0.655115 -0.200466 2.93935
1.10451 -2.27805 3.78925
-0.854701 0.227351 3.03533
-0.32226 0.800773 2.09879
0.05915 0.518215 2.93858
1.15134 -0.976045 3.29262
0.507676 1.35348 2.88988
-0.126689 0.836153 3.04244
-0.30506 0.898205 1.93697
-0.730589 -0.156718 3.12266
0.853834 -1.35725 3.67475
1.05707 -2.01318 3.75424
2.65513 -0.753218 3.1098
-0.985182 -0.392723 3.15349
-0.268641 -1.12416 3.49381
-0.0657636 0.342034 2.93262
0.0471884 1.35724 2.64194
2.10213 -0.990887 3.61715
1.13814 -2.5054 3.82
-0.762932 0.706307 1.89747
1.74636 -0.34712 2.73641
1.61288 1.00729 2.53237
2.50311 0.700273 2.7952
1.55482 0.366956 2.51135
2.28478 -1.25793 3.57819
-1.06231 -1.09054 3.10158
-0.671716 0.733013 1.92055
0.394382 -0.314851 3.06781
0.802556 -1.47129 3.59353
-0.252684 0.366612 2.93575
0.492851 -1.28691 3.68499
0.150198 -0.551178 3.13897
2.33211 -0.143733 3.03174
-0.233952 0.237069 2.94872
1.10265 -1.6132 3.64561
-0.736645 -1.45796 3.52486
-0.551327 -1.55977 4.82543
1.67921 0.853867 2.54614
1.36001 0.827184 2.6292
2.54824 -0.595229 3.09553
-0.92822 -1.39539 3.48539
0.28287 1.37746 2.90642
-0.0469387 0.210736 2.91289
0.878352 -0.505751 3.0264
1.557 -1.76094 4.09419
0.977929 -1.3819 3.50978
-0.685478 -1.35064 3.46463
-0.794763 0.32562 3.00606
2.35433 -0.201714 2.90633
1.13308 -0.427687 2.88649
0.673156 0.995656 2.84714
2.28079 0.630687 2.7609
-0.129002 -1.33755 3.57168
0.0906148 0.260667 2.865
2.38332 0.898159 2.93454
0.688886 -2.44717 4.0094
-0.722109 -0.434487 3.1676
0.611826 0.977949 2.87619
1.05289 -1.78514 3.73438
-1.3923 -1.14101 3.16723
1.04117 -1.93886 3.775
0.0655 0.408878 2.89622
1.15557 -0.347919 2.87082
-0.784899 0.730852 1.8483
0.594413 -1.2211 3.52845
1.35769 -1.99841 3.99631
0.268331 0.348255 2.874
-1.06981 -0.130854 2.95957
-0.827717 0.716452 1.85854
1.07056 -0.312329 2.86675
0.189265 1.15614 2.95261
0.0795434 1.31176 2.44144
1.34594 0.425407 2.79507
2.77494 -0.633298 3.05461
1.04398 1.00869 2.46705
-0.455898 -0.300651 3.10943
-0.996196 -0.0125981 3.10599
2.03149 -1.02528 3.31989
-0.652718 -1.11454 3.39485
0.29719 -1.86496 3.63729
0.387788 -1.42494 3.54455
2.38084 -1.27674 3.27783
1.33259 -0.467597 2.85055
-0.491105 0.701573 2.02319
1.22008 0.261324 2.8359
1.05619 -1.61184 3.7355
0.548389 -1.50087 3.6621
-1.38019 -0.494313 3.24437
0.62131 0.956907 2.90623
0.0596662 0.941967 1.95725
0.74929 1.1654 2.8057
1.65181 -2.62748 4.06046
-0.952135 -1.38858 3.56705
0.65069 0.218437 2.88414
-0.598652 0.337331 2.99247
1.58711 -1.90642 3.42363
1.39811 -1.30355 3.37136
0.0586549 1.04649 2.91937
2.3384 0.24636 2.74557
-0.623934 -0.447893 3.18989
0.618973 0.27535 2.88962
2.82101 -1.40267 3.11499
0.453664 -1.28509 3.4919
1.2199 -1.73454 4.02435
-0.79603 0.684459 1.88429
0.564038 -0.388578 3.03983
1.10639 -1.66178 3.62451
-0.0694101 -1.58 3.53295
-0.51843 0.15899 2.99097
-0.279952 -1.08179 3.48392
0.842785 -2.33591 3.70146
-1.44068 -0.614741 3.04716
0.77331 0.852743 2.85463
1.10392 -1.64257 3.59695
0.852346 0.109255 2.86688
-0.80886 -1.44977 3.35503
1.582 -2.12697 3.45212
1.47739 -2.27297 3.84205
0.374582 -1.74562 3.63813
-0.544012 -0.575043 3.10464
0.346444 0.841406 2.96112
2.01197 -0.780745 3.2682
0.668542 -1.62601 3.61994
-0.45206 0.678813 2.10565
1.93459 -0.959309 3.26182
1.30427 0.192351 2.79015
1.81325 0.309206 2.81988
1.26316 -0.527978 2.92627
0.770683 -2.09029 3.66082
0.78132 -1.71833 4.0414
1.31268 0.661568 2.71456
2.20007 -0.0837729 3.03167
2.24052 -0.185824 3.59083
-0.273061 0.019348 3.00634
0.417479 -0.813894 3.31159
-0.230133 0.721319 3.10562
-0.578261 -0.602274 3.31053
-0.0769246 1.09075 2.9607
0.531343 -2.33074 3.72566
0.707819 -0.0128597 2.907
-0.796976 -0.798116 3.44644
1.92366 -0.811285 3.11858
-1.05035 0.222208 3.06046
0.899541 0.0936529 2.872
1.67685 -0.768059 2.55868
2.61318 -0.996459 3.14269
1.04164 -0.667567 3.05634
-0.0936415 0.811653 3.07431
0.00558359 -1.36538 3.36231
-0.250966 0.058181 3.02517
-0.807357 -1.60305 3.44705
1.83748 -0.506494 2.75038
1.64299 0.698164 2.66214
-0.912791 -0.690918 3.31697
-0.196368 0.768722 2.10857
2.50661 -0.410506 3.00036
1.72287 -2.20933 4.68288
-0.559533 0.30701 3.04681
-0.935795 0.0182341 3.08657
2.09768 -1.47587 3.66126
1.44387 -1.75488 3.98486
0.464011 -0.42142 3.05463
0.102176 1.24749 2.43893
-1.05064 -1.25213 3.29652
1.1291 -1.89307 4.09872
2.6401 -1.15253 3.19433
0.971813 -0.373949 2.98885
-0.346634 0.766223 1.98102
1.04744 -1.56479 3.62584
1.3446 -1.20946 3.26918
0.577133 0.362117 2.91
1.31748 -2.45247 4.0503
0.702164 -0.359646 3.01217
1.44445 0.975505 2.63061
1.49506 -1.20974 3.372
0.502475 0.321205 2.827
2.50831 0.310539 2.64993
2.73013 -1.03451 3.134
0.78843 -1.71313 3.91551
1.16165 0.195016 2.78786
2.24595 0.154206 2.98367
0.165785 -0.588548 3.16625
-0.362012 0.918267 2.7804
-0.0680336 -1.93194 4.27724
-0.177478 -1.50669 3.62968
0.937766 0.148007 2.81376
2.34238 -0.0838851 2.99137
1.57603 -0.481594 2.77033
1.0639 0.833271 2.80978
1.41567 -1.4119 3.38965
1.39439 0.274592 2.79419
1.23376 -1.48398 3.516
2.17494 0.288167 2.6412
1.21957 -1.56418 3.49293
0.652502 -0.504103 3.114
0.589347 -1.56418 3.65442
-0.33161 0.726409 2.06491
-1.45773 -1.23005 3.06677
-1.37964 0.282463 3.08954
-0.012607 1.32289 2.89441
1.44626 -2.3111 3.8613
-0.730122 -0.47648 3.20599
0.376414 0.964591 2.9654
1.76781 -2.05673 3.40258
0.636236 1.58357 2.86109
0.133963 0.773814 3.01938
-2.48476 -1.26761 5.22427
-0.100307 1.32773 2.89586
0.439128 0.0467297 2.87909
0.846327 -1.86181 3.61251
1.38011 -1.87356 3.68223
-0.513952 0.767913 3.03684
-0.288603 -0.709198 3.24842
-0.672379 -0.992737 3.56958
-0.163688 0.0225292 2.98827
1.20143 1.25838 2.70647
1.0552 -0.641974 3.03903
-0.499786 0.799854 2.76914
0.125519 -1.73693 3.59048
-0.0872168 -1.69275 3.63665
1.72447 0.117845 2.73794
1.8348 -0.306955 2.71602
1.15828 -2.77988 3.55433
1.5518 -0.579421 2.85247
-0.501827 0.819167 3.00729
0.629673 -1.56479 3.58831
-0.445131 0.0855487 3.02568
0.695348 -1.74145 3.88721
0.714929 -1.58855 3.76076
2.61052 -1.18205 3.1044
0.402621 -0.86405 3.26359
-0.998346 0.78664 2.84642
-0.829224 0.704887 3.05935
-0.827102 -0.0677327 3.11335
-0.126238 -1.51499 3.57105
0.0412589 -0.825899 3.28444
0.552702 0.609735 2.92051
2.04493 -0.341515 3.06201
-0.5606 -0.0431745 3.08157
1.26821 -1.79193 3.70402
1.82949 -0.162123 2.86348
-2.15819 -1.1022 4.39083
-0.283758 0.883733 2.43393
-0.00602701 -0.0492949 0.664786
-0.30451 0.952959 2.74774
0.133693 -0.0124302 2.9136
-0.86007 0.239095 3.26685
-0.870859 0.30036 3.0398
-1.13198 0.724386 2.94486
-3.14285 -3.24878 6.92852
0.73215 1.46757 2.8484
1.06504 0.749261 2.78308
1.45727 -0.615155 2.92311
-1.18518 0.119018 3.13882
-0.101769 -1.69848 3.5255
0.61983 -1.46852 3.57314
1.72673 -1.98478 3.61216
1.23256 -1.81945 3.53304
2.18235 0.319718 2.63301
1.12164 -2.26641 3.84071
1.21016 0.7896 2.69585
-0.178743 -0.63527 3.26578
2.06566 0.546678 3.0732
-0.0693394 0.171462 2.93574
-0.879473 -1.52634 3.42641
1.20484 -0.574905 3.0075
1.41166 0.754577 2.60912
2.11156 -0.0367164 2.93529
0.204174 -1.51905 3.52846
-0.225563 0.125389 2.97308
-0.216828 1.15673 2.95841
1.38254 -2.63784 3.56092
0.289338 -0.0365885 2.93546
-0.229893 -0.00840389 3.03482
0.0123476 1.16675 2.86829
-1.20274 0.113137 3.09134
1.43827 -0.761932 2.90581
0.134196 0.701797 3.01129
2.31547 -1.52479 4.22166
1.15473 -0.76193 3.11373
-1.16223 0.670174 2.89067
2.59013 -0.788068 3.19958
1.84359 -0.572004 2.85066
0.320953 -0.778962 3.30548
1.78332 0.0594246 2.76887
-0.24391 -0.844926 3.33506
2.75293 -0.867521 3.00319
-1.00428 0.79265 2.91933
1.53139 -1.47457 3.4343
1.64143 -0.827721 2.7296
1.61119 0.0261582 2.67378
-1.33561 -0.718932 3.27628
2.6409 -0.28725 2.98219
1.71726 0.700536 2.71444
-0.301477 -1.51188 3.53861
0.233306 1.24302 2.93896
-0.946423 -0.193822 3.10838
-1.19936 0.534979 2.76319
1.19915 1.25493 2.69977
1.27267 1.14238 2.67673
-0.0511227 0.00206129 0.836382
-1.01839 -0.158023 3.15434
0.282854 -0.98977 3.39568
1.86285 0.998359 2.54569
1.05472 1.17318 2.40512
-0.0602185 -0.111762 3.01307
0.200087 -0.914446 3.29037
1.18365 1.05174 2.54371
-0.711208 0.636835 2.99344
-0.888911 -0.00586057 3.07757
-1.20111 -0.0739962 3.10071
-1.07136 0.590061 2.90579
1.31149 -0.828397 3.04096
-0.917876 0.466833 2.96074
1.57944 -2.29856 3.42786
0.348057 1.44933 2.79095
-0.738232 -1.16403 3.41774
1.6031 -0.297401 2.73645
0.809438 1.0907 2.7655
1.46792 0.380417 2.71913
-1.04235 -1.07057 3.32585
1.19942 -2.28245 3.17318
-0.299383 -0.275314 3.06078
-0.0924804 0.832476 2.11994
1.23553 -1.85029 3.56435
-0.141712 1.17389 2.84552
-0.00105857 -1.06061 3.40458
-1.09348 0.532945 2.93606
0.573061 -1.75373 4.27847
-0.501626 -0.24207 3.10155
-0.458283 0.873202 1.89729
-1.15525 -0.248218 2.96859
1.08905 1.27493 2.49785
0.176657 -1.08573 3.62073
-1.71161 0.622165 3.63977
1.30306 -2.72121 4.02431
2.69769 -0.496132 3.01138
-1.04449 -0.197159 3.11275
-0.136412 0.84262 2.00492
0.389724 0.464699 2.90406
-0.491747 0.690012 3.53249
1.25362 -0.268279 2.8595
