ply
format ascii 1.0
element vertex 1840
property float x
property float y
property float z
end_header
-0.11959 0.877452 3.07783
0.100937 0.571984 2.99587
0.519726 0.130707 2.84628
0.127909 0.609243 3.00422
-0.0675884 -0.615623 3.19553
1.57367 -0.0174247 2.84313
-1.13853 -1.40165 3.20178
0.541307 0.660714 2.95318
0.011209 1.24793 2.65232
0.704737 -0.0376629 2.87092
0.73394 -0.855897 3.24776
-1.30294 0.637163 2.86804
-0.373894 -1.44754 3.54141
1.9511 -0.0323651 2.98128
2.53078 0.219472 3.67073
0.111189 -0.828922 3.29673
0.823823 -2.10674 3.55001
-0.868762 0.167011 3.03747
-0.448527 -0.806124 3.36769
0.700443 0.039817 2.90836
1.91458 0.218232 2.73522
1.02449 0.724917 2.84634
-0.947581 0.280024 3.03624
0.0694486 0.0274538 2.95651
1.6172 -1.07415 2.95417
-0.110542 0.69337 2.97458
0.387419 -0.739364 3.22738
-0.750948 -0.987155 3.32768
1.21975 -1.38844 3.41821
-0.772558 -0.177366 3.08783
-0.835754 -0.96579 3.4412
1.07562 0.514954 2.89514
0.160563 1.42286 2.71302
-0.340917 0.851524 1.92855
1.78323 0.828047 2.55813
-0.890716 0.152808 3.48387
-0.49611 -0.151371 3.13217
-0.470152 0.619518 3.05631
-0.477575 -1.02375 3.44591
0.0732306 -0.103521 2.99168
0.616891 1.25051 2.8703
1.20577 -2.58004 3.48759
-0.759025 -0.992164 3.59628
-0.0162943 0.601473 3.07265
2.47135 0.829876 2.88181
0.399062 -1.64049 3.51545
-1.42506 -1.50169 3.26297
1.06255 0.134893 2.7795
0.769965 -0.634923 3.13719
1.32656 0.798485 2.69493
1.33538 -2.06986 3.4619
-0.950581 0.124554 3.0775
0.387499 -1.55838 3.57546
1.8387 -0.969701 3.21864
-0.543415 -0.631627 3.31677
-0.843541 0.669601 2.3312
1.1486 -1.61421 3.72828
-0.181665 0.232976 2.9946
-1.17261 -1.14863 3.3878
-0.891375 -0.569559 3.23004
1.55763 0.842028 2.59359
2.19367 -1.05932 3.28378
2.14333 -0.146862 2.91258
1.26608 -1.52152 3.62286
0.42768 0.181742 2.89745
-0.672926 0.889708 2.95045
-0.270663 -0.530634 3.18556
1.53943 0.805221 2.59404
2.23422 -1.02672 3.20953
0.685731 -1.8478 3.58322
-0.731751 0.740135 2.9933
2.68881 -1.25738 4.27853
-1.11724 0.0266377 3.06717
0.970227 -1.5502 3.51854
-1.11624 0.727734 3.03606
-0.179985 1.08846 2.8829
-0.580889 -0.77422 3.28582
1.57736 -0.69094 2.92759
-1.04018 0.78379 2.81556
0.135365 0.636786 3.01762
1.11308 0.07661 2.81741
1.54779 -0.0205543 2.78429
-0.182726 0.766216 3.07845
0.323661 -0.70031 3.22007
1.83809 -0.502861 2.76795
1.32877 0.030023 2.73441
1.94339 0.638939 2.60415
0.361496 -0.965429 3.37734
-1.18397 0.612833 2.91705
1.87333 0.306199 2.67731
1.51591 -0.131372 2.77696
0.561185 1.5092 2.86682
-0.350199 -0.925341 3.42713
-0.735932 0.606335 3.09671
0.17982 -0.082831 3.00804
1.33601 1.20246 2.64947
1.65301 -0.764378 2.83011
-0.889098 -0.0551198 3.12622
0.148942 -0.0661783 2.95602
0.199835 -0.819587 3.31595
-0.916891 0.754175 2.58566
1.28424 0.601365 2.76973
0.825584 -1.50632 3.54805
0.249138 -0.0259443 2.97293
1.39021 0.962875 2.62908
1.65191 -0.292017 2.9155
-0.514512 0.774606 1.85322
0.932696 -1.16348 3.43753
1.63513 0.45871 2.83282
1.65852 -1.70335 3.74047
1.80372 -0.742488 3.00292
0.441542 -0.241983 2.99737
1.6556 1.02704 2.53683
-0.378608 -0.96974 3.42218
1.6113 0.386354 2.63154
-0.800662 -1.06283 3.35243
-1.11528 0.266907 3.76491
1.2964 -1.76282 3.84956
1.1663 -0.200264 2.77486
-0.563644 0.827969 1.88046
-0.983654 0.0584034 3.10562
-0.102964 -1.06175 3.45289
0.344955 0.518609 2.90655
1.07315 -2.20781 3.65106
0.235425 -0.174252 2.99942
0.0751563 1.28343 2.88089
-0.177283 1.13649 2.95897
-0.181237 -1.00013 3.3666
0.429542 0.481074 2.88185
-0.30787 -0.0843465 3.04079
1.6488 -1.06698 2.94957
1.24987 -0.8312 3.01081
0.192886 0.679219 3.07485
-0.63284 0.830894 2.52371
1.24646 -0.792811 2.99536
0.128128 0.608692 3.01047
1.2976 -0.0600392 2.66107
0.871594 0.591286 2.92625
-0.704499 0.555924 3.05071
1.57074 -0.724677 2.81845
1.30816 0.00147915 2.71472
0.0364645 1.28132 2.72855
-0.804597 -0.0230563 3.11936
1.29797 0.668696 2.76172
1.78688 0.58002 2.65485
1.88826 0.289748 2.712
0.747892 -0.74985 3.17863
-0.831317 -0.488996 3.18332
0.193957 0.710251 3.13867
-0.255288 0.912715 1.9714
-0.483364 -0.87528 3.3494
1.29434 0.981747 2.66819
1.08498 0.486844 2.87318
0.709033 -0.223955 2.97378
1.82646 -0.213822 2.81819
-1.30509 -1.00151 3.2345
1.01428 -2.20448 2.91042
-0.5775 -0.179656 3.16059
0.642243 1.25292 2.86248
0.397462 -1.00648 3.43979
1.38884 -2.5781 3.5726
1.52476 0.516463 2.68572
0.118667 0.169564 2.95772
0.121864 -0.132443 2.9816
-0.726687 0.586216 3.17504
1.37288 -2.07524 3.50803
-0.384587 -0.986663 3.46404
-0.936515 -0.391934 3.1987
-0.164501 0.380846 2.95355
0.581069 -1.71976 3.61697
-0.982379 0.0613187 3.10551
-0.887332 -1.22726 3.43128
0.224802 1.09986 2.9596
2.52217 -0.0317538 3.34489
-0.166241 1.1546 2.95324
-1.29747 -1.10322 3.16516
-0.0317271 -0.334376 3.09759
0.383271 1.0654 2.91757
-1.13864 0.381016 2.99083
1.37218 -1.2361 3.65304
0.120777 1.23924 2.43547
0.419181 0.455749 2.9084
0.967303 1.07778 2.42269
-1.36744 -0.297174 3.08411
1.03425 1.12547 2.73262
-0.0477856 -0.144565 0.803017
0.373461 0.427404 2.91837
0.874197 -1.14042 3.49429
1.11275 1.02381 2.53314
-1.3353 -0.265718 3.13737
0.960106 0.943297 2.83714
0.863072 1.08124 2.77379
1.72218 -2.09612 4.35573
-0.00655706 0.523508 1.44936
1.38316 0.241719 2.81795
1.81874 -1.20032 3.53535
-0.617719 -0.529956 3.37596
2.05891 0.889513 2.83768
-1.06373 -1.34244 3.40264
0.55327 -0.450303 3.08139
0.205399 1.04621 2.98129
-0.0463451 -1.38324 3.57015
-0.867773 0.339134 2.98462
0.0878475 -1.87318 4.32861
-0.361232 -0.41593 3.20189
-0.584649 0.684455 1.94567
-0.016113 0.563016 1.22706
-1.37164 -1.24829 3.33704
1.26701 0.270369 2.81541
0.57912 0.979953 2.89505
-1.1522 0.0241505 3.61037
0.0325462 0.68545 1.37016
0.218562 0.283715 2.90339
0.185589 -0.457375 3.08941
-1.19023 -0.388129 4.11094
0.090226 1.31671 2.24038
-0.275917 -1.3749 3.55727
0.57978 -0.410065 3.05669
-0.56778 0.730849 1.92934
0.0600545 -1.29303 3.4777
-0.297147 0.337983 2.9643
1.82977 -2.00782 4.42032
-0.775145 -0.385543 3.13419
0.538563 1.02052 2.93144
0.0302641 0.599678 1.57951
-0.190182 -1.31073 3.60447
1.24836 0.291309 2.81207
-0.677835 -0.648212 3.35439
1.42718 0.177824 2.78279
1.89265 0.192931 2.81897
-0.184108 -1.67265 3.74671
-0.433392 0.901844 2.88497
2.16276 -0.21792 2.94271
1.32107 -1.5383 3.52338
2.36677 0.814361 2.90407
0.550499 0.130761 2.86213
-1.41657 -0.63871 3.4619
1.55369 0.771352 2.60536
-0.923955 0.274327 2.96261
-0.564108 0.44186 3.02056
-0.783284 -1.46855 3.59958
-0.0389067 1.37039 2.89125
1.83953 -0.514003 2.92299
1.21265 -1.58692 3.47623
-0.635005 0.680572 2.01382
0.168894 -1.44676 3.62476
0.768404 0.20596 2.85866
1.78288 -0.284675 2.72738
-0.0743135 -0.503286 3.15842
-0.629268 0.67028 2.03385
1.97418 -0.646746 2.97206
2.05512 -0.818147 3.06846
1.68781 0.658592 2.56562
0.620799 0.0304165 2.91726
2.18277 1.0715 2.92314
0.610137 1.59443 2.86333
-1.48262 -0.734469 3.15152
-0.981502 -1.33448 3.43825
-0.0168976 0.827817 3.07554
1.5808 -0.641158 2.94834
1.29429 0.0961004 2.77222
1.4329 -0.624795 2.93703
-0.569947 0.78199 2.94121
-0.525819 -1.58615 3.48079
0.720183 -1.56728 3.5782
1.63155 0.067201 3.10496
1.36869 -1.55552 3.37256
-0.627194 -0.935747 3.37207
1.91306 0.0543196 2.64831
-0.94122 -0.299057 3.12302
1.00716 -0.0946509 2.89555
0.681073 0.621256 2.98163
-0.966961 -1.58674 3.34174
0.342466 -0.859125 3.29529
0.693805 0.587972 2.96222
0.0172193 1.27783 2.88544
-0.371066 -0.0713486 3.01729
0.0711589 -1.70323 3.54965
-0.423157 0.00396323 3.02181
-0.509208 0.719331 1.96062
-1.21033 -0.842061 3.38003
-1.00499 0.724173 2.89857
0.906117 -1.67822 3.61942
0.0858337 -0.0261995 2.98296
-0.048781 -0.772289 3.29716
1.91376 0.182605 2.74631
-0.36672 0.680427 3.07095
-0.719574 0.459728 3.04727
1.55929 -1.44658 3.30747
1.26767 -0.641275 2.85794
-0.467056 -1.04632 3.52866
0.567598 0.0791693 2.90144
1.25144 -1.91147 3.51113
-0.67789 0.807047 2.96468
-0.967283 -0.612129 3.32264
2.23317 1.00823 2.98867
1.34681 -0.60757 2.87153
0.264422 0.891508 3.08165
0.712868 -2.08707 3.55382
-1.22349 -1.57321 3.42197
-0.477733 0.126855 3.02474
1.6897 -0.569732 2.82466
1.39309 0.747341 2.68164
-0.359428 0.107617 2.97507
-1.07352 -1.4722 3.33306
-0.778777 -0.0592142 3.06855
-0.915741 0.777072 2.80796
-0.0153262 -0.882509 3.37195
1.19582 0.632729 2.8461
-0.847003 -0.317025 3.10979
1.56449 -0.744722 2.90492
-0.810882 0.667031 3.05274
1.98711 -0.000151132 2.62319
1.67774 -0.0411931 2.69636
1.8304 0.391199 2.81427
-0.68787 -0.786595 3.35945
0.148387 0.0348762 2.94054
0.742848 0.73252 2.93622
1.05359 0.710391 2.83752
-0.803967 -0.892528 3.37982
0.100074 1.32366 2.88292
-0.137902 -0.735207 3.26997
0.970935 -0.0043577 2.84873
0.0669862 -1.67082 3.55727
1.16124 0.682893 2.83042
-0.61434 0.415804 3.05205
0.730422 -0.99014 3.30342
-0.853423 0.042233 3.09212
0.60936 -0.185132 2.97304
1.99 0.176191 2.91141
1.61101 0.467975 2.59417
1.75212 0.819039 2.56456
-0.714834 0.871725 1.86062
0.570013 -2.28853 3.76929
0.453915 -0.143122 2.96682
0.0687773 -0.956009 3.34476
-0.515876 0.28714 3.23596
1.63173 0.538406 2.6761
-0.774044 0.699434 2.29267
2.33834 0.0218579 2.92338
-1.38208 -0.0998756 3.11506
-1.0756 -0.899843 3.35527
0.144538 0.535201 2.94553
0.794853 0.418966 2.91096
-0.742565 0.158473 2.68027
0.693311 0.550001 1.17991
-0.185212 -0.338934 3.13152
-0.258029 -1.23999 3.56256
1.12853 1.06975 2.7032
1.47071 0.0994356 2.72429
-0.163981 -1.09194 3.26914
1.04517 1.04029 2.76719
0.00314964 -0.284089 3.06721
0.686143 1.3887 2.85375
0.504876 0.380719 2.87687
-0.606793 -1.10317 3.3847
1.93775 0.326513 3.24023
-0.0713028 0.502409 2.97498
1.377 -0.252127 2.83295
0.203205 1.32469 2.73387
-0.383508 0.721932 2.10708
1.04681 0.451617 2.88705
1.13688 -1.05691 3.3511
-1.08819 -0.106496 3.12902
-0.894076 0.811342 1.96059
2.07225 -1.91316 4.34116
0.100456 -0.219268 3.03472
0.805468 0.693345 2.94549
0.230172 -0.0306265 2.99836
1.85493 -0.277212 2.78647
1.7931 -2.07623 4.52381
-1.40138 -0.804898 3.20753
1.64869 0.0102607 2.77794
-0.546366 0.680569 3.0208
0.784132 -1.447 3.41178
1.07561 -0.747149 3.07765
1.47327 -1.38718 3.33359
-1.01514 -0.762205 3.35869
-0.705297 0.0904436 3.06346
1.78268 0.327428 2.80572
-0.947568 0.786848 2.83595
1.52809 -0.031583 2.25804
1.27495 0.713738 2.76382
-0.330411 -1.33523 3.54181
-0.922717 0.748529 2.71925
-0.624363 0.0454901 3.06997
-0.807531 -0.728297 3.41938
1.4795 -0.86592 2.94899
1.90771 0.245952 2.7025
1.18358 0.567093 2.84446
-1.29193 -0.13847 3.10228
-0.323222 -1.66525 3.51527
0.300928 0.546286 2.93036
0.464191 -2.36342 3.56535
1.08007 -0.958473 3.41481
-0.40008 0.757412 2.07543
-1.33976 -0.0973123 3.22966
-0.264057 -0.868513 3.34512
-0.660216 -0.0620517 3.06856
1.48038 -1.40413 3.34438
1.74601 0.845383 2.55465
1.51855 0.785752 2.58084
0.946259 -1.64007 3.61216
1.17251 0.607332 2.85809
-0.902765 -0.301512 3.14313
0.506897 -1.62435 3.63075
-0.388859 0.782165 1.90483
0.198302 -1.2297 3.57518
0.871149 0.449181 2.89859
0.18371 -1.27806 3.54905
1.25649 1.08756 2.72035
1.52887 -0.264697 2.93623
0.190514 0.428296 2.91096
-0.445987 -1.11763 3.45183
1.72668 0.438064 2.70271
1.33534 -2.86851 4.21497
-1.06286 0.553962 2.99191
0.991361 -2.14128 3.3433
0.85473 -0.21801 2.98954
-0.130546 1.19689 2.83933
-0.427071 0.898959 2.65707
1.20216 -1.82188 4.07332
0.667794 -1.05785 3.36368
-1.28906 -0.949503 3.20375
-0.749792 0.676347 2.06743
1.07747 -0.174576 2.83787
1.34061 0.490032 2.79677
-0.556669 0.734116 3.07007
-1.48316 -1.2068 3.17723
-0.0380691 0.358245 2.95565
-0.702303 -0.435027 3.22181
1.04049 1.00565 2.75549
1.5724 -1.2667 3.38886
1.20372 0.991761 2.59631
1.47187 0.293574 2.74188
0.870224 -0.357999 3.00597
0.163845 0.83746 1.77761
-0.101527 0.957716 2.55827
1.44267 1.00601 2.58403
2.72195 0.887604 2.82048
0.964762 0.378681 2.89654
0.888002 -1.75897 4.15752
-1.27445 -0.356132 3.1706
0.0843583 1.14884 2.27794
1.36245 -1.78609 4.20775
0.66115 -1.17495 3.31231
-0.745608 -0.250468 3.05746
-0.688678 0.687041 1.96447
1.97047 -1.09272 3.37502
0.579868 0.484441 2.93735
1.36505 0.972647 2.61357
0.602816 -0.221089 2.93438
-0.611208 0.759243 1.86665
2.05499 0.28547 2.89373
1.38138 0.486561 3.0478
-0.938001 -1.08457 3.51164
1.03321 1.19219 2.49357
0.408346 1.31432 2.90851
-1.29305 -0.181898 3.12582
0.014165 -0.109054 0.6899
0.860517 -0.971511 3.21688
0.717848 0.536978 2.92518
0.953096 1.16176 2.38244
-0.566293 -0.139463 3.10904
-0.409925 0.895206 1.91591
0.0795698 1.22338 2.70213
0.860204 -1.63224 3.61666
-1.07239 -0.982802 3.4637
0.749598 0.521535 2.9464
-0.958801 0.408416 2.94952
0.161036 1.5106 2.75288
0.208303 -1.29956 3.58031
0.34918 1.09277 2.92083
-0.193836 -0.373835 3.11838
0.754662 0.337623 2.9168
1.48796 -1.60549 3.95009
-0.627002 -1.16693 3.36451
-0.0763404 0.916668 2.37899
1.12116 -0.320037 2.89135
0.136758 1.27562 2.32274
-0.962377 -1.12543 3.36832
0.828629 1.19466 2.45885
-1.22517 -0.302613 3.1612
-0.223725 -1.09416 3.41285
-0.0382526 0.438708 2.96668
-0.290218 -0.0220302 1.49888
-0.398413 0.771284 1.92177
1.56249 -2.25278 4.00048
-0.211159 0.96907 2.89987
1.32267 -2.34354 3.98037
0.478567 -0.542188 3.16003
0.289446 -1.557 3.74514
-0.151251 0.258001 2.96534
0.0454907 0.539182 1.34517
1.49967 -0.460467 2.82656
0.325639 0.949581 3.03394
0.51702 -0.185312 0.369579
0.991672 -1.5359 3.76872
-0.801109 0.231671 2.98481
0.798029 -0.440018 3.04655
0.00894515 0.572697 1.30083
-0.360596 0.740499 2.01194
2.28627 0.13815 2.97532
0.976774 -1.39899 3.53945
1.14575 -1.65158 3.53233
0.139317 0.305738 2.89357
1.15422 -0.387446 2.85812
-1.2529 -0.354956 3.93368
0.910852 0.94337 2.81675
0.398694 -1.30945 3.47359
1.81263 0.27603 2.7715
2.06649 0.600486 2.65346
2.00933 0.37252 2.76192
1.5168 0.146963 2.86714
1.09015 -1.76356 3.79159
1.40048 0.785281 2.64955
-0.00525893 -0.66519 3.24258
1.05834 -1.57542 3.56655
-0.327233 -1.09386 3.49564
0.614612 0.0966723 2.87645
-1.27778 -0.64144 3.31891
0.0453422 0.828331 3.04802
0.414223 -1.49676 3.52023
1.65817 0.606386 2.64441
-1.40148 -0.603882 3.3053
1.92414 0.299239 2.84047
-0.879256 0.196622 3.03982
-0.293716 1.40985 2.92508
-0.54747 0.671654 2.15701
1.27716 -2.43358 3.46799
0.422187 -1.60848 3.61667
0.558268 0.166152 2.86476
2.09504 0.296232 2.7528
1.20801 0.827824 2.73679
-1.13676 -0.646782 3.28527
2.29544 -1.16708 3.26694
1.58884 0.123653 2.72274
1.26291 -1.66972 3.49696
1.19816 -1.57415 3.62802
1.23794 -0.561406 3.02566
-0.250222 0.845972 3.01881
0.357088 -1.46957 3.56285
-0.404846 0.982995 2.96066
1.69794 -0.501659 2.81355
0.775167 1.43131 2.8453
1.48801 0.195134 2.77283
-0.286993 -1.41166 3.53474
2.26263 0.24428 2.75094
-0.691174 0.664553 2.0312
2.11128 -0.433985 2.80747
0.860329 -2.21522 3.54143
-0.356824 0.749813 3.03875
0.134305 -0.790745 3.24329
2.38682 -1.54031 4.43918
-0.89133 0.0443609 3.07497
0.837903 0.687834 2.89355
-0.230226 -0.778211 3.33853
-0.983246 -1.10319 3.40953
1.11273 -0.0081293 2.80111
0.74508 -1.80541 3.56463
0.537039 -0.711159 3.24398
0.0867465 0.819206 3.05012
-0.867735 -0.309055 3.11476
1.45953 0.0955073 2.92577
-0.899855 0.775997 2.67336
-0.45976 0.793836 3.09151
1.54611 -0.603944 2.8596
-0.84806 -0.315926 3.11038
1.79607 0.071234 2.8296
0.0319647 -1.65139 3.61087
1.92131 -0.0495115 2.64065
-0.215713 -0.941868 3.41773
-0.164915 0.910843 1.95835
-0.0248119 -0.107438 3.00772
-0.00891873 0.827615 3.736
-0.708851 0.552018 3.04097
0.250547 0.58646 2.94591
-0.323926 -0.876368 3.39738
1.40013 -0.0652785 2.82527
0.381776 -0.833774 3.31457
1.76801 1.04687 2.55561
-0.911227 -0.0279815 3.1016
1.81427 -0.747267 3.02825
1.80052 0.892385 2.53769
1.49073 -2.21347 3.48021
0.809194 0.648563 2.91379
1.16405 -0.24131 2.86065
-0.763078 -0.666088 3.26942
1.44852 0.804731 2.56567
-0.732385 0.687928 1.97572
-0.422863 -1.16719 3.59446
1.473 0.466761 2.76679
-0.688166 0.757374 1.8391
0.397562 -0.214181 3.05073
-1.03732 -1.02005 3.26772
-0.566217 0.476633 3.05196
-0.859754 -0.45716 3.17901
0.880343 -2.09237 3.66764
-0.703945 0.594591 3.18995
-0.648492 -0.191488 3.11207
1.03959 1.16931 2.53361
-0.873048 0.225118 3.04006
1.44771 1.15463 2.59903
0.986955 -2.25377 3.44142
0.503057 -1.01219 3.37358
0.2505 -1.00498 3.5132
-0.467409 0.83472 1.89963
0.829438 -0.143572 2.93743
0.769415 0.509473 2.95287
0.315258 -1.68756 3.59145
0.764039 -1.63589 3.74938
0.0948518 -0.0642503 2.96266
-1.2583 -0.839177 3.17731
0.951207 0.646298 2.91258
1.47908 -0.743939 2.88736
-0.986417 0.235092 2.99431
0.316484 -1.91109 3.6007
-0.946124 -0.0285783 3.08275
0.141692 -1.66267 3.59464
1.69297 0.577801 2.67202
-1.07126 0.04377 3.01083
-0.488793 0.714141 1.98687
-0.943131 -0.790824 3.35021
0.199333 0.762747 3.0883
-1.01782 0.365174 3.02774
0.507346 0.00619072 2.9517
-1.4064 -0.757761 3.2587
-0.0979728 0.950685 2.03509
0.301223 0.730568 3.04693
-0.946581 -0.0718949 3.09866
-0.106224 -1.41982 3.54996
0.0113534 1.22462 2.80178
-0.0502966 0.524361 3.00866
0.863481 -0.181789 2.97976
-0.767779 0.158477 3.05743
-1.49506 -0.99237 3.26894
1.72522 0.758463 2.58501
-0.89139 0.193285 3.61247
1.051 -0.148729 2.85068
-0.187223 -0.959055 3.37946
0.36314 0.579379 3.0085
1.10569 1.10846 2.52619
1.92336 -0.551882 2.90937
-0.112938 -0.120424 3.08226
1.72428 0.508951 2.65064
0.379108 1.21944 2.92078
0.396302 -0.90528 3.26867
0.217668 0.415649 2.91802
0.580437 -2.05232 3.56242
0.378181 -1.27144 3.58403
-0.164397 -0.353108 3.11612
1.36446 1.03385 2.61016
-0.677483 -0.101577 2.15955
0.51051 -1.70942 3.82086
-0.890572 0.403001 2.94838
-0.473656 -1.20939 3.55497
0.56577 1.37946 2.86599
1.35117 1.00572 2.60142
-0.0453437 -0.305904 3.09903
0.327296 1.48954 2.70041
-0.855197 -1.07911 3.34765
1.03721 0.472912 2.91073
1.91679 -2.60959 4.5291
0.584129 -0.276754 2.97508
-0.308641 0.798527 1.88363
-0.205559 1.13752 2.95333
-0.463907 0.47386 3.03676
-1.18067 -1.01658 3.30085
1.41617 0.729635 2.62046
-0.830122 -0.238388 3.14412
0.39575 1.13192 2.8666
-0.798872 0.691624 1.95947
-2.09127 -0.767686 4.60077
1.59788 -1.89402 4.30227
1.11607 0.260614 2.80055
0.0827789 0.76343 1.54832
-1.14981 -0.469419 3.13971
-0.533933 0.695571 2.04281
0.645105 -1.48931 3.73
-0.00528456 -1.42901 3.68877
1.06918 0.238322 2.87207
-0.238028 -1.212 3.51964
-0.68296 -0.43312 3.25616
1.00903 -2.17639 4.09911
0.4234 1.0391 2.8732
2.43446 0.834369 2.8975
1.06165 -1.30021 3.37525
-1.33036 0.3759 3.00307
1.6707 -0.367392 2.74954
1.50025 -2.25605 4.5048
1.47741 0.932538 2.5934
-1.53469 -1.23503 3.33275
2.30202 1.02914 2.98031
0.788006 0.292769 2.91422
1.08633 -0.973479 3.29591
0.9583 0.573612 2.91371
-0.167168 -0.139636 3.0775
0.158119 -0.93163 3.32765
-0.487183 0.567308 3.05942
0.745713 1.38388 2.84186
-0.83943 -0.110553 3.10588
0.578538 1.26685 2.8727
-0.918793 0.775648 2.79802
0.231018 0.659539 3.13837
-0.785666 -0.566659 3.23781
1.47614 0.766643 2.55243
0.859532 -0.0879348 2.91466
-0.483368 0.806728 2.42395
-1.21793 -0.872987 3.3448
1.78995 -0.209959 2.74977
0.619399 1.33804 2.8647
1.31082 -0.281967 2.80399
0.492483 1.13567 2.89402
-0.869949 0.424278 3.47745
0.265029 -1.2197 3.57752
0.723606 0.460374 2.92923
0.460601 -0.107666 0.239351
0.796423 -0.261641 2.98177
-0.314733 0.784313 1.94953
-0.317742 0.42641 3.00618
-1.46691 -1.05409 3.19644
0.386008 -1.067 3.41067
1.2516 0.493152 2.8138
1.77387 0.323877 2.79241
0.632034 -1.9013 4.51116
1.78962 -0.218062 2.76534
-0.568366 0.853002 1.88067
0.139544 1.41607 2.66845
-1.42098 -0.965616 3.21573
-0.913704 0.512405 2.96231
-1.13787 -0.00468734 3.68743
-0.491707 -0.178911 3.08367
-0.413423 0.899507 2.65593
-0.676912 -0.101997 2.15947
-1.27258 -1.25058 3.31785
1.8541 -1.87366 4.32231
-0.96134 0.0383446 3.09987
-0.81383 -0.430461 3.2235
-0.789813 -1.25765 3.46655
2.71545 -0.140147 3.75732
0.684951 0.299908 2.89792
0.244519 1.3857 2.79563
-0.400807 0.731203 1.99746
0.13675 1.08437 2.90847
1.83002 -0.362768 2.82246
2.51539 -0.942174 3.15643
0.695439 0.371317 2.90161
1.23881 -2.34946 4.28399
1.54376 0.943774 2.47698
-1.06224 -0.358512 3.23832
1.13489 0.332863 2.85581
1.66514 -1.12756 3.11728
0.453238 -0.583048 3.1681
0.880184 0.899467 2.88578
2.18929 0.345361 2.62241
-0.181056 -1.46342 3.37539
-0.406088 0.214599 3.06211
1.10655 -2.41338 3.86754
0.436123 -0.537454 3.15754
0.223329 0.873431 2.98972
-0.0960856 0.461409 1.42334
1.33457 -1.50851 3.57809
0.574481 0.167119 2.84877
1.44151 -2.46005 3.99948
-0.515998 -1.46085 3.65783
0.307332 0.27583 2.90581
1.37637 -2.06593 3.48492
2.1507 0.262254 2.64257
1.54442 0.905618 2.60096
-0.485735 -0.490185 3.1463
-0.804516 -1.32339 3.43592
0.935121 0.249739 2.87952
2.11666 -0.186579 2.93725
0.354936 -0.4575 3.08257
0.41792 0.981601 2.97634
2.30874 0.544626 2.68843
1.05402 -1.30444 3.49012
-0.480633 0.386435 3.0078
1.35759 -0.360208 2.84968
-0.483812 0.751168 1.93168
-0.329123 -1.23863 3.49743
-0.929901 0.362805 2.94105
2.47997 -0.156501 3.56444
0.699738 1.03475 2.85235
0.177649 -0.348487 3.05416
0.116839 1.44739 2.67305
-0.710766 0.726115 1.81526
-0.955603 0.0294125 3.09134
1.40817 -1.09811 3.16177
-0.537748 -0.316981 3.12861
0.880454 1.15021 2.46328
-0.591703 -0.971825 3.46357
-0.41535 0.427288 3.02391
2.67668 -0.169785 3.74667
0.0144912 0.958699 2.96188
0.820662 -0.52125 3.07964
1.29268 -2.44825 3.98648
-1.30299 0.281076 3.02212
-0.85835 -1.44419 3.52778
1.89904 0.417632 2.64712
-0.794791 -0.483731 3.0778
0.122596 0.951832 3.04756
2.67606 -1.9993 3.65479
-1.2536 -1.33489 3.37454
1.58749 -1.79402 4.28734
-1.20164 0.232711 2.97583
-0.712252 -0.475282 3.26078
1.73238 0.288208 2.75134
2.10257 -0.14322 2.93132
-1.22386 -1.29099 3.36285
-0.617105 0.695417 1.95001
1.95637 0.0604292 3.01518
1.04368 -2.2407 3.85489
-0.578082 -1.29314 3.43615
-1.03526 0.305048 3.00146
-0.27901 0.749125 2.11718
1.94617 0.491737 2.63572
0.958265 -0.407732 3.00545
1.24262 -1.657 3.56793
1.30375 0.125762 2.78479
-0.129067 -0.667579 3.27299
-0.690388 -1.55283 3.25848
0.585128 0.843265 2.94935
0.782977 0.0940456 2.89722
-0.929195 -1.50556 3.40404
1.03006 -1.76813 3.55629
1.07234 -0.59887 3.02662
0.353389 0.81474 3.01168
2.02935 0.473667 2.61956
-0.634492 1.13515 2.85884
1.50396 0.79567 2.58911
2.17047 -0.0302857 2.91587
-0.612993 0.174543 3.03819
-0.316993 1.41548 2.94107
-1.39685 -0.591242 3.20202
-2.30699 -2.44226 5.48962
-0.348035 -0.853504 3.34983
0.59849 -0.0371521 2.91828
-0.337918 0.770355 3.19209
-1.02366 0.107335 3.06342
-1.34986 -0.809769 3.19532
-0.724389 0.00846236 3.05903
0.521734 -2.0723 3.57414
2.14383 1.00579 3.04584
-1.00256 0.681248 2.9059
0.112893 0.598694 3.00655
0.517427 -0.785626 3.22635
-0.582692 -0.920903 3.35924
0.363375 0.074041 2.92905
0.241373 -0.746954 3.27727
0.696195 0.765894 2.94419
0.0454329 1.32001 2.85232
0.450199 -1.85457 3.58414
1.2018 0.014897 2.78591
0.860673 0.728696 2.91823
0.834838 -0.683249 3.14611
-0.233683 1.00447 2.74478
-0.314431 0.723018 3.0066
1.79999 -0.564213 2.84
0.102501 -0.794304 3.27968
0.348542 0.0206125 2.95448
-0.279432 0.568599 1.83388
0.405415 0.711052 3.04332
-1.11805 -1.03136 3.33893
1.03675 -0.72728 3.0859
1.69818 -0.0114084 3.10886
-0.0496571 -0.700524 3.28144
1.01672 0.0773499 2.8217
-1.10335 -0.103897 3.14015
1.92703 -0.164953 2.88618
0.167234 0.806017 3.03107
1.37875 0.194669 2.01439
1.55541 0.694801 2.61812
-0.844097 -1.59814 3.44969
0.470742 -1.54976 3.58208
1.85861 -0.283234 2.72602
0.883402 0.0516302 2.89455
-0.99668 -0.685964 3.31314
1.48076 0.569674 2.66168
0.714951 -0.919711 3.27194
0.614481 -0.119665 2.96109
0.575185 -1.77194 3.72997
-0.940773 -0.886402 3.36133
1.39969 0.532431 2.69306
-0.995265 0.262812 3.054
-0.582932 -0.0847684 3.08573
1.76888 -1.05341 2.99298
1.20424 1.24161 2.72863
0.0992455 0.66116 3.00725
0.257664 1.63302 2.79039
1.27236 -0.0544464 2.79202
-0.97316 -1.35311 3.41087
0.571284 -0.848264 3.32197
-0.0551108 0.00663549 0.839365
-0.0423397 -0.253243 3.07489
-0.56364 0.777648 1.84839
1.22478 1.07896 2.57585
0.689029 -1.12914 3.41559
-0.819362 0.521573 3.05848
0.590476 -1.75224 3.65196
-0.660264 -0.241219 3.13951
0.299289 1.14858 2.93385
0.845529 -2.14944 3.44306
0.646689 0.44797 2.90802
1.24454 -1.01828 3.18979
1.88884 -1.8662 3.41727
-0.914603 0.624577 3.23344
0.940161 -1.85785 4.35392
-0.186315 -0.193585 3.0646
1.27913 1.20423 2.69268
0.911528 -1.78963 4.19927
-0.855185 -1.0302 3.42976
-0.0142969 -0.0959905 0.798338
0.46207 -0.993579 3.41922
0.92145 0.512068 2.88649
1.44798 -0.151977 2.766
0.000739425 1.23032 2.72951
-0.178555 1.14972 2.96055
-1.16069 -1.1756 3.26927
0.976967 -1.90497 3.93156
-1.00723 0.395383 2.91775
-1.3304 -0.39815 3.1872
0.0576879 1.0947 2.93104
0.4388 -1.25417 3.52665
0.591118 -1.68413 4.16551
-1.38763 0.370538 3.00213
-1.1045 -0.216036 3.12058
-0.54373 0.734232 1.95064
0.296643 -0.360579 3.0772
0.894983 1.06477 2.76517
0.0716967 0.615939 1.32756
0.898379 0.415 2.91013
0.998282 1.05964 2.49419
-1.35598 -0.326762 3.16853
0.0337631 1.13528 2.41431
-0.0412679 -1.19382 3.46966
1.33824 -0.219784 2.80289
-0.483744 0.824693 1.89043
1.89362 0.297343 2.82022
1.15337 -1.06076 3.31429
-0.331578 0.529705 3.05562
-0.0250828 -0.192888 3.06609
0.733469 1.1468 2.82061
1.14993 1.24295 2.72779
0.821526 -1 3.2467
1.25889 0.462438 2.82478
0.797325 0.148837 2.87684
1.36511 0.891348 2.60949
0.638488 -0.151857 2.96823
0.340555 1.39996 2.85324
1.75892 -0.898849 3.02171
-0.0440549 0.660722 3.21301
-0.90829 0.249801 3.40208
-0.439033 -0.108363 3.05212
0.486464 1.28136 2.88457
0.581422 -1.51379 3.6007
-1.4067 -0.903221 3.23041
1.47598 0.50494 2.69245
0.797693 -2.25008 3.58237
-1.50475 -1.18762 3.29819
-0.80847 0.438791 3.01068
-0.0740264 -0.0340229 1.01377
1.04823 -0.341846 2.91616
1.03884 -1.95751 3.81279
-0.472112 0.747648 1.89724
0.021593 -1.17081 3.43297
1.61652 0.340184 2.66663
0.647808 1.07422 2.90741
0.197366 -0.318786 3.05532
0.0664792 1.39647 2.49519
0.412019 -1.17186 3.5545
1.80519 -2.42299 4.13609
1.03813 -0.257956 2.87413
-0.499542 0.448601 2.98826
0.10044 1.31632 2.64882
0.133845 1.12206 2.88132
1.44977 -1.49696 3.70377
0.380057 1.00275 2.99646
0.257909 -0.494966 3.11883
-1.51718 -0.232451 4.42751
1.33306 0.246148 2.78619
1.01173 -1.41632 3.46098
-1.12169 -0.616011 3.31003
0.0149559 0.610138 1.52841
1.30015 -0.440864 2.87412
1.0119 0.922156 2.7877
1.07633 -1.3692 3.46947
0.117253 0.244613 2.90717
-1.21528 0.0664761 3.52293
-1.18319 -0.438917 3.20612
0.863783 0.330074 2.9077
2.05652 0.310328 3.18901
0.535728 -1.35706 3.57434
0.0115855 1.05201 2.91467
2.09501 0.451336 2.63018
1.19154 -1.88415 4.07478
-0.996521 -1.26538 3.48144
0.701902 0.988053 2.85612
2.17491 -0.118789 3.17718
1.60974 -0.359758 2.74751
-1.37809 0.325444 2.95922
1.72243 0.163525 2.74575
-1.27042 -1.42184 3.16121
1.4715 0.786262 2.60278
0.0765737 -0.630128 3.19854
-0.486912 -1.49098 3.47915
1.51484 -1.91348 3.44289
-1.17535 0.145745 2.95695
1.68882 -0.538113 2.77759
2.13229 0.209407 2.89431
0.159201 0.838287 2.99759
1.24829 -1.5804 3.73131
0.706761 -1.4569 3.56827
-0.0837136 0.926191 3.03331
-0.0215373 -0.548176 3.16979
1.9373 -0.213299 2.8828
1.73175 0.202174 2.74677
2.10397 0.336225 2.64591
-0.324894 -1.04327 3.47911
1.47782 0.418704 2.69578
0.321172 1.33213 2.90479
1.0457 -2.35892 3.30206
0.995286 -0.309384 2.91928
-0.638768 0.757717 1.86741
1.53511 -1.13811 3.23916
0.230303 -1.13496 3.50457
-0.20215 0.785191 1.96111
0.997595 -1.49201 3.67325
0.907008 -0.257527 2.97821
1.74264 0.453195 2.70006
-1.03093 0.454822 3.04756
-0.256894 -1.05919 3.35604
2.035 0.0685885 3.14472
-0.883192 0.563884 3.08191
1.37482 -0.219033 2.81462
0.0974073 1.36034 2.62329
-0.567785 0.835244 1.87882
-0.525952 0.486432 3.018
-0.0837154 -0.0325549 1.02671
-0.489941 -1.08907 3.56818
1.07695 1.13435 2.69648
0.630207 -0.109858 0.374258
1.75145 -0.205434 2.80281
-0.354539 -1.31898 3.49879
0.246788 1.03891 2.98709
1.43935 -3.06348 4.67443
1.42175 -0.392015 2.82962
0.070856 0.610833 1.40337
-0.199157 0.310842 2.99716
2.7186 -0.469424 3.85643
0.196786 1.48422 2.64501
1.23266 1.05099 2.7373
0.03872 -0.373779 3.10435
1.46162 0.381773 2.91791
0.263574 -1.29544 3.53968
1.40732 0.979301 2.62125
1.23606 -0.34655 2.84117
2.20952 -1.78533 4.35708
0.057259 0.933164 1.87593
-0.986813 0.36266 2.96189
-0.866822 -1.1946 3.40977
-0.9402 -0.577934 3.15033
2.07576 0.4231 2.63677
-0.0924163 0.205283 2.957
-1.00141 -1.42265 3.30924
1.24159 -2.36181 3.91427
1.2623 0.875032 2.7456
-0.307066 0.904221 3.0656
1.0125 -1.58471 3.746
2.44059 1.08278 2.91808
1.72855 0.152474 2.73192
0.337331 -0.530815 3.14492
-1.22024 0.339857 3.68178
-0.601513 -1.63086 3.42236
-0.149209 0.281859 2.96479
0.918577 -1.56256 3.81248
2.43923 1.10903 2.8632
1.18542 -1.80387 3.52142
1.03547 -0.464659 2.92567
-0.0701095 1.00647 2.99885
2.32817 0.619669 2.75649
0.538264 -1.46642 3.73225
-0.311718 0.253225 3.00274
2.31897 -0.213693 2.92037
-0.202177 -0.464355 3.17151
-0.728359 0.676287 1.98476
-0.00416953 0.766248 2.99097
0.277283 -2.01415 3.59885
-0.671642 0.0672246 3.05244
-0.985403 -0.573509 3.30399
-0.667539 -0.733017 3.40544
-0.410613 -0.928145 3.39969
-0.112716 1.35311 2.90413
-0.822781 0.668905 2.25702
0.450515 -0.650276 3.14492
-0.540923 0.128476 3.00916
0.400375 -1.61871 3.54922
-0.899337 -0.668075 3.40298
1.32354 0.74388 2.69973
-0.402817 -0.958024 3.4284
-0.508302 -1.55867 3.50559
0.465229 0.0929277 2.88109
1.20023 0.903242 2.75832
-1.34141 -0.561384 3.2301
2.18857 0.964096 3.04347
1.91759 -0.490977 2.797
-1.75037 -1.50448 3.52941
1.47307 0.236914 2.84649
2.41976 -1.28319 3.7773
0.48081 -0.511356 3.14138
-0.413754 0.684936 2.10552
0.0875241 0.695948 1.45821
2.52975 -0.784423 3.7094
-2.22352 -1.91726 4.62604
-1.12509 0.233411 3.05333
-0.836245 0.320761 2.96648
2.3831 -1.3015 3.2578
-0.998941 -1.37561 3.46272
0.368163 1.04748 2.98629
2.32476 0.964036 2.93273
1.58226 -0.438143 2.85832
-0.755642 -1.31873 3.50478
-1.32937 0.309546 3.01652
-0.707714 0.69414 1.97161
1.09217 -2.2021 3.70496
-0.0243453 -0.432245 3.17336
2.1022 0.356075 2.62912
0.876392 -1.69812 3.68166
2.09163 -0.154083 2.9171
1.24493 -0.628424 2.97405
0.787993 -1.69121 3.64394
-1.37872 0.118659 3.08407
1.26448 -2.49523 3.46967
-0.566742 0.821726 2.95681
2.21513 0.273475 2.63975
1.28314 1.02835 2.7134
1.30025 -0.572993 2.84264
-0.665245 0.643281 2.07408
2.10608 -0.00781592 2.92387
1.18228 -1.7197 3.78445
-0.198298 0.186617 2.99386
0.50119 -0.594108 3.20786
1.06168 0.806807 2.81361
1.67355 0.118943 2.75932
-0.0800245 -1.56893 3.63691
-0.0509094 0.684348 2.97907
1.14984 -0.0408386 2.80486
0.0867054 1.28038 2.76926
-0.54279 0.000660636 3.0658
-0.371419 -1.37915 3.52906
1.39959 -0.74892 2.91817
-0.915681 0.674446 2.93904
2.26489 0.937399 3.2062
-0.552777 0.594554 3.0555
0.878469 -0.769919 3.14635
1.42851 0.0472698 2.86779
-0.54747 -0.769532 3.30272
-0.867252 -0.562938 3.17998
-0.314026 0.786338 3.03612
0.800226 -1.52642 3.71742
-0.925233 0.0377364 3.08
-1.10725 0.230313 3.03184
-1.00851 0.775297 2.99947
0.0500624 -0.706793 3.24193
0.177862 -1.7498 3.59394
1.83805 -0.164845 2.86771
-0.0824984 -0.959199 3.37772
0.314537 -1.72296 3.62573
-0.186513 -0.144119 3.05447
0.0701305 1.2372 2.78096
0.954835 0.540328 2.89635
-1.02215 0.369487 3.03135
0.251666 1.30438 2.91584
1.82176 0.885538 2.54455
-1.16353 -0.109106 3.12657
-0.495696 0.63709 3.07105
1.49324 -0.82324 2.84436
-0.279306 -1.0761 3.48743
-0.26961 -0.0785934 3.06041
-0.305248 0.494571 3.29058
1.64872 -0.796488 2.88525
1.20243 0.544656 2.80607
-1.25618 -0.910625 3.26698
-0.00555211 -0.0489876 0.66401
-1.30012 -0.111687 3.1075
1.79028 0.506245 2.6548
0.202163 0.566033 2.93874
-0.801463 0.4177 3.0484
-0.650363 0.703271 2.20442
0.585775 -0.0760573 2.93459
0.503002 1.2583 2.89336
-0.593238 0.67998 3.09169
0.267771 -0.893101 3.31755
2.03392 0.211456 2.82101
-1.26544 -0.0421404 3.08051
1.03283 -0.840648 3.26994
0.595093 0.614315 2.98329
0.677967 -2.12188 3.16115
-1.28927 -0.287711 3.19929
-0.745702 0.752392 1.79274
-0.720501 -1.11883 3.42454
-0.274927 0.483372 2.98803
0.519686 -1.74824 3.61911
-0.202793 -0.229484 3.10008
0.430443 1.13796 2.90871
1.56918 -2.05835 3.43491
-3.40985 1.10839 7.05097
0.601291 -1.08078 3.38368
-0.774323 -1.05643 3.48412
-0.832949 0.751186 4.00005
0.960396 -1.45987 3.50541
0.987749 0.533051 2.9063
0.655819 -0.198883 2.94855
1.09494 -2.27361 3.77349
-0.854701 0.227351 3.03533
-0.32226 0.800773 2.09879
0.0605889 0.519574 2.97266
1.14589 -0.973346 3.27951
0.507676 1.35348 2.88988
-0.30506 0.898205 1.93697
-0.732351 -0.157038 3.1179
0.853434 -1.35047 3.65771
1.05419 -2.00994 3.74015
-0.985182 -0.392723 3.15349
-0.268641 -1.12416 3.49381
-0.0648628 0.346276 2.96511
0.0471884 1.35724 2.64194
2.08612 -0.980572 3.60305
-0.762932 0.706307 1.89747
1.75263 -0.351442 2.7218
1.61288 1.00729 2.53237
2.50311 0.700273 2.7952
1.55482 0.366956 2.51135
2.28045 -1.26825 3.55507
-1.06231 -1.09054 3.10158
-0.671716 0.733013 1.92055
0.399682 -0.314602 3.07608
-0.247017 0.36505 2.95089
0.492851 -1.28691 3.68499
0.153635 -0.551268 3.15025
2.33119 -0.151158 3.02045
-0.229819 0.239567 2.98152
-0.736645 -1.45796 3.52486
-0.551327 -1.55977 4.82543
1.67921 0.853867 2.54614
1.36688 0.833143 2.64544
-0.92822 -1.39539 3.48539
0.28287 1.37746 2.90642
-0.0451658 0.211954 2.94331
0.876489 -0.503736 3.02958
1.55414 -1.75215 4.07559
-0.685478 -1.35064 3.46463
-0.794763 0.32562 3.00606
2.35607 -0.211024 2.89688
1.12871 -0.428618 2.87802
0.672721 0.996766 2.86832
2.28079 0.630687 2.7609
-0.128978 -1.33844 3.57142
0.0917096 0.264739 2.895
2.38332 0.898159 2.93454
0.694618 -2.45467 3.99194
-0.722109 -0.434487 3.1676
0.612703 0.980558 2.9004
-1.3923 -1.14101 3.16723
0.064248 0.411328 2.92371
1.15192 -0.349008 2.86552
-0.784899 0.730852 1.8483
0.596829 -1.22114 3.51682
1.35209 -1.99058 3.97683
0.268943 0.352744 2.89709
-1.06981 -0.130854 2.95957
-0.827717 0.716452 1.85854
1.06919 -0.312278 2.86378
0.189265 1.15614 2.95261
0.0795434 1.31176 2.44144
1.34688 0.425792 2.79603
1.04933 1.02468 2.49014
-0.451209 -0.300249 3.10711
-0.996196 -0.0125981 3.10599
-0.652718 -1.11454 3.39485
0.293622 -1.87243 3.62653
0.387788 -1.42494 3.54455
1.32844 -0.468565 2.83609
-0.491105 0.701573 2.02319
1.22238 0.262632 2.84204
1.05238 -1.60967 3.71235
0.548389 -1.50087 3.6621
-1.38019 -0.494313 3.24437
0.621635 0.956284 2.92783
0.0596662 0.941967 1.95725
1.64561 -2.61848 4.0602
-0.952135 -1.38858 3.56705
0.652241 0.223037 2.905
-0.598652 0.337331 2.99247
1.5799 -1.89884 3.43021
1.39762 -1.30899 3.34662
0.0586549 1.04649 2.91937
2.3384 0.24636 2.74557
-0.623934 -0.447893 3.18989
0.620667 0.280174 2.90471
0.456276 -1.28571 3.48369
1.21106 -1.72394 3.99886
-0.79603 0.684459 1.88429
0.564718 -0.38804 3.04522
1.10126 -1.66401 3.60593
-0.0694101 -1.58 3.53295
-0.51 0.160615 3.00819
-0.279952 -1.08179 3.48392
-1.44068 -0.614741 3.04716
0.775308 0.854018 2.8715
0.853958 0.113615 2.88741
-0.80886 -1.44977 3.35503
1.5868 -2.13819 3.42738
0.374582 -1.74562 3.63813
-0.544012 -0.575043 3.10464
0.348138 0.843804 2.98641
2.00139 -0.780996 3.25315
0.668542 -1.62601 3.61994
-0.45206 0.678813 2.10565
1.92791 -0.961315 3.24291
1.30434 0.190692 2.78931
1.80945 0.307321 2.81647
1.25917 -0.525929 2.91392
0.78132 -1.71833 4.0414
1.31253 0.66403 2.72341
2.22096 -0.187228 3.58878
-0.268841 0.0232536 3.03146
0.418481 -0.812839 3.31305
-0.229697 0.718371 3.10413
-0.578261 -0.602274 3.31053
-0.0769246 1.09075 2.9607
0.707711 -0.0103049 2.92196
-0.796976 -0.798116 3.44644
1.92228 -0.813711 3.10357
-1.05035 0.222208 3.06046
0.901505 0.0930129 2.88174
1.67685 -0.768059 2.55868
1.03699 -0.66662 3.04096
-0.0934932 0.814146 3.07198
0.000122474 -1.37225 3.3618
-0.246495 0.0573478 3.05348
-0.807357 -1.60305 3.44705
1.84011 -0.511731 2.75392
1.64299 0.698164 2.66214
-0.912791 -0.690918 3.31697
-0.196368 0.768722 2.10857
1.72133 -2.20018 4.68135
-0.547958 0.31085 3.05078
-0.935795 0.0182341 3.08657
1.42914 -1.74255 3.94998
0.466728 -0.419549 3.05645
0.102176 1.24749 2.43893
-1.05064 -1.25213 3.29652
1.14178 -1.88748 4.09055
0.969507 -0.373915 2.98614
-0.346634 0.766223 1.98102
1.3422 -1.2168 3.24819
0.578922 0.3651 2.9322
1.30241 -2.4393 4.04093
0.701616 -0.357503 3.01605
1.44445 0.975505 2.63061
1.48891 -1.21255 3.34698
0.503865 0.324131 2.84948
2.50831 0.310539 2.64993
0.78843 -1.71313 3.91551
1.1647 0.197582 2.79602
2.24552 0.158826 2.98495
0.170128 -0.587395 3.17814
-0.362012 0.918267 2.7804
-0.0680336 -1.93194 4.27724
-0.177478 -1.50669 3.62968
0.942725 0.149489 2.83033
2.33719 -0.0862126 2.98329
1.57664 -0.4834 2.7568
1.06468 0.836895 2.82364
1.41567 -1.4119 3.38965
1.39377 0.270092 2.78348
2.17494 0.288167 2.6412
1.21237 -1.57474 3.46949
0.652664 -0.503172 3.11509
-0.33161 0.726409 2.06491
-1.45773 -1.23005 3.06677
-1.37964 0.282463 3.08954
-0.012607 1.32289 2.89441
-0.730122 -0.47648 3.20599
0.378713 0.964118 2.98672
1.75533 -2.06346 3.39958
0.636236 1.58357 2.86109
0.134178 0.773604 3.05007
-2.48476 -1.26761 5.22427
-0.100307 1.32773 2.89586
0.440403 0.0506575 2.90093
0.844133 -1.86015 3.60433
-0.513952 0.767913 3.03684
-0.283428 -0.713011 3.24537
-0.672379 -0.992737 3.56958
-0.159074 0.0248912 3.01671
1.05411 -0.642015 3.02963
-0.499786 0.799854 2.76914
0.125519 -1.73693 3.59048
-0.0872168 -1.69275 3.63665
1.72789 0.116074 2.73087
1.84047 -0.316874 2.70723
1.5522 -0.577937 2.84114
-0.501827 0.819167 3.00729
0.632965 -1.56726 3.57554
-0.436892 0.088817 3.03299
0.695348 -1.74145 3.88721
0.714929 -1.58855 3.76076
0.404288 -0.866999 3.26123
-0.998346 0.78664 2.84642
-0.829224 0.704887 3.05935
-0.827102 -0.0677327 3.11335
-0.126238 -1.51499 3.57105
0.0453139 -0.828436 3.28719
0.554103 0.610894 2.94154
-0.553232 -0.0436021 3.09388
1.26821 -1.79193 3.70402
-2.15819 -1.1022 4.39083
-0.283758 0.883733 2.43393
-0.00602701 -0.0492949 0.664786
-0.30451 0.952959 2.74774
0.133957 -0.00893487 2.93679
-0.870859 0.30036 3.0398
-1.13198 0.724386 2.94486
-3.14285 -3.24878 6.92852
0.73215 1.46757 2.8484
1.06877 0.752731 2.79667
1.45484 -0.615403 2.91149
-1.18518 0.119018 3.13882
-0.101769 -1.69848 3.5255
0.61983 -1.46852 3.57314
1.23891 -1.82159 3.50885
2.18235 0.319718 2.63301
1.21689 0.796634 2.71339
-0.16959 -0.635816 3.27501
-0.0670622 0.172489 2.96549
-0.879473 -1.52634 3.42641
1.20006 -0.571982 2.99875
1.41166 0.754577 2.60912
2.11343 -0.0448763 2.92211
0.204174 -1.51905 3.52846
-0.222297 0.126199 3.00993
-0.216828 1.15673 2.95841
0.291649 -0.0372372 2.95492
-0.224477 -0.00872668 3.0641
0.0123476 1.16675 2.86829
-1.20274 0.113137 3.09134
1.43832 -0.763943 2.8943
0.137251 0.704659 3.04082
2.2913 -1.51137 4.20415
1.15113 -0.761155 3.10038
-1.16223 0.670174 2.89067
1.84588 -0.580057 2.83135
0.323778 -0.776594 3.30915
1.78332 0.0594246 2.76887
-0.24298 -0.851209 3.33422
-1.00428 0.79265 2.91933
1.53139 -1.47457 3.4343
1.64143 -0.827721 2.7296
1.61119 0.0261582 2.67378
-1.33561 -0.718932 3.27628
1.71726 0.700536 2.71444
-0.301477 -1.51188 3.53861
0.233306 1.24302 2.93896
-0.946423 -0.193822 3.10838
-1.19936 0.534979 2.76319
1.27267 1.14238 2.67673
-0.0511227 0.00206129 0.836382
-1.01839 -0.158023 3.15434
0.286339 -0.989854 3.39384
1.86285 0.998359 2.54569
-0.0598932 -0.110473 3.03722
0.207155 -0.919089 3.29368
1.18986 1.06489 2.56217
-0.711208 0.636835 2.99344
-0.888911 -0.00586057 3.07757
-1.20111 -0.0739962 3.10071
-1.07136 0.590061 2.90579
1.30833 -0.82982 3.02734
-0.917876 0.466833 2.96074
1.57981 -2.30371 3.42226
0.348057 1.44933 2.79095
-0.738232 -1.16403 3.41774
1.6031 -0.297401 2.73645
0.81214 1.09919 2.79415
1.46894 0.379496 2.71613
-1.04235 -1.07057 3.32585
1.18813 -2.28414 3.17616
-0.295368 -0.273845 3.08233
-0.0924804 0.832476 2.11994
1.23553 -1.85029 3.56435
-0.141712 1.17389 2.84552
0.00243293 -1.06452 3.40285
-1.09348 0.532945 2.93606
0.576651 -1.74151 4.27419
-0.498264 -0.245093 3.09883
-0.458283 0.873202 1.89729
-1.15525 -0.248218 2.96859
0.18635 -1.08592 3.61999
-1.71161 0.622165 3.63977
1.28846 -2.72507 4.01827
-1.04449 -0.197159 3.11275
-0.136412 0.84262 2.00492
0.388724 0.466814 2.92729
-0.49069 0.691417 3.5308
1.25097 -0.268325 2.85066
1.33391 -1.71218 3.52712
-0.156334 0.839289 1.99258
-1.11054 -1.09282 3.32988
-1.31312 -1.03599 3.25759
-0.85818 -0.345321 3.60078
0.737623 1.10112 2.81853
1.54792 -0.23857 2.83648
1.37335 -1.61159 3.42896
-1.10344 0.460743 2.92463
0.801586 -1.05362 3.41169
-0.954982 0.557577 2.95485
1.12711 -2.25946 3.60242
-1.35381 -0.207174 3.08635
-0.607946 0.841751 1.87088
0.356026 -0.0667735 0.179623
1.36478 0.489507 2.80151
0.611463 1.45113 2.87734
1.17706 -0.941175 3.21009
0.659245 -1.55668 3.90244
-0.86314 -0.175305 3.15018
0.92434 1.00097 2.79628
0.132179 1.33031 2.88447
0.701102 1.31357 2.44146
1.03647 0.330868 2.85906
-0.0172135 1.07931 2.36594
-1.05577 -0.40638 3.16848
1.57254 -1.50839 3.61506
0.627174 -1.28744 3.47682
1.96253 0.508662 2.64209
-1.35572 -0.38201 3.17953
0.294356 1.14775 2.99225
-1.37073 -1.16416 3.25189
1.77562 0.393968 2.78586
-0.267649 0.775308 2.01052
0.503417 -0.320635 3.03383
2.12487 -2.45786 4.15911
2.64931 0.641449 2.72403
0.391698 -1.22083 3.5211
1.48327 0.330982 2.7323
-0.00771569 -1.51845 3.64619
-0.778755 0.254787 3.04455
2.14676 -1.08802 3.52573
1.50535 -0.491132 2.71705
-0.694507 0.66973 2.04262
1.2924 -2.15905 3.81492
0.7904 -1.71231 4.13595
-0.745326 0.214735 2.96657
1.31578 -1.7209 3.72193
0.75752 -0.511901 3.06293
-0.769362 0.64648 2.0337
-0.320427 0.301832 2.9939
1.40923 -1.67936 3.55657
1.40421 -1.50599 3.71834
2.04834 0.279572 2.77289
1.15531 -1.68898 3.52648
0.911582 -0.455381 3.02551
-1.05306 0.137261 3.32683
-0.00723289 1.0152 2.92692
0.440649 -1.3871 3.61678
0.832112 0.264523 2.86066
1.8782 0.675516 2.64674
-1.0288 -0.438146 3.17518
1.57268 -2.04502 3.42745
1.66535 0.873305 2.5619
1.71873 -0.158238 2.82183
1.63741 0.737251 2.67028
1.00404 -1.57408 3.60884
0.0445637 0.101466 2.97437
-1.4031 -0.674426 3.15296
2.05385 -1.04162 3.22161
0.486258 0.613428 2.94287
0.564406 0.864633 2.94286
0.143277 -0.633526 3.21668
0.625803 0.149775 2.85624
-0.502393 -0.793193 3.32526
-1.04761 -1.5518 3.44299
1.26261 -1.9946 4.11348
0.972634 -0.575046 3.03365
0.720892 0.81498 2.90885
1.88962 -0.063905 2.89789
0.467855 -1.61491 3.74971
-0.736127 0.132724 3.00699
-0.278682 0.971916 2.38086
0.292006 -0.520215 3.10846
-0.0767301 0.481252 1.47176
0.168704 0.261843 2.90732
-0.186052 -1.4502 3.58013
0.872375 0.95269 2.8599
1.25215 -2.39072 3.97962
-1.34522 -0.497317 3.22934
-0.198105 0.962321 2.9926
2.66214 0.871705 2.8345
0.11603 -1.3788 3.48685
-1.38794 0.255317 3.01369
1.9047 -2.19769 3.79725
-0.505523 0.339389 3.04766
-0.328476 -1.34882 3.5488
-0.434071 0.644034 3.06802
-1.43299 -0.458204 3.19718
-0.342576 0.746526 2.00972
2.08496 0.49554 2.60383
-0.457155 -1.31141 3.56059
0.326037 0.284226 2.88235
2.00362 -0.458496 2.78128
0.952926 -2.68735 3.35937
-0.497274 -0.416783 3.28442
1.29181 0.966492 2.73394
1.26232 -2.2887 3.468
-0.280476 -1.63233 3.63736
1.43501 -0.579112 2.83369
-0.864807 -0.323186 3.17403
0.936085 0.127444 2.86862
-0.73178 -0.323426 3.12169
-0.362415 0.86487 3.07067
1.99423 0.31113 2.77228
-0.692726 0.958431 2.94597
0.626168 -0.592105 3.14932
0.95177 0.88413 2.85471
1.89366 -1.05886 3.22526
0.0331465 -1.53156 3.54493
1.64688 0.178496 2.67848
-0.96476 -0.564779 3.15285
-0.798739 0.638245 2.10681
-0.290676 -1.48155 3.55485
-0.301695 0.158188 2.99072
1.17299 0.0048933 2.76726
1.50606 -0.992885 3.28086
1.24329 -0.753364 2.98246
-0.208878 0.74348 3.07068
0.805695 -1.78007 3.58023
-1.19387 -0.768047 3.28022
-0.0275371 0.706975 3.06948
-0.276481 1.04846 2.86695
0.159963 -0.0191116 2.93779
0.963456 -1.44888 3.49153
-0.741163 0.0908249 3.08228
-0.304065 0.645644 3.063
-0.723058 0.822406 2.95751
0.995917 -1.72608 3.66709
-0.433959 -0.729397 3.28881
1.62329 0.601115 2.54735
-1.18258 0.0693749 2.98249
0.495158 -0.682212 3.21062
0.39854 0.770729 2.9989
0.37696 -1.9287 3.59733
1.29477 -0.873395 3.04045
1.93091 -1.16453 3.34274
0.984685 0.557457 2.93408
-0.546798 -1.61757 3.44876
-0.462809 0.717303 1.93727
1.411 -0.136264 2.73418
-0.890324 -0.571179 3.17738
1.90156 0.431094 2.64788
1.16315 -0.0916362 2.74207
0.835457 0.633574 2.90913
0.975277 -0.905796 3.30941
-0.2607 -1.14886 3.47256
-0.0300988 -0.0560387 3.0255
-0.669666 0.620994 2.99429
0.416294 1.27505 2.88491
1.74223 -0.735056 2.76298
0.251875 0.203027 2.95011
1.03445 -1.54595 3.56004
1.76005 -0.443068 2.73543
0.610564 0.905191 2.94355
-1.39357 -0.632391 3.33365
-1.20995 -1.41337 3.36826
1.58426 -2.1167 3.42205
-0.408308 -1.59065 3.42856
1.3969 0.150168 2.82555
-0.129604 -0.554629 3.1601
-0.4542 0.876377 2.90144
-1.08899 -1.32682 3.30135
-0.845584 -0.503112 3.19896
0.896759 -1.78335 3.64982
-0.893618 -0.510732 3.15432
-0.351763 -1.06809 3.49393
0.00227956 0.230223 2.94215
2.34134 0.12131 2.9625
-0.309023 0.744246 2.19631
1.51717 0.59301 2.69452
1.21662 0.714925 2.76253
1.69405 -0.880731 2.96455
1.3973 -0.713791 2.97001
0.792885 0.0456278 2.85937
-0.150418 0.912714 3.04052
-0.702227 -0.734085 3.32008
1.14372 0.710824 2.83721
0.647571 -1.46049 3.56133
-0.806614 0.018407 3.12849
0.811017 -1.8446 3.57982
-1.22277 -0.714807 3.39058
1.74614 0.0990997 2.7277
-0.192192 -1.52558 3.48933
-1.2191 0.831896 2.82223
-0.251343 0.812189 3.0419
1.82927 -0.533561 2.79117
-1.18534 -1.561 3.4518
0.917595 -1.72621 3.55677
-0.280143 0.100081 2.97574
0.99643 -0.606438 3.01755
1.13509 -2.10124 4.8335
-0.521255 -0.959013 3.54633
-0.0140357 -0.0633935 3.00975
-0.486442 0.675319 3.11689
-0.331273 0.645628 3.1032
1.18815 -0.816273 3.10216
0.603647 -1.46996 3.56186
-1.17994 0.0101946 3.09088
1.05203 -0.0452607 2.84361
1.74759 0.986223 2.53273
-1.60794 -0.83297 3.34436
1.27826 0.64974 2.77494
-0.143667 0.0526216 1.0631
-1.04972 -0.00816858 3.05202
1.85139 0.514769 2.63308
-1.11627 0.264945 3.05382
-0.362309 -0.241919 3.07777
-0.832425 -0.634575 3.22765
-0.0155579 1.22639 2.64658
-1.34772 -1.00967 3.16885
0.67677 0.510202 2.94491
0.959856 1.12626 2.76875
0.0292129 -0.206505 3.0536
1.01706 1.20966 2.7414
0.144472 0.46647 2.91756
1.10797 -2.47801 3.38272
-1.286 -1.05581 3.40002
-0.952449 -0.172129 3.10786
-0.592925 0.620282 3.12571
1.09733 -0.154474 2.80349
0.424338 1.46945 2.84125
0.503456 -1.83311 3.62727
0.976558 -0.959212 3.24634
-0.125927 -0.933435 3.40901
0.296024 1.23393 2.91698
0.890139 -0.127816 2.90019
0.0240794 0.564945 3.04187
2.0045 -1.00603 3.3982
1.86949 -0.5493 2.74599
-0.364352 -0.857061 3.38129
0.600853 -1.66974 3.84999
0.448308 -0.0289128 2.94246
-1.04907 -0.0416193 3.11339
-0.73069 -0.624027 3.2872
-0.749517 0.719222 3.00594
-0.138694 -0.802687 3.32381
1.08151 0.642461 2.90369
-0.758294 0.069991 3.09357
1.89559 0.142146 2.74216
-1.13768 -0.787706 3.34771
-0.77722 0.799162 3.00818
1.52081 0.103742 2.8379
-0.314224 0.0184034 2.98409
-1.01899 0.783415 2.83075
0.931258 0.713586 2.87898
1.10482 -0.680918 2.99926
0.701295 -1.48068 3.55139
-0.57394 -0.206305 3.14218
-0.654658 0.793302 1.86477
0.165373 -1.2588 3.51862
-1.82991 -1.1823 3.78325
0.197422 0.531365 2.91161
0.884578 1.17156 2.78035
1.51748 -0.154376 2.79428
-0.595437 0.827256 1.87271
-0.468968 0.940703 3.05206
-0.991027 -0.974201 3.35144
0.886436 0.241923 1.36439
-1.0417 0.789633 2.85292
-0.39494 -0.125073 3.03905
1.32464 -1.79015 3.51744
-0.594362 0.626333 3.04745
0.270369 -0.951878 3.38879
1.03711 -1.64282 3.56594
-2.66445 -0.26506 5.76574
-0.484459 -0.879588 3.37491
1.38605 -0.786822 2.85638
-1.21517 0.590349 2.90006
1.06539 -2.28094 3.66987
0.131755 0.426631 2.92695
1.48592 -1.14728 3.22828
-0.837582 -0.341472 3.1977
0.428041 1.50621 2.80213
-0.661927 0.745041 1.84559
1.40755 -1.1461 3.36886
-0.0921703 0.407828 2.9655
1.1298 -2.24636 3.53634
0.79208 1.07969 2.82659
-1.07366 -0.285375 3.14982
-1.25228 -0.337797 3.18168
-0.509058 -1.1432 3.602
0.709058 1.27319 2.40842
1.39018 -0.22727 2.73525
1.69393 0.471504 2.85783
-1.01634 -0.270262 2.95009
0.349685 1.1801 2.92496
2.32143 0.291824 3.40446
0.965618 0.968848 2.76814
2.43678 -0.393359 3.49552
-0.981527 -0.461624 3.09843
-0.134503 0.296942 2.98252
-0.538357 -1.35948 3.47391
0.823387 0.948556 2.83871
2.37654 0.464663 2.59385
-0.445765 -0.45029 3.2711
0.119932 1.4193 2.54877
0.705149 1.26406 2.38638
1.11482 -1.32223 3.36615
-0.898196 0.290462 3.00438
1.6346 -1.90051 3.81363
0.365152 -0.399326 3.1076
0.667199 1.06171 2.89758
-1.145 -1.22162 3.3547
2.31961 0.0147964 2.8932
0.459706 0.351668 2.86967
-0.650034 0.719997 1.92824
0.364505 -0.369011 3.12451
0.11376 -1.27639 3.56553
1.7158 -0.141323 2.81975
1.53726 0.296701 2.68161
-1.17796 0.0707562 3.4497
0.158161 1.03837 2.96704
0.967251 -0.437899 2.9956
0.982723 -2.80303 3.60135
-1.14966 0.352317 2.99076
0.702175 -1.38707 3.58798
-0.479905 0.715394 1.98404
0.00962844 1.13174 2.31639
1.48719 -0.377865 2.76877
0.768714 1.21402 2.4232
0.507935 -1.34714 3.61388
-0.405031 0.300347 2.96847
