ply
format ascii 1.0
element vertex 1837
property float x
property float y
property float z
end_header
-0.0693862 -0.051876 3.01642
1.33404 0.640478 2.70823
-0.19289 -0.794804 3.29368
1.45793 0.604979 2.72939
0.74098 -1.88569 3.97005
0.995921 -0.781327 3.23183
1.9038 0.375675 2.67774
1.58935 -1.47955 3.39755
1.62339 0.0107091 2.75757
0.0509459 0.753384 3.05069
-0.760495 0.626127 2.15697
-0.21021 -1.68183 3.60839
-1.3247 0.139514 3.08831
-0.486514 1.38187 2.96069
1.64256 -0.602966 2.84261
2.22266 0.238605 2.75683
0.212348 -1.68086 3.69916
-0.478482 0.679734 2.12436
-0.210598 -0.621045 3.19501
-1.05933 0.217397 3.02874
1.1434 -1.49493 3.36526
0.927842 -0.555592 3.0089
-1.1393 0.745894 2.45969
-1.16404 -1.40434 3.32469
-0.713861 0.170367 2.97496
1.86463 0.995941 2.54951
1.0837 -0.781814 3.10147
-0.861497 -1.26349 4.4964
0.908493 0.0179425 2.89258
1.48367 -0.0335164 2.78921
1.25751 0.693758 2.77553
-0.587846 -0.759898 3.22093
-0.251984 1.08073 2.45388
1.1391 0.678365 2.84698
0.0212211 0.0956141 2.96831
1.56844 -1.37761 3.19725
0.797295 -0.720842 3.16746
1.10516 0.754972 2.79917
0.958168 0.0535149 2.88955
-0.525982 0.78032 2.26796
0.493897 0.760598 2.92343
1.65655 -0.63008 2.81983
-0.379255 0.594319 3.05813
1.82676 1.03905 2.55017
1.35292 -0.124726 2.69712
-0.0471997 1.07 2.40805
1.37099 -0.897811 3.0809
1.88231 0.0753431 2.71387
-0.317913 0.670214 3.07831
-0.522024 -0.089589 3.07866
1.40081 -0.838969 3.00223
1.7372 -0.0567762 2.77601
-0.0794312 -0.869062 3.3371
1.45513 0.558909 2.67049
1.02482 -1.12208 3.30277
0.565098 0.472659 2.92007
0.499833 1.24396 2.87962
0.735489 -0.277185 3.0291
0.992466 1.12788 2.74332
1.45945 0.416753 2.79387
-1.14221 -1.03321 3.30316
-0.708073 -0.239912 3.06291
0.712399 1.13819 2.85868
-1.10546 -0.088628 3.12752
-0.586413 -1.10577 3.61553
1.30944 0.512056 2.78746
-0.777368 -0.204481 3.06587
-0.144993 -0.995145 3.36561
-0.769785 0.526621 3.04543
-1.43871 -0.171181 3.088
-0.443713 0.899866 1.87767
-0.117443 0.775663 2.99335
-0.360981 0.843172 1.92765
1.30057 -0.718046 2.96749
1.09024 0.0497798 2.80436
-0.575653 0.757718 3.05287
-1.35773 -0.725996 3.21653
0.531161 -1.46729 3.57267
-0.037059 0.0256599 2.969
-1.41057 0.136623 3.05333
1.94812 0.712646 2.569
-0.724519 -0.688139 3.28492
-0.66917 0.857397 2.89341
-1.1116 0.112698 3.12218
-0.443625 -1.60905 3.56746
0.270646 -0.0857754 0.144047
0.64505 -0.644293 3.18667
1.49291 0.722386 2.62358
1.10443 -0.84573 3.08118
-0.178218 0.657883 2.96238
1.86604 0.103248 2.71772
0.962722 -0.075923 2.89862
-1.28941 -0.824192 3.18784
0.776925 0.603802 2.93026
-1.47618 -1.58449 3.36436
1.47099 -0.053497 2.8339
1.5268 0.377351 2.27681
1.79454 0.957757 2.52724
-0.861552 0.713455 2.97693
-1.00502 -0.00448218 3.07337
1.18093 -0.766069 3.06549
-1.09396 -0.249879 3.14157
-0.548552 0.819918 1.88862
0.786639 -1.08325 3.34528
1.67622 0.448065 2.59266
0.973385 -0.199067 2.92025
-0.716879 0.781934 1.86342
-0.125541 0.684598 1.64051
-0.544403 -1.06297 3.43899
-0.383167 0.489487 2.98034
-0.488524 -0.995533 3.36422
0.0947326 0.595541 3.00347
-1.46778 -0.167418 3.0931
-0.983951 -0.917942 3.30818
0.508441 0.526745 2.88096
-0.659611 -0.131319 3.05348
-0.653145 0.857668 1.86069
1.38041 -1.22329 3.31391
0.261511 1.39461 2.73637
0.331 -0.365665 3.08878
1.28109 0.355627 2.83553
-0.158556 -0.0673481 1.14545
-0.540035 0.74827 1.9445
0.0545027 -0.321077 3.06011
-0.315016 0.790245 1.968
0.273494 1.52362 2.78719
-0.545017 0.456154 2.99444
-1.52238 -1.14864 3.26503
0.993768 1.10955 2.83661
0.127826 -0.280151 3.0531
1.81439 0.387268 2.77604
0.539968 -1.18264 3.52556
-0.242384 -0.205166 3.08635
-0.262611 0.869326 1.95665
0.450932 -1.06415 3.42757
0.373571 1.3253 2.90011
-0.858306 0.594701 3.16789
-0.283234 0.921988 1.9355
1.755 0.725498 2.58713
-0.417634 -0.166265 3.08728
0.275063 0.510692 2.9318
0.20766 -1.04208 3.54282
-0.196559 0.64105 3.09461
-0.538032 -0.137496 3.08314
-1.3227 -0.922027 3.26124
-0.470061 -0.963072 3.52801
-0.0652646 -0.0846301 3.01086
-0.118654 0.594973 3.00404
0.722636 -1.22517 3.47359
1.73151 0.420771 2.696
0.96132 -0.316479 2.90051
1.48352 1.02877 2.52998
0.481099 0.401611 2.89245
1.36324 -1.14254 3.33258
1.12514 -0.275149 2.83629
0.0984908 1.10791 2.9049
1.1848 1.11599 2.6909
2.48459 0.371275 2.60301
1.53553 0.415715 2.70881
0.983169 -0.242219 2.92614
-0.133762 -0.107644 1.03978
0.207024 -1.11257 3.45817
0.883847 -0.47898 3.0547
-0.0545068 1.04715 2.98772
1.53738 0.274036 2.71397
-1.07499 -1.30943 3.3488
2.50959 0.0302607 2.93438
0.246624 1.52808 2.72692
-0.940974 -0.461854 3.27332
-0.0476942 1.00639 2.95809
-1.44797 -1.19888 3.08482
1.72103 0.252223 2.6809
-1.12941 -0.421153 3.25361
0.0808751 0.362393 2.91606
1.52112 -1.31117 3.42098
0.27698 1.11593 2.98369
-0.00549808 0.530909 1.21694
1.61555 -1.18823 3.20487
-1.48035 -0.385226 3.21888
-0.758138 0.70642 1.89606
0.0289735 0.582558 1.46442
0.183602 0.335928 2.91864
0.576414 -1.56846 3.60621
-1.2695 0.222942 3.02592
-1.4303 -0.605547 3.1667
1.56948 0.811522 2.58887
0.506051 -1.57745 3.75221
-1.1059 0.171329 2.92567
2.43949 0.653367 2.78886
1.50257 -0.559082 3.04952
1.39555 0.799777 2.69396
-0.49019 1.44518 2.95956
0.974307 0.927842 2.84691
0.594001 0.230345 2.88957
0.059377 -0.522903 3.17211
2.15268 -0.710419 3.22552
-1.35806 -1.32646 3.25689
0.626075 0.228137 2.90913
-1.18207 -1.36405 3.22739
0.188286 0.955 2.99776
0.675518 -0.57108 3.11597
-0.413194 -1.46965 3.59166
-0.817738 0.206167 2.97199
-1.27442 -0.541749 3.25634
-0.259384 0.931526 3.04329
0.022995 0.710353 1.80127
0.115172 0.988789 2.96317
2.49773 0.818581 2.88013
-1.03163 -1.62978 3.45937
0.434799 0.261728 2.87005
-1.06118 -0.485758 3.09076
2.26558 0.0280215 2.97092
0.319616 -1.46962 3.64854
-1.12888 0.77059 2.76615
-1.08073 -0.765955 3.33729
-0.222695 0.0925672 3.03051
0.056574 1.31679 2.88024
-0.0347817 -0.693868 3.24801
-0.412033 1.31602 2.95314
-0.0353133 0.765112 2.99295
-0.717011 0.0628552 3.04677
0.377532 -0.641991 3.15384
-0.102581 0.171285 3.00871
-0.33942 -1.59384 3.52051
-0.177233 0.877325 3.03515
0.0827723 0.700813 3.35242
-0.743605 0.861899 2.93904
-1.03317 -1.46144 3.30643
1.40314 0.10612 2.85918
1.4384 -0.572183 2.93661
-0.298409 0.858929 1.9311
-0.838886 -0.995208 3.80012
-0.958014 0.699852 2.944
-0.141319 -0.052324 3.01864
1.51094 -0.681115 2.66972
-0.97405 0.728643 3.25019
0.311681 -0.0151281 2.97028
-0.212204 1.01318 2.76517
1.80589 0.347712 2.66489
0.698267 0.727973 2.95155
-1.20406 0.0249272 3.09143
1.51559 0.406715 2.27159
1.45165 -0.715734 2.93172
0.43244 -0.203304 2.99237
-0.129502 0.942663 2.14989
0.344099 1.26068 2.91376
-0.433073 -1.08971 3.50517
-0.987684 0.55402 2.96334
1.32536 -0.164482 2.79694
-0.633037 0.807645 1.86557
1.69799 1.11181 2.56109
-1.10889 -0.967978 3.26557
-0.345784 0.511352 2.99695
-0.592558 -0.983396 3.43431
-1.12846 0.606026 2.8669
-1.03534 -0.132677 3.16647
1.7134 -0.794403 2.8063
1.55621 0.518683 2.69006
-0.730417 -0.0857836 3.04009
0.683383 -0.797882 3.18253
1.04507 0.0141012 2.87573
2.53678 0.0174992 3.78976
0.928303 -0.0209934 2.88439
-0.308666 0.756516 3.09791
0.226741 -0.776727 3.28097
1.02509 0.681359 2.88467
1.85746 -1.40646 3.26873
-1.38592 -0.723442 3.14278
-0.869566 0.766737 2.65009
-0.343833 0.0449408 2.97066
1.33599 0.698705 2.71611
-1.38726 -0.173111 3.08305
1.36374 -0.933396 3.05743
-0.387416 0.577382 2.9998
1.8881 0.587286 2.61874
1.54336 -0.134967 2.74884
-0.547124 0.855084 1.88399
1.87435 0.364758 2.64813
-1.43748 -0.910697 3.17817
0.601899 0.536 2.92403
0.867867 -0.0972909 2.95685
1.38367 0.591777 2.70547
-0.100756 -0.908233 3.34295
0.772008 1.25751 2.82758
0.640391 -0.0588476 2.93465
-1.40452 -0.824811 3.13209
1.72663 0.56283 2.71185
1.15879 -1.15617 3.37387
1.74932 0.449847 2.74466
0.0820886 -0.287919 3.05673
-0.451032 0.775919 1.86275
-0.694449 0.458668 3.08063
0.105929 -1.15338 3.54886
0.000273956 0.844452 2.09144
0.473175 -0.255288 2.97825
0.605032 -1.61173 3.58299
1.58778 -0.997051 3.12877
1.65967 -0.206334 2.72731
0.612703 0.501194 2.92271
-0.691954 0.71162 1.91368
1.32978 -0.409244 2.75065
0.957374 1.00251 2.78258
1.29416 -1.36065 3.43677
1.39526 0.311362 2.79267
-0.0477358 0.943565 2.15424
-0.245718 -0.41285 3.16512
0.520714 1.01509 2.91895
-0.246052 -0.223231 1.32496
0.337591 -1.3146 3.48945
0.251205 0.296061 2.91588
1.54282 0.35809 2.64061
1.27341 -0.359709 2.86236
0.701054 -1.28031 3.49652
1.18196 1.05166 2.71138
-0.0243912 0.504992 1.3187
-0.613632 -1.19125 3.45441
1.8108 -0.338822 2.82141
1.33809 1.0087 2.6743
2.26994 0.30012 2.51302
1.22307 0.353606 2.85419
0.781531 -0.8928 3.21243
1.55246 -0.0959014 2.8448
1.93199 0.000323432 2.73698
0.0866739 0.651922 3.13184
1.04164 -1.74836 3.68044
1.25161 -0.0633066 2.78097
1.65201 1.14291 2.56437
0.368905 0.708613 3.03184
-0.469777 -0.875706 3.35702
0.781456 -0.0252806 2.91022
-1.2318 0.657128 2.88305
0.236174 -0.82513 3.30723
1.31313 0.490674 2.85053
1.24211 -0.238933 2.77972
-0.262005 0.878341 1.97248
-1.22837 -1.05677 3.3061
-1.27342 -1.01478 3.30419
-0.383125 0.779096 2.02934
0.827726 1.15165 2.79777
1.54669 -0.211628 2.87496
-0.453808 0.491088 3.00692
-0.653122 -1.01543 3.42098
-0.898634 0.596521 2.99914
0.0686776 -0.16225 3.02324
0.275841 0.542748 2.93675
-0.28486 -0.947758 3.3487
-0.607955 0.872411 1.88271
0.509657 -0.130964 2.94405
0.891221 1.0481 2.78201
-0.634177 0.372111 3.0174
-0.0748119 1.11556 2.80606
-1.00594 -0.371999 3.14344
-1.15787 -1.21301 3.34447
-0.965067 0.0902719 3.08787
1.60708 -0.311845 2.84133
-0.474812 0.756778 1.87749
1.13148 -1.20881 3.41568
0.595579 0.440352 2.91178
-0.76635 0.7273 1.85147
-0.491319 -0.292053 3.0951
0.799573 0.402396 2.92263
1.00913 -1.19197 3.501
-0.887458 0.161725 3.05646
1.46669 -0.477128 2.80707
-0.0470314 0.623768 1.34467
-0.574822 0.280588 2.99463
-0.443523 -1.43816 3.52562
1.07237 0.937168 2.76301
1.34941 0.877647 2.69579
0.953742 -1.53122 3.77145
-0.311637 0.243468 3.0065
-0.0315225 0.573543 1.30044
1.25539 -0.471286 2.93917
-1.41191 -1.22748 3.1667
-1.09426 0.348625 2.94983
0.401747 -0.439802 3.08858
-0.695664 0.720306 1.93799
2.30082 0.0382555 2.9592
-0.173589 -1.32678 3.58473
0.9953 0.283572 2.91744
-0.00829934 0.543384 1.289
1.05494 -0.390256 2.91877
0.177482 1.01657 2.91874
0.739997 -1.16296 3.27196
0.983261 0.438607 2.89765
-0.895096 0.181569 3.05485
0.0344518 -0.331941 3.07807
-0.518179 0.420672 3.00185
0.375276 -1.19068 3.53458
1.00577 1.07336 2.77335
-0.994195 -0.292343 3.13421
0.211718 1.19258 2.89526
-0.067436 -0.139358 0.845426
-0.842414 0.499781 3.0222
-1.3126 -0.258394 3.14438
1.55116 1.02826 2.54164
-0.956675 -1.02368 3.1619
2.59366 0.936353 2.86923
-0.234735 -0.486998 3.18357
1.34358 0.944466 2.68907
0.59382 0.292648 2.88913
-0.869439 -1.40572 3.53442
-1.30651 -0.452151 3.15984
-0.0404019 1.00821 2.282
1.46774 0.878399 2.57004
0.39772 -1.37736 3.5535
0.861822 0.257084 2.8713
1.66153 0.334752 2.67061
0.892036 -1.32235 3.48176
-0.185149 0.790448 2.06965
-0.0174167 0.533292 1.24476
0.241748 -0.399575 3.09708
-1.07447 0.352164 3.02482
1.26135 -1.23746 3.34919
1.10578 0.995806 2.74597
1.59355 -0.355755 2.82926
0.651741 -0.456962 0.857854
-0.967213 -1.48667 3.41114
-1.33858 -0.644854 3.37301
2.2564 0.21911 2.75612
0.397931 0.161503 2.91417
-0.394035 0.890818 3.02413
-0.478522 -1.60469 3.41447
2.2468 0.509373 2.64531
-0.50522 1.40404 2.96384
-1.44955 -0.579636 3.18469
-0.852529 0.668017 2.01882
0.821008 -1.52188 3.57002
-0.827997 0.235476 2.99207
-1.00049 -0.544175 3.21812
1.66574 0.805869 2.55097
0.803908 -1.56162 3.78827
1.2329 0.183843 2.7998
-0.032221 0.0485894 2.95175
-0.229832 1.06848 2.45275
0.985465 0.753511 2.88984
1.67479 -0.711341 2.8596
0.983678 -0.730034 3.14754
0.0296025 0.744785 3.04903
2.00484 1.07237 2.6972
0.678187 0.0144684 2.91261
0.756123 0.117141 2.86462
-0.298996 0.874403 3.02937
1.82284 0.715667 2.57448
0.875951 -0.677842 3.12794
0.608082 -1.7764 3.9082
0.278451 0.0874087 2.95761
1.05581 -0.633367 3.06738
2.48799 0.0101552 3.76187
0.761791 0.797191 2.91618
0.708266 -0.732377 3.16327
1.18271 0.744762 2.7732
-0.0499793 1.10127 2.91352
1.06525 0.0783923 2.79796
1.38157 0.681 2.66813
1.47115 -0.632867 2.853
-0.272108 -1.08373 3.43629
1.1351 0.031448 2.84613
-0.607975 -1.57219 3.46118
-0.669994 0.153747 2.9835
2.06529 1.16269 2.80725
-1.37156 -0.647619 3.16487
-0.11015 0.909381 3.10717
-0.252012 0.120837 2.99892
-0.678103 -1.54497 3.51879
2.11356 1.06307 2.76681
0.242715 -0.626738 3.21338
1.63188 0.741733 2.61461
1.11634 -0.81064 3.06553
0.787473 -0.0627683 2.90233
0.58409 -1.77397 3.72304
-0.26223 0.684694 3.17042
1.91314 0.641975 2.61488
-1.4296 -0.0233483 3.08517
-0.904012 -1.61898 3.41758
0.110414 0.737902 3.04827
1.91833 -0.164655 2.72025
0.810948 -0.804041 3.18112
1.24821 0.0098871 2.76821
0.33957 0.7058 3.03406
-0.403479 -0.787301 3.31624
1.2762 0.514187 2.8244
0.176624 -0.225794 3.02123
-0.278069 0.909576 1.96615
0.0517713 -1.06229 3.40194
-0.621361 -1.01015 3.40918
-0.447503 0.756806 2.22485
-0.684305 0.801805 1.86578
0.994428 -0.172624 2.92915
0.826181 0.500947 2.97103
-0.548847 -0.956776 3.32685
1.04467 0.593322 2.89679
-0.381991 -0.140302 3.08937
0.443893 0.55618 2.91733
1.21855 -0.884707 3.15149
0.663572 1.24252 2.84134
0.411179 -0.0955466 2.96311
-1.02841 -1.2102 3.50716
-0.600603 -0.951569 3.42465
-0.369261 -0.345791 3.12627
-1.31516 0.420547 2.95399
-0.393525 0.7593 1.94391
1.65639 -0.283953 2.62483
0.0589575 -0.222159 0.902777
1.15434 1.11464 2.70729
0.294549 -1.20649 3.53876
0.35688 0.461326 2.88109
1.13537 -0.253511 2.82575
0.390931 1.13463 2.87184
-0.584874 0.443204 2.98854
0.452543 -1.15537 3.52039
1.2614 -0.170531 2.7779
-0.422397 0.723903 1.96896
0.298127 1.29977 2.90862
-0.934778 -0.983624 3.37952
1.11844 0.555698 2.84681
-0.685026 0.856499 1.8654
-0.798814 -0.139852 3.08959
-0.546305 0.550938 3.04573
1.83187 0.658213 2.59839
-0.751386 -0.957721 3.36782
-0.557542 -0.0984683 3.09401
-0.866891 -0.904667 3.30068
-0.1179 0.694551 3.12167
-0.192654 -0.891365 3.4196
-0.31786 -0.0528819 3.0493
1.38046 0.558921 2.75772
-1.42953 -1.08678 3.20487
0.0375805 0.484098 3.00358
0.82076 -0.301124 2.98408
0.621635 1.19264 2.88749
1.41034 0.408373 2.7753
-0.400228 -1.18686 3.69209
-0.328243 -0.261325 3.10488
1.42155 1.05539 2.63417
-0.369231 0.850351 2.41277
-0.193109 1.17134 2.95696
0.0969176 0.506104 2.96787
1.29082 -0.206599 2.80933
0.695954 -1.0917 3.40648
-0.906564 -0.462125 3.20296
0.101796 1.18688 2.15406
0.811402 1.02666 2.84187
0.197641 -1.42406 3.64344
1.6533 0.29008 2.739
-0.299209 -0.415917 3.17576
-0.251903 -0.0312492 1.42534
1.11682 0.975391 2.78549
0.693046 -1.36803 3.61729
0.905364 0.287064 2.8599
1.51691 0.360725 2.70388
1.64393 -1.2124 3.21877
1.53187 0.987237 2.52426
0.0625903 0.539621 1.29819
1.22852 -0.371319 2.92474
0.0100543 0.363423 2.95685
1.67248 -1.10337 3.06596
-0.808091 0.706946 1.87053
-0.708442 -0.35156 3.11876
2.47637 0.933195 2.90135
-0.730823 -1.47699 3.49445
1.0911 -0.54057 2.91586
2.08543 0.524066 2.60089
-1.36514 -1.29866 3.10457
-0.260516 0.189311 2.97167
1.64482 -0.50067 2.83153
-0.659709 0.644836 2.08339
0.12673 0.596058 1.33913
2.01322 0.45637 2.62512
0.738806 0.964776 2.88529
0.255232 0.269022 2.93169
-0.0287118 -0.502955 3.18371
0.962208 0.927104 2.86728
-0.585545 -1.395 3.49305
1.5071 0.201802 2.71611
1.11669 -1.10582 3.35626
-0.502752 0.517443 3.00201
-0.0690416 -0.250356 3.08254
-0.317597 0.863958 1.94197
1.18461 0.453764 2.83161
-0.738012 -1.06217 3.45737
-1.13586 -0.220573 3.16095
1.55199 1.03375 2.47217
-1.51935 -0.956563 3.17289
1.64902 0.537742 2.7677
1.2458 1.16457 2.69695
-0.232011 -0.172606 3.07457
-1.12992 -0.915115 3.20844
-0.0191453 0.553655 3.02711
0.312587 -0.136149 2.96586
-0.515678 0.853849 1.88441
0.87368 1.05893 2.82655
-1.101 0.378381 2.99407
-0.159617 -0.0848432 1.11407
1.16344 0.980938 2.71193
-0.475838 -0.375509 3.0921
0.970482 0.325286 2.91512
-0.0600989 1.23059 2.84696
0.0723427 -1.31945 3.63051
-1.13705 -0.361335 3.26694
1.54825 1.00426 2.49317
2.64484 0.925798 2.85866
-1.25913 -1.15913 3.33459
0.745314 0.44862 2.91635
0.251838 1.12347 2.95934
0.447192 -0.284515 3.00059
0.1423 1.26 2.3709
1.31688 0.384036 2.79938
-0.605225 -1.17757 3.50872
-1.21071 -1.32634 3.24308
1.53109 0.238857 2.59003
0.525778 -0.304431 0.580315
1.2971 0.924732 2.74112
1.3018 -0.505566 2.9071
-0.67524 -1.39184 3.51354
-0.609961 0.226605 2.93394
0.993075 -0.484332 3.00674
-0.46678 0.687049 2.08122
1.85947 -1.90062 3.62019
0.722996 -1.39714 3.55487
0.695435 -0.449595 3.0902
-0.0256083 -1.34332 3.56902
0.766426 -1.81142 3.81853
1.49692 0.275427 2.76558
0.0409081 0.59611 1.30592
-0.187315 -0.41101 3.13702
-0.545804 0.699421 2.00116
-1.46123 -0.69239 3.19233
-0.641878 0.852603 2.98504
-0.501492 1.35557 2.96346
-0.117947 0.131553 2.99814
0.0645822 0.817522 3.0398
-0.714159 -0.679492 3.40012
2.27624 0.6755 2.76214
-0.993491 0.10572 3.22786
0.077715 -1.58355 3.48226
0.743946 -0.607448 3.11042
0.188123 0.925661 3.02751
0.635602 -1.65807 3.72866
1.52869 0.183374 2.81145
-0.178626 1.11824 2.87394
-0.71849 -0.57051 3.20322
1.58478 0.761733 2.57965
-1.34595 -1.40376 3.32542
-1.03971 0.167355 3.00203
0.728306 -1.66361 3.64311
0.999016 -0.468622 2.93733
-0.0294643 0.588081 1.53196
1.06992 0.287027 2.89495
-0.69272 0.706165 1.97822
1.06797 -1.36208 3.33641
-1.08548 -1.27427 3.3397
1.23198 0.254952 2.82242
1.51342 0.876826 2.60022
0.0306028 0.847401 1.81288
0.0835971 -0.442821 3.12066
-1.48341 -1.23678 3.29133
1.07503 0.349594 2.87682
-1.3311 -0.431946 3.24046
-0.231642 0.776785 2.03586
0.0279747 0.550356 1.32358
-0.918322 -1.23047 3.44299
-1.36019 0.343717 2.99125
-0.0225437 0.5224 1.45055
1.48324 -0.358979 2.82479
-0.42152 0.736629 1.99578
1.21893 0.821164 2.76314
2.26959 0.733599 2.841
-0.407753 0.157836 2.98824
-0.746846 -0.621709 3.28625
0.110095 -1.63548 3.69311
2.22414 0.52121 2.64665
-0.709643 0.662478 2.00633
1.46062 -0.553709 3.01083
-0.344346 0.239682 3.06024
-0.182243 -1.53107 3.61491
-0.422685 -0.536604 3.23732
1.34401 0.831776 2.70846
0.230252 -1.46282 3.54617
-0.892605 0.196104 2.97444
-0.215433 1.34467 2.92538
-0.247113 1.01584 2.23591
0.493241 0.0430343 2.91462
-1.08595 -0.788754 3.40039
-0.611246 0.760512 2.95351
-0.558945 -1.03595 3.58742
-1.07296 0.748982 2.97518
-1.41462 0.0209041 3.16808
1.38828 -0.697547 2.98797
0.390323 0.117088 2.92698
1.4676 0.330083 2.1891
0.561163 0.821075 2.93706
-0.86417 -0.699766 3.23477
0.135154 -1.57767 3.47372
-0.819106 0.0871706 3.05974
1.90617 1.12678 2.94506
-1.06975 0.787777 2.8377
0.185031 -0.655995 3.20473
1.27226 0.569701 2.77986
1.84249 0.320645 2.68443
-0.350855 -0.0906447 3.07054
0.0146493 -1.7142 3.68333
-0.979695 -0.898246 3.35091
1.67293 -1.06705 2.94595
-0.64468 -0.0684073 3.0727
1.75235 0.657437 2.80255
1.47555 -0.801273 2.94564
-0.672231 -0.0218588 3.07608
-1.05359 0.661263 2.97496
-1.20345 0.238155 3.00156
-1.18662 -0.794738 3.20053
0.0177677 0.716998 3.24393
0.0351453 1.26545 2.85567
-0.457311 -0.0603412 3.07426
-0.386022 0.866366 2.36069
0.122555 -0.873742 3.33417
-1.45425 -0.0286193 3.08773
-1.2 0.729524 2.91628
-1.23605 -0.789088 3.15122
1.42891 -0.000546127 2.79156
-0.692451 0.698128 3.02572
1.76118 0.93223 2.53133
-0.0860597 -0.788786 3.32083
1.71159 0.48358 2.64246
0.339013 -0.223281 3.0391
-0.377161 0.846988 1.91256
-0.964632 -1.05092 3.41319
1.30365 -0.947874 3.09675
0.456315 0.485652 2.88144
-0.135685 0.992415 2.64358
1.14828 -0.170397 2.7717
-0.354958 0.869008 2.45738
1.84576 -0.861109 2.91416
-1.02252 0.611674 2.97352
0.983666 -0.14262 2.90165
-0.758999 -1.0156 3.6301
0.373999 0.552201 2.93635
0.474265 -0.106952 2.96598
0.912449 1.232 2.76791
-0.553087 0.745637 1.90837
0.911677 0.387009 2.92748
-1.15976 -0.223313 3.13143
0.472035 -0.33551 3.04736
-0.6712 -0.0937124 2.15304
1.22174 -1.17368 3.28764
1.57633 -0.298625 2.96122
1.65141 1.04779 2.53525
1.11727 -1.19214 3.46547
1.10466 0.461386 2.86836
1.31879 1.05092 2.63333
-1.42535 -0.270369 3.11291
-0.248805 0.447999 2.99393
0.599752 -1.10749 3.36715
-0.250982 -0.0318208 1.42345
0.407734 -1.43024 3.5405
1.16804 0.268262 2.80491
0.0668075 1.01228 1.96242
-0.799785 0.692975 1.96871
1.18694 -0.467522 2.87158
-0.19994 -1.38213 3.58117
-0.672259 0.257969 3.00187
-0.366517 0.720926 2.09565
0.0996569 1.1924 2.25617
0.737697 -0.447622 3.01443
-0.0124228 1.35421 2.88957
0.0771868 -1.33983 3.5613
0.446063 0.343504 2.88033
0.703845 -0.409663 3.04211
-0.4521 0.741319 1.95256
-0.0902452 -1.26371 3.47507
0.0935625 0.567184 1.35337
-0.969687 0.328258 2.96013
-0.224069 -0.382278 3.14371
1.49904 0.932207 2.57428
0.867258 -1.17003 3.37916
-0.861337 0.232314 3.0317
-1.50975 -0.321261 3.22292
0.448638 0.427021 2.89211
-0.294192 0.781421 1.96586
1.08262 -0.253041 2.83658
-0.696444 0.684897 1.9361
-0.140752 1.18311 2.83379
-1.35136 -1.06488 3.2319
-0.416892 0.512139 3.01518
-0.73821 -0.217604 3.08052
1.08105 1.09178 2.69354
0.905697 0.456654 2.92813
0.414388 -1.07329 3.40038
1.50576 -0.426852 2.81625
1.15141 0.293802 2.81565
-0.939593 0.0805527 3.07589
-0.599709 0.697547 1.94523
-0.432809 -1.35123 3.50055
-0.883432 -1.27527 3.42718
-0.0298516 0.293409 2.92564
-0.660605 0.693995 1.95878
0.192448 1.37124 2.73529
-0.576797 -0.431239 3.24086
-0.73031 -1.25291 3.47492
-0.92874 0.407329 2.95729
-1.09574 -0.37046 3.02538
0.390617 1.0941 2.87783
0.0779516 0.555337 1.35788
-1.06255 -1.18445 3.34904
1.669 0.32056 2.70428
0.0529072 0.702491 1.39889
-0.610361 0.723529 1.91001
-0.767507 -0.362844 3.17598
0.881842 -1.50675 3.46435
0.881756 -0.566668 3.04937
2.45898 0.73057 2.85844
0.295207 0.182711 2.93139
0.287436 0.921667 3.04092
1.88457 -0.212638 2.78968
0.813129 0.96241 2.87884
1.02484 -0.519709 2.99076
0.199122 -1.69552 3.59895
-1.53939 -1.38462 3.31474
1.13236 0.24596 2.81946
-0.169609 -0.498977 3.17983
1.09411 0.878277 2.7605
0.0388745 -1.4363 3.55552
0.353348 0.207282 2.89076
0.932125 -0.722419 3.11674
1.5387 0.0725221 2.96483
-0.458653 1.05522 2.85706
2.02909 0.52006 2.61187
-0.520589 0.801678 3.00664
1.35368 0.684619 2.67721
-0.141342 1.38762 2.9068
0.284936 0.0418082 2.95577
1.09681 -0.667208 3.0199
0.200878 0.146627 2.96479
-0.566744 -1.56219 3.4349
1.38636 -1.36252 3.25904
0.962004 0.836523 2.87954
-1.35197 -0.665363 3.21196
-0.21857 -1.58627 3.59227
0.242552 0.11664 2.95957
-1.23651 -0.650299 3.34766
2.26224 1.06865 3.01923
-0.391374 0.856114 3.07307
0.466677 1.0598 2.87581
-1.24393 -0.418707 3.1647
1.47056 0.341709 2.86453
0.957995 -1.50298 3.92714
-0.160615 -0.0882845 1.12193
-0.225691 0.764304 2.06991
0.179895 -0.373763 3.07524
0.372384 1.48796 2.73862
0.873862 0.314998 2.90093
0.911059 -1.33241 3.56894
-0.0121153 0.445485 2.96347
1.34382 -0.323866 2.76913
-0.403026 -1.24713 3.54958
0.468384 1.12321 2.87007
0.130558 1.38416 2.82806
-0.40066 -1.19485 3.52407
1.10791 1.03362 2.67163
-1.12973 -0.303664 3.18932
0.750324 0.397294 2.91726
0.198381 1.43777 2.58273
-0.0766291 0.265643 2.95145
0.873422 -1.4956 3.59004
-1.16299 -0.562089 3.34225
0.445278 0.986484 2.95101
-0.805568 -1.39003 3.47951
0.230415 0.225287 2.92744
0.0338585 0.522646 1.31094
-1.16686 -0.513 3.24705
0.380097 0.943378 2.95528
-0.401082 -1.36658 3.55193
2.30768 0.46142 2.60452
0.65608 -0.454688 3.07044
-1.35385 0.304563 2.95481
0.0336594 0.557763 1.23163
1.46688 0.904268 2.57657
0.394667 0.828262 2.9842
0.131971 -0.699466 3.23255
0.987755 0.102225 2.85375
-0.00360776 1.36779 2.88465
0.558808 -0.658012 3.21562
0.438454 0.799388 2.95717
1.13874 -1.74948 3.78488
1.87066 -0.667237 3.00936
-0.466604 0.0812846 2.9738
-0.439912 -0.630423 3.31724
1.14871 0.176513 2.78942
-1.21103 -1.42293 3.22923
1.74237 0.0737203 3.30198
0.880013 0.893948 2.91384
1.68857 0.779969 2.63119
-1.11351 -1.41868 3.32504
-0.256542 0.155881 2.95958
-0.666724 0.790878 2.97337
-0.475439 -0.592389 3.30812
-1.24765 0.0180588 3.12593
-0.335557 -0.840903 3.38507
0.895873 0.702849 2.89628
1.7126 -0.0418609 2.71304
-1.41879 -0.77238 3.19803
-0.530767 0.708099 3.08464
-0.785016 -1.26193 4.36702
1.54789 0.0507781 2.37198
0.600597 0.771685 3.00309
-0.601727 0.053947 3.03975
1.10636 -1.67053 3.50967
0.0405175 1.20497 2.86585
-0.0843006 -0.744245 3.25291
-0.574065 0.823939 2.73082
2.09255 0.264007 2.64979
1.12551 0.134213 2.81099
-0.507476 -0.625805 3.27561
0.256939 0.852553 3.06216
-0.804274 -1.55566 3.52023
-0.940098 -1.62989 3.44006
1.67551 0.0893005 2.76915
0.554921 -0.58359 3.18289
-0.564111 0.68391 2.09054
2.23326 0.564305 2.69785
0.274147 -1.55171 3.62797
-1.00371 0.239867 3.01805
-0.157501 1.05591 2.98035
-1.22206 -0.560087 3.29915
1.19176 0.843784 2.75338
-0.0802747 -1.47771 3.6043
-1.42676 0.199966 3.08526
-0.349772 1.29917 2.94866
2.13884 1.06557 2.93458
0.197275 -0.785421 3.2876
1.63221 0.0295086 2.71251
-1.13093 0.781941 2.96833
-0.594194 0.0153774 3.05233
-0.691887 0.725765 2.9626
-1.18682 -0.725379 3.18959
-0.358847 0.982415 2.70355
1.62134 -0.662137 2.92613
1.55398 0.0675239 2.7051
0.676032 -1.85059 4.01853
1.9635 0.116604 2.62194
-1.25399 -0.678596 3.31223
0.0776222 0.803662 3.0216
1.60556 -0.147727 2.79315
1.42722 -0.867951 2.92057
1.06843 0.586359 2.87795
1.92581 0.548653 2.63096
1.14235 -0.0957651 2.76279
0.389232 1.29525 2.91396
-0.0621513 -0.915569 3.33266
-0.647599 0.592873 3.10085
1.88897 -1.02722 2.90698
1.60348 0.61616 2.6469
-0.721301 -0.056198 3.06356
1.52812 -0.790327 2.94611
0.865529 0.627575 2.91012
-1.38956 -0.022546 3.11351
1.51516 -0.74873 2.91709
1.18907 -1.28563 3.38394
-2.54676 -1.9648 5.52484
0.641596 0.497018 2.9111
0.619849 -0.262678 2.9545
-0.790044 0.735677 2.37372
-0.095068 0.482821 2.9691
0.483678 -1.09053 3.44625
-0.411878 0.772542 1.87237
0.49039 -0.21429 2.97982
-0.0283207 -0.0719222 0.832015
1.4767 -0.886608 2.87416
0.0941764 -0.176985 3.01713
-1.28686 0.532451 2.87086
0.156429 1.27864 2.89548
-1.09533 -1.01986 3.2439
0.450062 0.514034 2.89507
-0.289256 -0.222051 3.11039
-0.611645 0.896036 1.86309
-0.122149 -1.02406 3.44885
1.13002 0.481108 2.88368
0.937669 -0.192205 2.91433
-0.232859 0.814696 1.92897
-0.0386904 -0.976897 3.34971
1.79809 -0.151574 2.80707
-1.33571 0.566818 2.89898
1.0609 1.23179 2.73701
-0.756424 0.7275 1.87359
1.10366 -0.357948 2.89199
-0.753038 0.40207 2.98004
-0.38109 -1.29919 3.54596
0.626118 1.06987 2.89085
0.0954337 -0.346577 3.09227
-0.188693 1.19271 2.95924
-0.652621 -0.0676904 2.1562
-1.23118 0.374537 2.99753
0.512291 -1.28001 3.60646
0.925256 -0.290583 2.9528
1.36608 1.07383 2.61392
-0.936468 0.0353734 3.08412
-1.03941 -1.12605 3.35592
-0.89464 0.478543 2.95742
0.843562 -0.274472 2.99649
1.63044 1.00126 2.49048
-0.299991 1.03031 2.8438
0.271837 0.425844 2.89916
0.0295738 -1.12757 3.42753
1.63132 0.259212 2.63582
1.35523 -1.41468 3.43287
-0.0513549 0.543199 1.31693
-1.24316 -0.51912 3.25903
-0.483358 0.708318 2.00791
0.35843 -1.32033 3.3674
1.30607 0.24635 2.81331
-1.03961 -0.456131 3.10287
-0.512979 0.695874 2.03742
-1.1226 -1.25301 3.33821
2.16462 0.425644 2.61888
0.801035 -0.421631 3.02332
2.40538 1.01723 2.9253
1.44688 0.290694 2.78101
1.59319 0.93996 2.58217
0.0443573 0.881898 3.06013
-1.4203 -0.653552 3.11978
0.347015 0.148678 2.94957
0.0923901 1.35125 2.87597
1.14733 -1.66788 3.58538
2.23163 0.605834 2.72297
0.33296 0.843272 3.03216
-0.488129 -0.64326 3.33042
0.184876 0.109551 2.94312
1.49051 -1.61079 3.54077
1.52217 -0.525014 2.79257
-1.32521 0.24053 3.06117
1.29168 -1.56546 3.60228
0.0470405 1.30302 2.88093
0.299371 0.963054 3.00999
1.42461 0.809089 2.6627
0.928102 -1.52811 3.6278
1.00362 0.165106 2.82947
-0.362595 1.41212 2.93686
0.366625 -0.537803 3.14717
1.55338 -0.439795 2.8616
0.0869152 0.312931 2.90579
-0.0209377 0.930456 2.26333
1.28571 -1.4071 3.52126
0.423092 1.03309 2.90287
-0.188448 1.05495 2.77586
0.569182 -1.35121 3.53233
1.23253 0.943015 2.73256
0.197304 0.282197 2.90777
-1.32449 -0.426874 3.16585
2.21051 -0.803019 3.3402
1.04785 -1.19035 3.22511
1.64465 0.362434 2.68126
0.616863 -0.375948 3.03282
0.0311926 1.08611 2.8778
-0.0971662 -1.34273 3.79425
2.17262 0.89064 2.92686
0.230096 0.352069 2.92624
0.155095 1.07807 2.9366
-1.18231 -0.352828 3.12717
-0.0619292 0.904631 3.02404
1.66583 0.613615 2.63756
-0.963697 0.189632 3.04189
0.823076 -0.570474 3.10028
0.846731 -1.5071 3.45877
2.19883 0.383804 2.61704
-0.600288 0.665586 1.9832
0.963323 -0.534603 3.00761
0.147768 0.263998 2.92534
0.125714 -1.52381 3.68945
1.12548 -0.469052 2.92268
1.51269 0.844553 2.61094
1.47822 -1.40029 3.36616
1.40011 0.202781 2.84359
2.38601 0.172207 2.85045
-1.38691 -0.786558 3.32934
-0.237162 1.31917 2.93399
-1.46054 0.0835233 3.20479
0.29896 0.763742 2.9236
-0.0742749 1.34839 2.89815
-0.957952 0.0432359 3.04365
-0.494953 0.787768 3.07618
0.26187 -0.715429 3.27892
0.795129 -1.73298 3.76316
0.99358 0.125296 2.84186
-0.560171 0.914472 2.86524
1.15338 -0.624094 2.94804
-0.441347 0.862232 3.01238
0.701735 0.102215 2.88552
0.151879 -1.59773 3.60884
-0.160817 0.527174 1.46593
1.47146 -0.572131 2.82034
-0.836321 0.845511 2.93985
1.12683 -0.105148 2.78351
-0.206849 0.638395 2.99251
1.20014 -1.69045 3.66294
1.24363 -0.886865 3.13229
0.377382 -0.0608959 2.93789
-1.02443 -0.873367 3.34811
0.463012 0.586647 2.94108
1.53444 0.262272 2.30669
0.592533 0.721269 2.99124
-0.736731 -0.0373893 3.08503
1.26213 -1.68377 3.53199
0.551806 0.00661657 2.95565
1.77136 0.79508 2.58066
-0.943948 -0.987872 3.80054
1.26492 0.635262 2.77701
-0.562335 -0.850795 3.47935
1.75851 0.907162 2.54349
0.0446288 -1.49933 3.64631
-0.27109 0.263968 2.97724
0.246473 0.996522 3.0114
0.895122 -0.535717 3.03983
-1.19915 -1.35146 3.4139
-0.869336 0.229103 3.01951
-0.67595 -0.506925 3.24268
0.697915 0.937669 2.91313
0.626101 -0.401086 0.777847
0.0617267 1.00371 2.92722
2.23604 0.184511 2.8674
-0.96651 0.304425 3.01314
0.126516 -1.71044 3.62312
-0.0573864 -0.4747 3.18626
2.27922 0.802996 2.88092
-1.03966 -1.29573 3.38423
1.15402 -0.669321 2.99432
0.711584 0.821272 2.96054
-1.01016 -0.690226 3.33343
-0.893621 0.119007 3.04437
-0.843293 0.829985 3.05153
0.914072 -0.658691 3.15898
2.39149 0.743055 2.85826
0.518297 0.0772677 2.89464
1.2267 -1.60424 3.48206
1.01229 -1.61143 3.60846
0.0394693 0.174112 2.93145
2.23447 1.03488 3.07859
1.54711 -0.567544 2.77307
-0.382736 0.900076 2.98026
-0.899308 0.151441 2.98334
-0.352644 -1.4632 3.42671
0.0625861 1.32381 2.8847
-1.14762 -0.597559 3.34151
0.174493 0.872808 3.01161
0.423498 -0.83386 3.29246
1.03457 -0.0341359 2.8825
1.59427 0.0463106 2.41192
0.888477 0.658961 2.88336
-0.518315 0.916026 2.87685
-0.0485927 1.11677 2.43854
-0.877039 0.768556 2.95347
-1.35356 -0.795949 3.30382
-0.105181 0.0499605 2.98923
0.483171 0.715465 2.98775
0.571725 -0.749787 3.2258
-0.185749 0.0108437 3.03434
-0.318966 0.66182 1.67571
0.502323 -0.173596 2.98351
1.52609 1.09894 2.5637
0.25428 -1.04246 3.48431
-0.161493 0.544227 2.85725
1.72415 0.920038 2.53333
-0.288973 -0.139731 3.02292
-0.167099 0.878306 2.01452
-1.29082 -0.936824 3.25934
1.6309 0.502897 2.80367
0.549985 -0.921725 3.30584
1.40736 -0.109507 2.71813
-1.30289 0.618041 2.80575
-0.669704 -0.915773 3.45078
1.57443 0.53275 2.64356
1.27053 -0.0697716 2.75521
0.291366 -0.802439 3.34796
0.0299554 0.0412522 2.94414
0.444421 0.744938 2.95831
0.917818 -0.735677 3.16116
1.746 0.000938911 2.74405
1.0048 0.703737 2.88667
2.32085 1.01318 3.15279
1.512 -0.0325874 2.21669
0.696216 -0.691379 3.1692
-0.937551 0.083664 2.95926
1.95894 -0.00190879 2.632
-0.491885 0.803772 3.03305
-1.13307 -0.148107 3.1015
0.761252 -0.968736 3.29437
1.70609 0.914772 2.5432
0.406346 0.566023 2.78793
0.750535 1.23187 2.82942
1.54835 -0.881175 2.80403
-1.47177 -0.104986 3.20357
-2.80831 1.13414 5.80529
-0.852832 -1.64652 3.45334
0.118468 -0.929119 3.34116
-0.909192 -0.0592617 3.0917
0.994998 -0.883382 3.28912
1.24976 0.64789 2.80324
-1.99913 -1.05163 4.04714
0.0532653 0.711404 3.21791
-0.347034 0.906233 2.60468
-0.295467 -0.0287266 3.05917
1.08539 -1.13438 3.42053
1.70026 0.457083 2.64536
-0.149094 -0.259532 3.06241
-0.370783 0.760643 2.17196
0.468793 0.455008 2.88635
-0.156466 -1.07354 3.45059
1.01375 -0.223558 2.89609
-0.190871 0.8113 1.96998
-0.61316 0.878672 1.86664
-0.681671 -0.106061 2.16375
1.20891 0.49925 2.80103
0.437824 -0.176849 2.99489
1.49758 -0.97876 3.2058
0.21296 1.39941 2.66239
1.30711 -0.384957 2.78895
1.47214 0.985833 2.6338
-0.268654 -1.32303 3.48688
0.693778 0.348944 2.91606
-1.00142 0.0128766 3.1031
1.39359 -0.349873 2.82416
-0.532851 0.713465 1.95112
1.45295 -1.2686 3.37293
0.187523 0.311429 2.91536
-0.510416 0.437157 2.96452
1.67173 -0.324584 2.70681
-0.207877 -1.22114 3.48116
-0.362835 0.77134 1.91824
0.0560785 0.68346 1.41155
-0.124993 -1.17267 3.4531
0.324383 0.386082 2.90359
-0.187045 0.792989 2.0354
-0.629801 -0.303839 3.07024
2.52451 -1.75569 3.54503
1.70318 -0.363125 2.68417
0.725123 1.076 2.85359
-1.32993 -1.215 3.30863
-1.34219 0.39804 2.93293
0.0830743 1.36106 2.62549
0.55795 1.06759 2.91609
-0.443679 -0.358851 3.21556
-0.0893188 -0.0276025 1.04241
-0.108251 -1.32444 3.71267
1.71434 0.327839 2.71842
1.37628 0.434025 2.79447
0.586738 -0.320997 3.0089
-1.15063 -1.12829 3.27064
0.26904 1.18764 2.95483
-0.0217702 0.963539 2.29977
0.578015 -1.17131 3.51202
0.0569863 1.10454 2.84633
-0.181442 -0.263207 3.0657
-1.0465 0.424016 2.8659
1.05574 -1.40973 3.44316
1.77121 0.272449 2.78933
-1.22649 -0.379259 3.19348
0.464746 -0.521426 3.1886
1.57472 0.895392 2.56463
-1.3385 -1.28067 3.27191
0.515844 0.245784 2.8022
1.44505 -0.441551 2.80786
1.57674 0.847479 2.53267
-1.14198 -0.591481 3.31255
-0.15244 0.901821 2.4534
2.51429 1.02088 2.85914
-1.33553 0.338641 3.03043
-0.12949 -0.435663 3.14513
1.99201 -0.503508 2.78487
-0.81805 -1.27034 3.36777
0.636506 0.861017 2.95737
-0.069419 -1.70414 3.60473
0.620181 -0.668936 3.17829
-0.646213 0.136556 2.99336
2.04832 0.583864 2.662
-0.0445689 -1.67795 3.66283
1.24587 -0.604312 3.0002
2.04345 0.254384 2.67011
-0.867396 0.824219 2.87292
0.873043 -1.73251 3.82703
-1.47654 0.124126 3.22625
-1.41107 0.228334 2.98102
-0.4155 -1.47666 3.42654
-1.18711 -0.613309 3.3322
1.29971 0.858523 2.68827
-0.376637 1.06704 2.87906
1.751 -1.5723 3.68547
-1.29576 0.188305 3.04769
0.749049 -1.5816 3.62345
0.75432 -0.541516 3.09677
-0.777618 0.670276 2.17089
1.50037 0.0254554 2.88054
0.318385 -0.813021 3.34509
1.51708 0.663949 2.60639
-1.42728 0.00016425 3.07337
-0.913754 -0.77377 3.32641
1.53381 0.636763 2.64727
-0.348055 0.696871 2.19072
1.50402 -1.45823 3.36075
1.67135 0.704958 2.63033
1.27506 0.0527771 2.78744
1.89361 -0.294708 2.71888
0.0153374 -0.717953 3.22087
-0.923101 -0.630742 3.2214
1.12949 0.836409 2.75651
1.09923 -1.63238 3.61171
1.68926 0.152812 2.77129
2.08714 0.211339 2.879
2.27602 0.846421 2.91158
0.333651 -0.576575 3.14728
-0.047918 0.883396 3.07747
-1.34151 0.154134 3.06427
-0.616568 -1.48724 3.4722
0.76165 0.945139 2.8634
-0.653123 -0.572946 3.32963
1.1617 -1.60177 3.76125
-0.0385151 0.261003 2.936
1.79525 -1.90392 3.96585
0.745875 -0.504348 3.10494
0.778594 0.915066 2.89359
0.706708 -1.5077 3.56986
-1.24142 -1.3056 3.23616
1.46357 0.205307 2.82095
2.34281 0.766567 2.87409
-0.0179517 -0.755425 3.25526
0.729621 0.0636769 2.90365
0.240364 0.63746 3.00332
1.16425 0.73512 2.77713
-0.0802329 0.0327203 2.96076
0.774013 -0.698126 3.17635
-0.183674 0.752826 3.04035
1.35715 -1.69859 3.62953
1.92152 -0.325363 2.72267
1.15302 -0.642644 3.00115
-0.174995 0.109907 3.00266
0.252604 0.782365 3.57391
-0.168963 0.837832 3.08423
-0.184244 -0.1017 3.04565
0.413078 -0.926878 3.3157
1.63562 0.240004 2.73413
1.13086 0.611095 2.88257
1.73439 -0.505583 2.77001
1.20831 -0.0869677 2.77023
1.15203 0.570453 2.8253
0.601757 -0.892849 3.29378
0.753058 -0.0363436 2.90719
0.769434 -0.00467442 2.92466
0.259519 -0.846435 3.28957
-0.506009 0.713107 3.06742
-0.0191572 0.654248 3.06014
-0.356103 -0.821499 3.40826
0.0619895 0.730719 3.14408
1.5365 1.14723 2.56485
1.16267 -1.03159 3.22123
0.886244 0.519552 2.90275
-1.02914 -0.236158 3.16062
-0.647712 0.830512 1.85623
1.69988 0.459837 2.74918
0.933506 -0.999535 3.22909
1.05114 1.12799 2.72266
-1.18417 -0.194534 3.10732
-0.381037 0.762095 2.06359
-0.377663 -0.990132 3.42408
1.65823 0.515568 2.73249
0.697652 -0.149585 2.97243
1.2324 -0.654986 2.95517
-1.23187 0.113213 3.02226
-0.298814 1.03096 2.96473
0.857193 0.809606 2.93486
-0.136074 0.786493 2.97037
-1.12987 -1.56156 3.3845
1.98058 0.731688 2.73244
1.68049 0.0547349 2.70666
-1.33902 -0.684826 3.28819
1.70888 0.14623 2.73272
-0.533737 -1.55085 3.49246
1.26717 -2.0082 4.32766
0.00802115 0.940401 3.12117
-0.91217 -0.632808 3.29503
-1.51587 -1.3737 3.1454
-1.09732 0.149953 3.0293
1.04219 -0.55959 2.96102
0.974809 -1.403 3.53271
-1.15179 0.822378 2.76707
1.33226 -0.755777 2.92097
-0.4214 0.695472 3.07297
1.40216 -0.0445105 2.81097
-0.676783 0.719221 2.25802
1.62884 -0.916203 2.91935
-0.595409 0.760351 2.99765
1.01365 0.027743 2.86335
1.83081 -0.718928 2.86724
1.14315 -1.9907 4.12449
0.338851 0.736596 3.04698
-0.121092 0.951232 2.03463
-1.42642 -0.730469 3.12907
0.225282 -7.7438e-05 2.99733
1.09949 0.545053 2.87303
-1.09966 -0.192273 3.13162
1.84265 -0.159465 2.73025
1.2397 1.21603 2.72411
-0.304019 -0.995343 3.29507
0.186403 -1.02026 3.50106
1.76553 0.883561 2.55044
0.218592 1.33441 2.89277
0.74926 -0.150947 2.96554
-0.427716 0.540562 3.03432
-0.0121916 -0.9193 3.3285
-0.213811 -0.104506 3.02107
0.751789 0.624899 2.9467
0.333447 0.598265 2.97812
0.0715245 -0.876689 3.29224
1.10309 -0.0728302 2.81536
0.575407 1.12943 2.8712
-0.122861 0.431022 2.97717
-0.685564 0.119172 2.49715
-0.793252 -0.311267 3.17713
-0.844635 -1.14354 3.39904
0.403734 -0.269759 3.09874
1.41843 1.0769 2.54014
-1.27084 -1.06687 3.27616
-0.207217 0.497747 2.94748
1.46891 1.04993 2.54137
-1.23332 -0.228035 3.13098
-0.954325 0.481918 2.97312
0.298823 -1.09919 3.48259
-0.203562 1.16592 2.95817
1.76884 0.857282 2.55119
-0.647008 -0.1557 3.0531
-1.071 -0.953616 3.34243
0.90695 0.574303 2.92227
0.770851 -0.111657 2.91705
-0.33422 0.763739 2.0732
0.851123 -1.63002 3.80174
0.837978 -0.920715 3.25616
0.475387 0.548631 2.90627
-0.298881 -0.891263 3.38077
-0.413751 -0.068888 3.00865
0.456205 0.659274 2.97837
1.01003 -0.846897 3.2714
-1.26646 0.625776 2.87128
-0.186236 -0.0364506 3.0291
0.822112 1.23007 2.79418
-0.104534 -1.13103 3.44274
0.153948 -0.268062 3.02803
-0.321643 0.472756 3.0227
0.99385 1.097 2.71818
0.29126 -0.21692 3.01811
-0.635246 0.852292 1.86649
-0.0287197 -0.0968538 0.797301
-0.568703 -1.06317 3.38753
1.65225 0.51621 2.80705
1.41251 -0.184264 2.71584
0.647803 1.17709 2.84703
1.5208 -0.944444 3.02917
-0.587938 0.514642 3.02617
0.0725842 1.22106 2.38482
1.10186 -0.409774 2.92943
-0.39067 0.744753 1.99181
-0.619226 -1.28202 3.40956
-1.25765 0.369735 2.97885
-1.21094 -0.397319 3.21537
1.23267 0.993387 2.72371
-0.987968 -0.00630516 3.10059
-0.0759481 -1.28266 3.52515
-0.382233 0.315573 2.98686
0.944816 0.415231 2.91822
0.913546 -1.26248 3.47083
0.905554 -0.343821 2.98784
-0.0106972 0.58643 1.27934
-0.791739 0.724279 1.81225
-0.339624 0.387032 2.96941
1.45505 -1.13502 3.21233
0.0160173 0.979387 2.14771
0.358675 -0.32548 3.14682
1.1375 1.03794 2.70291
-0.990569 -1.41516 3.37849
0.0352819 -0.551214 3.16907
2.35796 0.859503 2.93661
-0.523491 0.221741 3.0017
-0.300159 0.885006 2.78705
1.94809 -0.508273 2.79936
-0.103131 1.01088 2.9986
0.57794 -0.510323 3.15508
2.0884 0.322306 2.74624
-0.30668 -1.38611 3.45042
-1.09983 0.297048 2.96837
-0.376709 -0.472154 3.21799
1.26815 0.923695 2.77479
-0.623735 -1.3343 3.43393
-0.517139 0.266791 3.04509
-1.27887 -1.3069 3.21711
1.38106 -0.488278 2.85544
2.40624 -0.133804 3.05027
1.60283 0.235451 2.81246
1.41024 0.882643 2.66878
0.192519 1.34744 2.90283
0.113697 1.03917 2.95149
0.127095 -0.459274 3.10601
1.83783 -0.430012 2.72848
-1.18474 0.327168 2.98267
1.40359 -1.35173 3.32137
0.219536 1.03888 3.03161
-1.06954 -0.434863 3.15442
-0.531064 -1.30438 3.4362
-0.100115 0.28519 2.9577
-0.490911 -0.672755 3.25665
0.875438 0.845769 2.91151
-0.944875 -0.367989 3.1766
0.25096 -1.64456 3.59253
-0.97428 0.139631 3.00337
-0.264818 -0.634513 3.22681
0.815176 0.798627 2.90836
2.55412 0.117399 2.92616
1.57804 0.0835549 2.74645
-1.4382 -1.4373 3.18643
-0.503686 0.214642 2.99192
-0.518926 -1.47975 3.36903
0.0938239 0.95982 3.03206
1.06103 -0.567636 2.96511
-0.222756 1.10923 2.95753
-0.340791 0.175728 3.00668
-1.50522 -1.38454 3.3085
0.49547 -1.52259 3.58886
-0.682217 -0.567353 3.322
0.991631 0.860537 2.86258
0.638346 -0.793626 3.20492
-0.270796 0.920094 2.4051
0.802601 -0.0223877 2.89081
1.61179 0.637634 2.65082
2.27426 -1.51237 4.20681
1.32847 -1.40176 3.07655
-1.27801 0.786317 2.89602
-0.277279 -0.786838 3.3308
0.134711 0.0636616 2.92604
1.48578 0.65544 2.60839
1.44996 -0.679583 2.99292
0.45513 0.0232053 2.9198
1.27103 -1.87732 3.86244
1.73329 0.545658 2.76184
0.780824 -0.16293 2.97186
-1.04646 -0.646473 3.33748
1.37192 -0.893966 3.0075
-0.362264 0.914314 2.63936
-0.260366 -0.946307 3.4253
0.541054 1.25652 2.87112
-0.273536 -0.112887 3.00936
0.652148 0.560459 2.9447
0.836116 -0.891438 3.26497
-1.33177 -0.078308 3.13209
0.590391 0.669766 2.99025
1.09542 0.609753 2.87054
1.33421 1.15415 2.63935
1.2343 -0.811905 3.11296
-0.24699 -0.0483214 3.06913
-0.298862 0.0742089 3.0047
-0.890995 -0.783536 3.38398
1.48892 0.689617 2.60436
-0.784793 0.0249754 3.10768
0.15716 0.770001 3.07974
0.35528 -0.723451 3.24434
-1.10897 -0.605024 3.30562
1.8241 -0.496162 2.74416
-0.222624 0.852795 3.13902
0.59019 0.101169 2.91058
1.82155 -2.35519 4.99907
-1.12491 -0.697337 3.34899
0.925059 -1.73388 3.70863
1.0924 -0.108999 2.82931
-0.0515423 1.13726 2.62315
1.39563 -0.856742 2.97849
-0.155332 0.648401 3.07835
0.0294603 -0.0669351 3.00386
1.37322 -1.55522 3.36669
0.338077 -0.890712 3.31316
-0.534866 0.606982 3.109
0.886769 -0.824581 3.17388
-0.784616 -0.0129967 3.09924
1.13559 1.1821 2.71905
1.17996 -0.0508101 2.77231
0.803971 -1.68529 3.45602
-0.83746 0.751874 3.10987
-1.28083 -0.798533 3.29133
1.77802 0.98298 2.53545
0.434086 0.653095 2.9623
-0.890026 -1.07931 3.4523
-0.170843 0.547571 3.06251
1.08449 -0.225973 2.818
-0.329225 0.894969 2.56584
1.02879 -1.03067 3.31487
-1.10988 0.499104 2.93933
-1.15123 -0.199426 3.08633
-0.792549 0.747866 1.77808
0.915758 1.21083 2.7778
0.823549 0.535623 2.89413
-0.843504 -0.162784 3.1381
1.03004 -0.970873 3.23808
-1.46082 -0.407527 3.19917
-1.18699 -0.258073 3.14075
-0.711113 0.723728 1.8857
0.582386 -1.3279 3.58147
-0.84793 0.395275 3.00132
-1.06689 -0.126714 2.95932
1.58757 0.963087 2.59721
1.67867 -0.338865 2.68188
-1.1417 -1.12164 3.18288
-0.393575 0.348514 3.00416
1.64005 0.398089 2.62352
-1.28105 -1.11472 3.24187
0.296783 -0.323131 3.09279
0.648748 1.15896 2.88661
2.46503 1.01579 2.91112
0.542488 0.412821 2.93773
-0.939688 -1.05528 3.17782
0.52134 -0.265877 2.98296
-0.696844 0.733035 1.8656
-0.309357 0.936619 2.71642
-1.15876 0.720471 3.12758
0.100327 1.33735 2.88583
1.11307 -0.0472151 2.81017
-0.445552 -0.82585 3.33042
0.0164012 1.1915 2.85445
-1.00982 0.755728 2.92578
1.4336 -0.732602 2.93585
-1.05255 0.0346429 3.04201
1.09719 0.687149 2.8448
1.33781 -0.70443 2.94816
1.58573 -0.911738 2.90462
1.04948 0.544582 2.89202
1.10855 1.23561 2.7272
-0.401495 -0.00408929 2.99975
-0.0773586 -0.189807 3.05545
1.196 1.17689 2.72349
1.76379 -0.502019 2.78645
0.569007 -0.972436 3.29538
-0.646833 0.543562 3.06633
1.8097 0.525508 2.67647
0.574787 -0.155579 2.94739
-0.240387 0.895025 1.98875
-0.0993093 0.692096 3.15972
-1.44874 -0.878135 3.11168
-0.748174 -0.107597 3.0487
-1.12287 -0.893063 3.37339
-0.777561 0.60293 2.98236
-1.09225 -0.0730341 3.21475
1.01429 -0.348217 2.90005
1.07865 1.04625 2.66743
-0.91308 0.432026 2.94896
1.60665 -1.14338 3.10874
0.169524 1.0993 2.925
-0.869851 -0.317852 3.13602
-1.18943 -0.289533 2.98179
-0.687285 0.394761 3.05948
-0.204008 -1.16011 3.35127
0.206008 -0.273173 3.04657
-0.019376 0.866621 2.05224
0.0201556 1.20999 2.31709
0.280003 -1.21053 3.63344
0.18864 0.48983 2.93073
1.12024 -0.224818 2.82047
1.02509 1.09691 2.73339
0.212417 1.58369 2.74579
1.24403 0.427242 2.80289
0.903207 -1.0582 3.32262
-0.533578 0.319906 3.01634
-1.28091 -1.31675 3.36496
0.0537018 0.575919 1.37399
0.385049 1.05851 2.98507
1.15092 -0.437658 2.81386
-0.798186 -1.31981 3.4961
-0.621669 0.274312 2.95653
0.280694 1.02152 3.0128
1.55908 -0.405823 2.82518
-1.03541 -1.25548 3.476
2.26085 -0.105104 3.20478
0.935221 -0.390119 3.06644
0.0888622 1.12166 2.34249
1.71294 0.303353 2.66246
-0.692261 0.708697 1.9142
0.655513 1.14252 2.85379
0.14136 -1.17947 3.55091
-1.20978 0.465291 2.93066
-0.635212 -0.278643 3.08122
0.785829 -0.23196 2.97728
-0.514021 0.822693 1.891
-1.44091 -1.01354 3.16522
0.838749 0.517416 2.93397
-0.310587 0.795494 1.90381
1.12788 -0.18843 2.81476
1.15796 0.474897 2.8306
2.75164 -0.574975 2.8709
-0.0556717 -1.03599 3.39159
0.0195097 -0.426167 3.1223
-0.0148894 0.349128 2.94612
0.221793 1.48997 2.73004
0.786273 -1.35686 3.48347
0.840321 1.03898 2.82913
-1.21958 -0.291701 3.16711
0.989797 -1.32239 3.53965
0.754779 1.00818 2.8307
-0.539742 -0.40159 3.16888
-0.589458 0.307826 2.96134
-0.820246 -1.20964 3.40047
-1.09938 0.419196 2.84549
-0.983136 -0.371089 3.17242
-0.648662 0.747234 1.87781
2.04238 -1.13006 3.47929
2.73198 0.77583 2.8089
1.18678 -1.14484 3.26452
0.0629196 0.377717 2.92792
-0.402854 0.752616 1.94618
1.39879 -0.303977 2.80185
1.402 0.839581 2.64036
2.22947 0.425736 2.61505
0.734409 0.20826 2.88835
0.622809 -0.54855 3.12462
-0.567352 -1.43672 3.46314
2.35944 -0.117388 2.96649
0.352501 -0.50479 3.12266
0.644188 0.989565 2.89624
0.489426 0.280589 2.85785
0.583384 -1.60151 3.92804
1.43107 -0.443166 2.8329
0.788782 -1.74747 3.61393
-0.746513 0.672673 1.98539
2.36145 0.58872 2.76236
0.879372 -1.40243 3.51263
-0.742435 0.261326 3.0241
-0.904764 -0.448801 3.20584
-1.15252 0.11496 3.13369
-0.63667 -0.745338 3.44761
1.51054 0.728334 2.62254
2.29232 0.771951 2.88117
-1.16796 0.0796389 3.12967
-1.28332 -1.56066 3.35114
-0.372779 0.800497 3.06802
0.233111 -0.688654 3.25872
-0.468982 -1.55168 3.47187
0.728606 0.16149 2.87518
0.769539 -1.66616 3.82941
0.529591 -0.64291 3.19656
1.25602 0.805279 2.69019
0.63222 0.128885 2.89236
0.309997 -1.5453 3.5712
-0.734637 1.05373 2.87714
-0.379968 -0.602731 3.30287
-1.24329 0.840496 2.83033
1.11897 -0.648792 3.00625
1.21666 0.110166 2.749
-0.912182 -0.30347 3.15643
-0.217976 0.87173 3.04309
-0.426673 0.825635 3.08395
0.50125 -1.65256 3.67114
1.9268 -0.610516 2.9801
-0.0490243 0.0934028 2.98267
-0.391362 -0.659165 3.3188
-0.927736 0.217161 2.99181
0.45071 -1.59631 3.67062
-1.48489 1.0495 3.25054
0.110909 0.163775 2.9382
0.65366 -0.591348 3.08021
-0.0391621 -1.48282 3.5392
0.315287 0.164154 2.92651
1.00329 -1.61727 3.63327
1.37263 -0.523259 2.86814
0.491969 0.883866 2.95596
1.20236 0.67945 2.82889
0.426868 -0.0157589 2.9579
-0.476087 0.891972 2.65533
-1.16202 -0.816629 3.37777
1.95592 -2.17242 4.75469
1.31022 0.71939 2.7492
-1.17896 -0.782616 3.37869
-1.05468 0.0668302 3.06161
0.170051 -0.726483 3.22563
0.839082 -1.71371 3.67293
-0.0639292 0.740159 2.98434
1.67376 -0.0875769 2.59717
1.72479 0.00724451 2.7124
-1.27846 -0.987527 3.38078
-1.47276 0.634702 3.11604
1.73735 1.09761 2.5503
0.334409 -0.15605 2.9815
-0.457736 -1.00505 3.57366
-0.138546 0.567707 3.03073
1.92778 0.157917 2.73643
-1.33405 -0.123039 3.0735
-0.0280085 1.13278 2.68823
1.32102 -0.827621 2.98457
0.994381 0.645696 2.91681
1.63196 -0.0913223 2.81945
-0.696046 -0.890704 3.39352
-0.628128 0.624508 3.01755
1.17107 1.19395 2.7179
-1.20897 -0.0449224 3.05706
1.32304 1.03808 2.57131
-0.749882 0.465545 3.01135
1.66405 -0.277759 2.83674
1.35105 -1.16845 3.44959
-0.985068 -0.246221 3.13302
-0.575993 0.855943 1.86488
-1.23073 -1.02998 3.24622
1.62777 0.472356 2.63461
1.92998 0.549576 2.63858
0.79926 -0.192394 2.9495
-0.108604 0.85246 2.04575
0.325786 -0.072757 0.154992
1.32037 -0.969327 3.06875
0.818206 0.479658 2.96012
-0.850431 0.657494 3.09093
1.22773 -0.121756 2.8044
1.88059 0.474404 2.64241
0.619719 -0.944099 3.30859
1.60386 -0.733202 2.58151
1.06656 -0.0812178 2.81743
-1.31375 -0.873844 3.23386
0.592963 0.585841 2.97523
-0.0770428 -0.0134183 2.97308
1.72233 -0.765807 2.8725
-1.38879 -0.0461606 3.10924
-0.195122 0.701332 2.99364
1.38933 1.17997 2.60754
1.79279 0.491585 2.64816
1.18126 -0.739391 2.97402
0.322977 0.677676 3.02992
1.02394 -1.08873 3.36871
-0.0104129 -0.239817 3.06511
0.321219 0.466824 2.86989
-0.476557 0.780619 1.86418
1.52274 -0.201486 2.75798
-0.380329 0.858638 1.90478
0.167114 -1.03629 3.3735
1.17825 0.52528 2.81657
-1.25485 -0.16424 3.15477
-0.0330442 1.16628 2.68483
-0.469233 -1.00447 3.39554
-0.720647 0.519715 3.02739
0.311849 -0.392463 3.06199
1.32587 0.351226 2.75722
