ply
format ascii 1.0
element vertex 1839
property float x
property float y
property float z
end_header
1.36446 1.03385 2.61016
-0.677483 -0.101577 2.15955
-0.890572 0.403001 2.94838
-0.473656 -1.20939 3.55497
0.56774 1.38504 2.86242
1.35117 1.00572 2.60142
-0.0459611 -0.306992 3.09508
0.327296 1.48954 2.70041
-0.855197 -1.07911 3.34765
1.03743 0.476924 2.90967
1.92952 -2.61366 4.53392
0.584584 -0.277139 2.97826
-0.308641 0.798527 1.88363
-0.205559 1.13752 2.95333
-0.458299 0.47683 3.029
-1.18067 -1.01658 3.30085
-0.830122 -0.238388 3.14412
0.394675 1.13872 2.8637
-0.798872 0.691624 1.95947
-2.09127 -0.767686 4.60077
1.60824 -1.89847 4.30705
1.11681 0.262298 2.8023
0.0827789 0.76343 1.54832
-1.14981 -0.469419 3.13971
-0.533933 0.695571 2.04281
0.645105 -1.48931 3.73
-0.00623866 -1.4304 3.69115
1.07136 0.239921 2.874
-0.238426 -1.21239 3.517
-0.687928 -0.432603 3.24898
1.02251 -2.18034 4.10683
0.422126 1.04551 2.86957
2.43446 0.834369 2.8975
1.06102 -1.30076 3.38122
-1.33036 0.3759 3.00307
1.67027 -0.368473 2.75313
1.50205 -2.25622 4.50496
1.47741 0.932538 2.5934
-1.53469 -1.23503 3.33275
2.30202 1.02914 2.98031
0.78827 0.295422 2.9187
1.08557 -0.975802 3.3017
0.958602 0.577644 2.91221
-0.168324 -0.140028 3.07229
0.158774 -0.931923 3.32978
-0.492988 0.567704 3.05523
0.74916 1.38685 2.84092
-0.84398 -0.108008 3.09273
0.58003 1.27333 2.87034
-0.918793 0.775648 2.79802
0.229287 0.661127 3.1346
-0.785666 -0.566659 3.23781
0.860034 -0.0885255 2.91891
-0.483368 0.806728 2.42395
-1.21793 -0.872987 3.3448
1.79153 -0.207772 2.75324
0.623236 1.34512 2.86108
1.31232 -0.283321 2.80732
0.492285 1.14258 2.89323
0.263242 -1.22009 3.57724
0.724419 0.462229 2.93022
0.797712 -0.263357 2.98538
-0.314733 0.784313 1.94953
-0.320529 0.430967 2.99889
-1.46691 -1.05409 3.19644
0.385642 -1.0656 3.41248
1.25217 0.497337 2.81401
1.77161 0.325745 2.79656
1.78962 -0.218062 2.76534
-0.568366 0.853002 1.88067
0.139544 1.41607 2.66845
-1.42098 -0.965616 3.21573
-0.913704 0.512405 2.96231
-0.494671 -0.177633 3.07309
-0.413423 0.899507 2.65593
-0.676912 -0.101997 2.15947
-1.27258 -1.25058 3.31785
1.85978 -1.88149 4.34507
-0.96134 0.0383446 3.09987
-0.81383 -0.430461 3.2235
-0.789813 -1.25765 3.46655
2.71756 -0.141943 3.76467
0.688992 0.303937 2.89595
0.244519 1.3857 2.79563
-0.400807 0.731203 1.99746
0.135428 1.08784 2.90675
1.83201 -0.363456 2.82427
2.51539 -0.942174 3.15643
0.696499 0.373032 2.90085
1.23881 -2.34946 4.28399
1.54376 0.943774 2.47698
-1.06224 -0.358512 3.23832
1.13752 0.333629 2.85897
1.66514 -1.12756 3.11728
0.454097 -0.584653 3.16859
0.881381 0.905194 2.88228
2.18929 0.345361 2.62241
-0.181056 -1.46342 3.37539
-0.407579 0.217318 3.05152
1.10655 -2.41338 3.86754
0.436626 -0.53954 3.15748
0.222032 0.881183 2.98266
-0.0960856 0.461409 1.42334
1.33457 -1.50851 3.57809
0.574806 0.168096 2.85327
1.44645 -2.46602 4.00407
-0.515998 -1.46085 3.65783
0.307032 0.27821 2.90627
1.37703 -2.07209 3.49298
2.15312 0.265378 2.64451
1.54442 0.905618 2.60096
-0.492644 -0.490098 3.14016
-0.804516 -1.32339 3.43592
0.935845 0.251575 2.88288
2.11638 -0.188809 2.93997
0.353962 -0.45884 3.084
0.418016 0.987957 2.9754
2.30874 0.544626 2.68843
1.05206 -1.30341 3.4954
-0.485753 0.387606 2.997
1.35941 -0.364015 2.85179
-0.483812 0.751168 1.93168
-0.329123 -1.23863 3.49743
-0.929901 0.362805 2.94105
0.700479 1.04134 2.84881
0.177153 -0.349765 3.05432
0.116839 1.44739 2.67305
-0.710766 0.726115 1.81526
-0.955603 0.0294125 3.09134
1.40607 -1.10102 3.16688
-0.540309 -0.31494 3.11564
0.881153 1.16392 2.45679
-0.591703 -0.971825 3.46357
-0.422284 0.432006 2.99051
2.67897 -0.171948 3.75119
0.013807 0.960663 2.95783
0.820582 -0.52383 3.0824
1.30399 -2.45293 3.98587
-1.30299 0.281076 3.02212
-0.85835 -1.44419 3.52778
1.89904 0.417632 2.64712
-0.794791 -0.483731 3.0778
0.122485 0.958881 3.039
2.67567 -2.00378 3.66098
-1.2536 -1.33489 3.37454
1.59692 -1.79741 4.29077
-1.20164 0.232711 2.97583
-0.712252 -0.475282 3.26078
1.73233 0.288124 2.75248
2.09536 -0.144423 2.92673
-1.22386 -1.29099 3.36285
-0.617105 0.695417 1.95001
1.95637 0.0604292 3.01518
1.04368 -2.2407 3.85489
-0.578082 -1.29314 3.43615
-1.03526 0.305048 3.00146
-0.27901 0.749125 2.11718
1.94639 0.493153 2.6396
0.959253 -0.409801 3.00931
1.24262 -1.657 3.56793
1.3056 0.126917 2.78719
-0.132123 -0.668361 3.26867
-0.690388 -1.55283 3.25848
0.58577 0.848609 2.94789
0.784013 0.0956924 2.90053
-0.929195 -1.50556 3.40404
1.03548 -1.76882 3.56262
1.07268 -0.600153 3.03088
0.353856 0.820405 3.0087
2.02935 0.473667 2.61956
-0.634492 1.13515 2.85884
1.50396 0.79567 2.58911
2.17165 -0.030714 2.92028
-0.616234 0.175598 3.0254
-0.316993 1.41548 2.94107
-1.39685 -0.591242 3.20202
-2.30699 -2.44226 5.48962
-0.355024 -0.850183 3.34825
0.599116 -0.0369356 2.92258
-0.337918 0.770355 3.19209
-1.02366 0.107335 3.06342
-1.34986 -0.809769 3.19532
-0.724389 0.00846236 3.05903
0.521734 -2.0723 3.57414
2.14383 1.00579 3.04584
-1.00256 0.681248 2.9059
0.115237 0.603351 3.00308
0.516806 -0.786463 3.22909
-0.582692 -0.920903 3.35924
0.364242 0.0740791 2.92886
0.239944 -0.747794 3.27931
0.6976 0.771059 2.93979
0.0454329 1.32001 2.85232
0.450199 -1.85457 3.58414
1.20483 0.0150143 2.78856
0.861905 0.733048 2.91634
0.834977 -0.685839 3.15095
-0.233683 1.00447 2.74478
-0.314894 0.725605 3.00593
1.80131 -0.563105 2.84498
0.0999946 -0.79524 3.28
0.348377 0.0222676 2.95608
-0.279432 0.568599 1.83388
0.405476 0.715412 3.04076
-1.11805 -1.03136 3.33893
1.0375 -0.729016 3.09039
1.69818 -0.0114084 3.10886
-0.0521488 -0.701549 3.27897
1.01732 0.0803612 2.82562
-1.10335 -0.103897 3.14015
1.92727 -0.165128 2.89185
0.164553 0.812365 3.02623
1.37875 0.194669 2.01439
1.55541 0.694801 2.61812
-0.844097 -1.59814 3.44969
0.470742 -1.54976 3.58208
1.85861 -0.283234 2.72602
0.884233 0.05318 2.89784
-0.99668 -0.685964 3.31314
1.48076 0.569674 2.66168
0.712696 -0.921865 3.2736
0.615288 -0.119515 2.96399
0.575185 -1.77194 3.72997
-0.940773 -0.886402 3.36133
1.40094 0.534859 2.69137
-0.995265 0.262812 3.054
-0.589546 -0.0834196 3.07503
1.76888 -1.05341 2.99298
1.20424 1.24161 2.72863
0.0983288 0.666159 3.0036
0.257664 1.63302 2.79039
1.27547 -0.0556053 2.79628
-0.97316 -1.35311 3.41087
0.569654 -0.850169 3.32405
-0.0551108 0.00663549 0.839365
-0.0424436 -0.25513 3.07124
-0.56364 0.777648 1.84839
0.687961 -1.12812 3.41872
-0.819362 0.521573 3.05848
0.590476 -1.75224 3.65196
-0.661152 -0.240159 3.12658
0.298178 1.15674 2.93091
0.648139 0.450636 2.90739
1.24408 -1.02184 3.1939
1.88884 -1.8662 3.41727
-0.914603 0.624577 3.23344
-0.188068 -0.19424 3.05866
1.27913 1.20423 2.69268
-0.855185 -1.0302 3.42976
-0.0142969 -0.0959905 0.798338
0.46176 -0.994479 3.42004
0.921804 0.514733 2.88619
1.44969 -0.151221 2.76753
0.000739425 1.23032 2.72951
-0.178555 1.14972 2.96055
-1.16069 -1.1756 3.26927
0.983681 -1.90966 3.93671
-1.00723 0.395383 2.91775
-1.3304 -0.39815 3.1872
0.0576879 1.0947 2.93104
0.438062 -1.25507 3.52806
-1.38763 0.370538 3.00213
-1.1045 -0.216036 3.12058
-0.54373 0.734232 1.95064
0.296534 -0.361214 3.0789
0.898203 1.07031 2.76135
0.0716967 0.615939 1.32756
0.89852 0.418029 2.91283
0.998797 1.06773 2.49012
-1.35598 -0.326762 3.16853
0.0337631 1.13528 2.41431
-0.0412679 -1.19382 3.46966
1.34029 -0.221517 2.80568
-0.483744 0.824693 1.89043
1.89362 0.297343 2.82022
1.15549 -1.06339 3.31829
-0.331578 0.529705 3.05562
-0.0254019 -0.19363 3.06439
0.733828 1.15345 2.81557
1.14993 1.24295 2.72779
0.819471 -1.00141 3.25045
1.26011 0.464663 2.82456
0.798595 0.149763 2.87924
0.639723 -0.152378 2.97065
0.340555 1.39996 2.85324
1.75892 -0.898849 3.02171
-0.0440549 0.660722 3.21301
-0.442249 -0.10721 3.0434
0.486653 1.28725 2.88207
0.586067 -1.5114 3.60643
-1.4067 -0.903221 3.23041
1.4771 0.507724 2.69099
-1.50475 -1.18762 3.29819
-0.80847 0.438791 3.01068
-0.0740264 -0.0340229 1.01377
1.04926 -0.344165 2.92111
-0.472112 0.747648 1.89724
0.016229 -1.1716 3.43316
1.61548 0.342063 2.66695
0.648714 1.08056 2.9036
0.19685 -0.319848 3.05551
0.0664792 1.39647 2.49519
0.413394 -1.17137 3.55543
1.84085 -2.46039 4.20088
1.03937 -0.260391 2.87934
-0.493594 0.45248 2.97712
0.10044 1.31632 2.64882
0.133845 1.12206 2.88132
0.379762 1.00912 2.98968
0.257024 -0.497138 3.12033
-1.51718 -0.232451 4.42751
1.3349 0.249398 2.78676
1.01173 -1.41632 3.46098
-1.12169 -0.616011 3.31003
0.0149559 0.610138 1.52841
1.30135 -0.443394 2.87661
1.01225 0.926406 2.78348
1.07747 -1.37116 3.47482
0.115765 0.246314 2.90706
-1.21528 0.0664761 3.52293
-1.18319 -0.438917 3.20612
0.863868 0.333011 2.91029
2.05985 0.306166 3.19206
0.537367 -1.35815 3.57688
0.0115855 1.05201 2.91467
2.09501 0.451336 2.63018
1.20564 -1.89485 4.0842
-0.996521 -1.26538 3.48144
0.70246 0.993936 2.85322
2.17599 -0.117601 3.18272
1.61238 -0.361578 2.75154
-1.37809 0.325444 2.95922
1.72243 0.163525 2.74575
-1.27042 -1.42184 3.16121
1.4715 0.786262 2.60278
0.0756791 -0.631484 3.19918
-0.486912 -1.49098 3.47915
1.51484 -1.91953 3.44958
-1.17535 0.145745 2.95695
1.68891 -0.538742 2.78114
2.13229 0.209407 2.89431
0.156868 0.846336 2.99235
1.25041 -1.58496 3.74367
0.70558 -1.45722 3.57069
-0.0869383 0.92942 3.02776
-0.0235531 -0.548721 3.16741
1.9362 -0.213517 2.88922
1.73175 0.202174 2.74677
2.10397 0.336225 2.64591
-0.327424 -1.04305 3.47526
1.47839 0.420641 2.69556
0.321172 1.33213 2.90479
0.995658 -0.31065 2.92272
-0.638768 0.757717 1.86741
1.53422 -1.14107 3.24415
0.228734 -1.1355 3.50492
-0.20215 0.785191 1.96111
0.90725 -0.260661 2.98172
1.74264 0.453195 2.70006
-1.03093 0.454822 3.04756
-0.256894 -1.05919 3.35604
-0.883192 0.563884 3.08191
1.37652 -0.220945 2.81733
0.0974073 1.36034 2.62329
-0.567785 0.835244 1.87882
-0.523692 0.493332 3.00674
-0.0837154 -0.0325549 1.02671
-0.489941 -1.08907 3.56818
1.07695 1.13435 2.69648
1.76045 -0.204695 2.8295
-0.354539 -1.31898 3.49879
0.246522 1.04612 2.98305
1.44266 -3.06393 4.67766
1.42335 -0.394562 2.83598
0.070856 0.610833 1.40337
-0.203314 0.313546 2.99167
2.72325 -0.468542 3.86195
0.196786 1.48422 2.64501
1.23266 1.05099 2.7373
0.0374152 -0.374897 3.10308
1.46391 0.381293 2.91685
0.258064 -1.29567 3.54325
1.40732 0.979301 2.62125
1.23805 -0.347216 2.84507
2.21003 -1.78598 4.36061
0.057259 0.933164 1.87593
-0.986813 0.36266 2.96189
-0.866822 -1.1946 3.40977
-0.9402 -0.577934 3.15033
2.07576 0.4231 2.63677
-0.093303 0.207869 2.95609
-1.00141 -1.42265 3.30924
1.24159 -2.36181 3.91427
1.2623 0.875032 2.7456
-0.307066 0.904221 3.0656
1.0125 -1.58471 3.746
2.44059 1.08278 2.91808
1.7285 0.154025 2.73421
0.337191 -0.533245 3.14374
-1.22024 0.339857 3.68178
-0.601513 -1.63086 3.42236
-0.15108 0.284508 2.96335
0.925575 -1.56258 3.81999
2.43923 1.10903 2.8632
1.18855 -1.8046 3.53201
1.0353 -0.466772 2.92717
-0.0701095 1.00647 2.99885
2.32817 0.619669 2.75649
0.53826 -1.47029 3.73725
-0.312579 0.256317 2.99503
2.3172 -0.214635 2.92657
-0.205376 -0.463906 3.16692
-0.728359 0.676287 1.98476
-0.00793938 0.774112 2.98334
0.277283 -2.01415 3.59885
-0.671642 0.0672246 3.05244
-0.985403 -0.573509 3.30399
-0.667539 -0.733017 3.40544
-0.414452 -0.927812 3.39548
-0.112716 1.35311 2.90413
-0.822781 0.668905 2.25702
0.451221 -0.651948 3.1464
-0.54503 0.131444 2.9971
0.402999 -1.61866 3.55411
-0.899337 -0.668075 3.40298
1.32467 0.746668 2.69828
-0.405662 -0.95815 3.42432
-0.508302 -1.55867 3.50559
0.466343 0.0939735 2.88562
1.20328 0.906628 2.75348
-1.34141 -0.561384 3.2301
2.18857 0.964096 3.04347
1.91759 -0.490977 2.797
-1.75037 -1.50448 3.52941
1.47452 0.2419 2.84788
2.41976 -1.28319 3.7773
0.481228 -0.513051 3.14262
-0.413754 0.684936 2.10552
0.0875241 0.695948 1.45821
2.53312 -0.782113 3.71504
-2.22352 -1.91726 4.62604
-1.12509 0.233411 3.05333
-0.836245 0.320761 2.96648
2.3831 -1.3015 3.2578
-0.998941 -1.37561 3.46272
0.368707 1.0544 2.98165
2.32476 0.964036 2.93273
1.58458 -0.44036 2.86093
-0.755642 -1.31873 3.50478
-1.32937 0.309546 3.01652
-0.707714 0.69414 1.97161
1.09217 -2.2021 3.70496
-0.0260665 -0.432739 3.1707
2.1022 0.356075 2.62912
0.876392 -1.69812 3.68166
2.09033 -0.150086 2.92355
1.24581 -0.631011 2.9808
0.787993 -1.69121 3.64394
-1.37872 0.118659 3.08407
1.26941 -2.49801 3.47042
-0.566742 0.821726 2.95681
2.21513 0.273475 2.63975
1.28314 1.02835 2.7134
1.30214 -0.575617 2.84629
-0.665245 0.643281 2.07408
2.1099 -0.0101853 2.92725
1.18228 -1.7197 3.78445
-0.201021 0.187285 2.99016
0.50089 -0.595214 3.20993
1.06471 0.811133 2.81291
1.67308 0.120066 2.7614
-0.0800245 -1.56893 3.63691
-0.0561872 0.693044 2.97559
1.15153 -0.0425567 2.81069
0.0867054 1.28038 2.76926
-0.54318 0.000937507 3.0554
-0.371419 -1.37915 3.52906
1.40056 -0.752115 2.92288
-0.915681 0.674446 2.93904
2.26489 0.937399 3.2062
-0.552777 0.594554 3.0555
0.876957 -0.771403 3.15241
1.43203 0.0472903 2.87032
-0.54747 -0.769532 3.30272
-0.867252 -0.562938 3.17998
-0.314026 0.786338 3.03612
0.801055 -1.52945 3.72267
-0.935249 0.041765 3.06704
-1.10725 0.230313 3.03184
-1.00851 0.775297 2.99947
0.0502201 -0.707011 3.24239
0.177848 -1.75458 3.59496
1.83892 -0.164017 2.87184
-0.0887051 -0.957122 3.37562
0.314537 -1.72296 3.62573
-0.187227 -0.145004 3.04908
0.0701305 1.2372 2.78096
0.955424 0.543357 2.89581
-1.02215 0.369487 3.03135
0.251666 1.30438 2.91584
1.82176 0.885538 2.54455
-1.16353 -0.109106 3.12657
-0.495696 0.63709 3.07105
1.49324 -0.82324 2.84436
-0.281923 -1.0749 3.48427
-0.271479 -0.0771437 3.05307
1.64702 -0.799691 2.89652
1.20397 0.549824 2.80433
-1.25618 -0.910625 3.26698
-0.00555211 -0.0489876 0.66401
-1.30012 -0.111687 3.1075
1.78901 0.515796 2.65449
0.202578 0.570904 2.93497
-0.801463 0.4177 3.0484
-0.650363 0.703271 2.20442
0.585572 -0.0764137 2.93715
0.503351 1.26393 2.89022
-0.593238 0.67998 3.09169
0.267965 -0.894072 3.31863
2.03795 0.214456 2.82479
-1.26544 -0.0421404 3.08051
1.03365 -0.84454 3.27324
0.595597 0.619138 2.98353
-1.28927 -0.287711 3.19929
-0.745702 0.752392 1.79274
-0.720501 -1.11883 3.42454
-0.277392 0.488502 2.98637
0.519425 -1.75182 3.62007
-0.204878 -0.23021 3.09351
0.429762 1.14461 2.90416
1.56918 -2.05835 3.43491
-3.40985 1.10839 7.05097
0.59975 -1.08125 3.38579
-0.774323 -1.05643 3.48412
0.988777 0.536296 2.90532
0.65618 -0.199548 2.95152
-0.854701 0.227351 3.03533
-0.32226 0.800773 2.09879
0.060302 0.521754 2.9699
1.14681 -0.975936 3.28451
0.509161 1.35562 2.8879
-0.30506 0.898205 1.93697
-0.738695 -0.153698 3.09704
0.858458 -1.35491 3.66556
1.05908 -2.01858 3.74395
-0.985182 -0.392723 3.15349
-0.268641 -1.12416 3.49381
-0.0659856 0.348656 2.9667
0.0471884 1.35724 2.64194
-0.762932 0.706307 1.89747
1.75326 -0.351636 2.72494
1.61288 1.00729 2.53237
2.50311 0.700273 2.7952
1.55482 0.366956 2.51135
2.2783 -1.26845 3.56646
-1.06231 -1.09054 3.10158
-0.671716 0.733013 1.92055
0.40129 -0.316392 3.07735
-0.250755 0.369396 2.94524
0.492851 -1.28691 3.68499
0.150108 -0.551278 3.1516
2.32987 -0.155374 3.02795
-0.230036 0.242722 2.97857
-0.736645 -1.45796 3.52486
-0.550048 -1.56684 4.82363
1.67921 0.853867 2.54614
1.36974 0.836921 2.64696
-0.92822 -1.39539 3.48539
0.28287 1.37746 2.90642
-0.0463962 0.213293 2.94111
0.876499 -0.505571 3.03456
1.55595 -1.75536 4.0814
-0.685478 -1.35064 3.46463
-0.794763 0.32562 3.00606
2.35408 -0.212928 2.90436
1.12835 -0.431636 2.88021
0.674344 1.00298 2.86607
2.28079 0.630687 2.7609
-0.130007 -1.33744 3.57069
0.0902273 0.267611 2.89512
2.38332 0.898159 2.93454
0.694618 -2.45467 3.99194
-0.722109 -0.434487 3.1676
0.613399 0.986517 2.89703
-1.3923 -1.14101 3.16723
0.0629868 0.41363 2.92272
1.15266 -0.351085 2.86902
-0.784899 0.730852 1.8483
0.597707 -1.22197 3.51977
0.269807 0.356659 2.89342
-1.06981 -0.130854 2.95957
-0.827717 0.716452 1.85854
1.07081 -0.314121 2.86872
0.189317 1.15919 2.94955
0.0795434 1.31176 2.44144
1.34669 0.427656 2.79445
1.05096 1.03313 2.4853
-0.454559 -0.29773 3.09724
-0.996196 -0.0125981 3.10599
-0.652718 -1.11454 3.39485
0.387788 -1.42494 3.54455
1.32945 -0.470314 2.83957
-0.491105 0.701573 2.02319
1.21967 0.269275 2.84333
1.05674 -1.61514 3.71825
0.548389 -1.50087 3.6621
-1.38019 -0.494313 3.24437
0.62361 0.961545 2.92382
0.0596662 0.941967 1.95725
1.64812 -2.62203 4.0614
-0.952135 -1.38858 3.56705
0.653376 0.22538 2.90681
-0.599487 0.337982 2.98723
1.57642 -1.89911 3.43393
1.39754 -1.31178 3.35202
0.0569543 1.04931 2.91729
2.3384 0.24636 2.74557
-0.624767 -0.448911 3.18679
0.62137 0.283212 2.90373
0.457171 -1.28514 3.48606
1.21626 -1.73018 4.01648
-0.79603 0.684459 1.88429
0.564447 -0.389595 3.04699
1.10023 -1.66988 3.61185
-0.0694101 -1.58 3.53295
-0.514741 0.16443 2.99705
-0.282715 -1.08051 3.48083
-1.44068 -0.614741 3.04716
0.774678 0.858681 2.86816
0.854643 0.115244 2.89144
-0.80886 -1.44977 3.35503
1.58564 -2.14286 3.43452
0.374582 -1.74562 3.63813
-0.544012 -0.575043 3.10464
0.34705 0.849255 2.98281
2.00223 -0.78626 3.26198
0.668542 -1.62601 3.61994
-0.45206 0.678813 2.10565
1.92605 -0.965986 3.25134
1.30494 0.192589 2.79098
1.80664 0.308589 2.82168
1.25976 -0.528378 2.91729
0.78132 -1.71833 4.0414
1.31571 0.669082 2.72197
2.22411 -0.18735 3.591
-0.271829 0.0255319 3.02349
0.415736 -0.811243 3.3142
-0.239459 0.724416 3.10545
-0.582506 -0.602018 3.3059
-0.0769246 1.09075 2.9607
0.706965 -0.0106996 2.92596
-0.796976 -0.798116 3.44644
1.92388 -0.814909 3.11198
-1.05035 0.222208 3.06046
0.902418 0.0940592 2.88545
1.67685 -0.768059 2.55868
1.03783 -0.670265 3.04253
-0.097575 0.82019 3.06668
-0.00218104 -1.37272 3.36179
-0.250197 0.0594471 3.04499
-0.807357 -1.60305 3.44705
1.84011 -0.511731 2.75392
1.64299 0.698164 2.66214
-0.912791 -0.690918 3.31697
-0.196368 0.768722 2.10857
1.71967 -2.20363 4.6932
-0.549749 0.313411 3.04067
-0.935795 0.0182341 3.08657
1.43448 -1.76038 3.97962
0.466413 -0.420999 3.05683
0.102176 1.24749 2.43893
-1.05064 -1.25213 3.29652
1.13718 -1.88991 4.09542
0.970763 -0.376446 2.98989
-0.346634 0.766223 1.98102
1.33974 -1.21812 3.25402
0.581001 0.366409 2.93181
1.31261 -2.44272 4.04118
0.701861 -0.358938 3.01814
1.44445 0.975505 2.63061
1.48939 -1.21556 3.35173
0.504594 0.326089 2.85145
2.50831 0.310539 2.64993
0.78843 -1.71313 3.91551
1.16687 0.200008 2.79829
2.24552 0.158826 2.98495
0.167251 -0.588006 3.17902
-0.362012 0.918267 2.7804
-0.0680336 -1.93194 4.27724
-0.177478 -1.50669 3.62968
0.943411 0.15257 2.83471
2.34109 -0.0889779 2.98829
1.5775 -0.486276 2.75987
1.06704 0.841165 2.82209
1.41567 -1.4119 3.38965
1.39573 0.269645 2.78321
2.17494 0.288167 2.6412
1.20902 -1.57487 3.47416
0.652363 -0.505322 3.11781
-0.33161 0.726409 2.06491
-1.45773 -1.23005 3.06677
-1.37964 0.282463 3.08954
-0.012607 1.32289 2.89441
-0.730122 -0.47648 3.20599
0.378008 0.969811 2.98052
1.75673 -2.06466 3.40334
0.636236 1.58357 2.86109
0.131215 0.780167 3.04649
-2.48476 -1.26761 5.22427
-0.100307 1.32773 2.89586
0.441076 0.0512945 2.90424
0.847794 -1.86355 3.61166
-0.513952 0.767913 3.03684
-0.287577 -0.712282 3.23811
-0.672379 -0.992737 3.56958
-0.161219 0.0266308 3.01194
1.05533 -0.644806 3.03417
-0.499786 0.799854 2.76914
0.125338 -1.74183 3.59061
-0.0872168 -1.69275 3.63665
1.7261 0.117358 2.73266
1.8417 -0.313785 2.70767
1.55227 -0.581517 2.845
-0.501827 0.819167 3.00729
0.633974 -1.57004 3.58072
-0.441201 0.0906261 3.02268
0.695348 -1.74145 3.88721
0.714929 -1.58855 3.76076
0.403345 -0.868441 3.26222
-0.998346 0.78664 2.84642
-0.829224 0.704887 3.05935
-0.833286 -0.066536 3.10055
-0.126238 -1.51499 3.57105
0.0452056 -0.830921 3.28643
0.553688 0.616123 2.94
-0.556073 -0.0410339 3.07967
1.26821 -1.79193 3.70402
-2.15819 -1.1022 4.39083
-0.283758 0.883733 2.43393
-0.00602701 -0.0492949 0.664786
-0.30451 0.952959 2.74774
0.132589 -0.00948687 2.93791
-0.870859 0.30036 3.0398
-1.13198 0.724386 2.94486
-3.14285 -3.24878 6.92852
0.737494 1.47259 2.84606
1.07153 0.756527 2.79492
1.4553 -0.619919 2.91561
-1.18518 0.119018 3.13882
-0.101769 -1.69848 3.5255
0.61983 -1.46852 3.57314
1.24166 -1.8241 3.51692
2.18235 0.319718 2.63301
1.21917 0.800756 2.71154
-0.17624 -0.635064 3.2708
-0.0681129 0.174036 2.96262
-0.879473 -1.52634 3.42641
1.20029 -0.573754 3.00294
1.41166 0.754577 2.60912
2.11472 -0.0460376 2.92581
0.204174 -1.51905 3.52846
-0.225519 0.130663 3.00568
-0.216828 1.15673 2.95841
0.292373 -0.0371808 2.95454
-0.224808 -0.00888174 3.05843
0.0123476 1.16675 2.86829
-1.20274 0.113137 3.09134
1.43661 -0.764745 2.89967
0.135157 0.71021 3.03687
2.29668 -1.5186 4.21194
1.15103 -0.763659 3.10421
-1.16223 0.670174 2.89067
1.84471 -0.581595 2.83761
0.324026 -0.777484 3.30972
1.78332 0.0594246 2.76887
-0.248377 -0.849227 3.3257
-1.00428 0.79265 2.91933
1.53139 -1.47457 3.4343
1.64143 -0.827721 2.7296
1.61119 0.0261582 2.67378
-1.33561 -0.718932 3.27628
1.71726 0.700536 2.71444
-0.301477 -1.51188 3.53861
0.233306 1.24302 2.93896
-0.946423 -0.193822 3.10838
-1.19936 0.534979 2.76319
1.27267 1.14238 2.67673
-0.0511227 0.00206129 0.836382
-1.01839 -0.158023 3.15434
0.286591 -0.990202 3.39517
1.86285 0.998359 2.54569
-0.0595154 -0.109264 3.03671
0.205941 -0.918666 3.29538
-0.711208 0.636835 2.99344
-0.888911 -0.00586057 3.07757
-1.20111 -0.0739962 3.10071
-1.07136 0.590061 2.90579
1.30895 -0.831308 3.03165
-0.917876 0.466833 2.96074
0.348057 1.44933 2.79095
-0.738232 -1.16403 3.41774
1.6031 -0.297401 2.73645
0.813431 1.10549 2.79085
1.47001 0.381019 2.71589
-1.04235 -1.07057 3.32585
-0.296082 -0.273582 3.07708
-0.0924804 0.832476 2.11994
1.23553 -1.85029 3.56435
-0.141712 1.17389 2.84552
-0.0010435 -1.06233 3.39989
-1.09348 0.532945 2.93606
-0.500307 -0.244177 3.08979
-0.458283 0.873202 1.89729
-1.15525 -0.248218 2.96859
0.187489 -1.08789 3.61955
-1.71161 0.622165 3.63977
-1.04449 -0.197159 3.11275
-0.136412 0.84262 2.00492
0.387156 0.470776 2.92427
1.25217 -0.270005 2.85399
1.33391 -1.71218 3.52712
-0.156334 0.839289 1.99258
-1.11054 -1.09282 3.32988
-1.31312 -1.03599 3.25759
0.738946 1.10714 2.81423
1.54967 -0.239436 2.83959
1.37173 -1.61321 3.43484
-1.10344 0.460743 2.92463
0.800586 -1.05577 3.41532
-0.954982 0.557577 2.95485
-1.35381 -0.207174 3.08635
-0.607946 0.841751 1.87088
0.356026 -0.0667735 0.179623
1.36578 0.492695 2.79921
0.613462 1.45313 2.87544
1.17471 -0.944535 3.21377
-0.865058 -0.171415 3.13719
0.926992 1.00608 2.79197
0.132179 1.33031 2.88447
0.701102 1.31357 2.44146
1.03795 0.332224 2.86157
-0.0172135 1.07931 2.36594
-1.05577 -0.40638 3.16848
0.629091 -1.28729 3.47825
1.96253 0.508662 2.64209
-1.35572 -0.38201 3.17953
0.297225 1.1546 2.98993
-1.37073 -1.16416 3.25189
1.77812 0.395339 2.78667
-0.267649 0.775308 2.01052
0.503208 -0.32229 3.0349
2.14564 -2.47915 4.19822
2.64931 0.641449 2.72403
0.390743 -1.22057 3.52254
1.48505 0.332495 2.73262
-0.00771569 -1.51845 3.64619
-0.778755 0.254787 3.04455
2.14676 -1.08802 3.52573
1.50481 -0.494704 2.72063
-0.694507 0.66973 2.04262
1.29657 -2.15499 3.81745
0.7904 -1.71231 4.13595
-0.745326 0.214735 2.96657
1.31578 -1.7209 3.72193
0.75675 -0.513737 3.0655
-0.769362 0.64648 2.0337
-0.322615 0.306288 2.9876
1.40923 -1.67936 3.55657
1.41024 -1.5136 3.72969
2.04834 0.279572 2.77289
1.15726 -1.68815 3.53868
0.912244 -0.457697 3.03039
-1.05731 0.138127 3.32453
-0.00723289 1.0152 2.92692
0.442357 -1.38845 3.61917
0.831489 0.267276 2.86386
1.8782 0.675516 2.64674
-1.0288 -0.438146 3.17518
1.57289 -2.05052 3.43522
1.66535 0.873305 2.5619
1.7187 -0.155708 2.82757
1.63741 0.737251 2.67028
1.00495 -1.57721 3.61263
0.0432828 0.101062 2.97383
-1.4031 -0.674426 3.15296
2.05012 -1.04537 3.23158
0.485748 0.617913 2.94054
0.564594 0.870352 2.94085
0.142136 -0.635883 3.21682
0.626741 0.151394 2.86009
-0.502393 -0.793193 3.32526
-1.04761 -1.5518 3.44299
1.26261 -1.9946 4.11348
0.974496 -0.578351 3.03733
0.722716 0.819528 2.90488
1.89161 -0.0633636 2.90059
0.47125 -1.61563 3.75467
-0.736127 0.132724 3.00699
-0.278682 0.971916 2.38086
0.290995 -0.521628 3.10929
-0.0767301 0.481252 1.47176
0.168146 0.263643 2.90584
-0.186052 -1.4502 3.58013
0.872362 0.957642 2.85569
1.25857 -2.39734 3.98106
-1.34522 -0.497317 3.22934
-0.198105 0.962321 2.9926
2.66214 0.871705 2.8345
0.11262 -1.37685 3.48725
-1.38794 0.255317 3.01369
1.90468 -2.19745 3.80132
-0.506243 0.341096 3.03943
-0.328476 -1.34882 3.5488
-0.434951 0.647404 3.06559
-1.43299 -0.458204 3.19718
-0.342576 0.746526 2.00972
2.08496 0.49554 2.60383
-0.457155 -1.31141 3.56059
0.326615 0.286786 2.88371
2.00362 -0.458496 2.78128
0.952926 -2.68735 3.35937
-0.498897 -0.415046 3.27775
1.29181 0.966492 2.73394
1.2681 -2.28887 3.47581
-0.280476 -1.63233 3.63736
1.43496 -0.582304 2.83796
-0.864807 -0.323186 3.17403
0.93694 0.129279 2.87256
-0.731578 -0.320196 3.11089
-0.362415 0.86487 3.07067
1.99699 0.305225 2.77514
-0.692726 0.958431 2.94597
0.62717 -0.593085 3.15304
0.953483 0.889303 2.85217
1.89281 -1.06093 3.23164
0.0331465 -1.53156 3.54493
1.6461 0.181324 2.68141
-0.96476 -0.564779 3.15285
-0.798739 0.638245 2.10681
-0.290676 -1.48155 3.55485
-0.305055 0.159316 2.98386
1.17555 0.0049315 2.7703
1.507 -0.996693 3.28516
1.24389 -0.756122 2.98895
-0.219778 0.751608 3.07044
0.806742 -1.78275 3.58742
-1.19387 -0.768047 3.28022
-0.0284382 0.713579 3.06279
-0.276481 1.04846 2.86695
0.159332 -0.0199439 2.93883
0.963959 -1.45015 3.49796
-0.745667 0.0955554 3.0736
-0.307655 0.651334 3.05967
-0.723058 0.822406 2.95751
0.998286 -1.73484 3.67818
-0.435951 -0.730914 3.2862
1.62329 0.601115 2.54735
-1.18258 0.0693749 2.98249
0.494266 -0.683401 3.21162
0.39835 0.77732 2.99697
0.377599 -1.93106 3.59951
1.29425 -0.874849 3.04523
1.93091 -1.16453 3.34274
0.98574 0.561171 2.93254
-0.546798 -1.61757 3.44876
-0.462809 0.717303 1.93727
1.41183 -0.134829 2.73714
-0.890324 -0.571179 3.17738
1.90156 0.431094 2.64788
1.16489 -0.0912629 2.74713
0.836815 0.638233 2.90898
0.975741 -0.907495 3.31364
-0.2607 -1.14886 3.47256
-0.0306307 -0.0543057 3.01902
-0.669666 0.620994 2.99429
0.417142 1.27767 2.88324
1.74223 -0.735056 2.76298
0.252938 0.203675 2.94962
1.03772 -1.55008 3.56292
1.76068 -0.438792 2.73945
0.611364 0.91047 2.94056
-1.39357 -0.632391 3.33365
-1.20995 -1.41337 3.36826
1.58376 -2.11782 3.42871
-0.408308 -1.59065 3.42856
1.39859 0.152085 2.82844
-0.134301 -0.552543 3.15514
-0.4542 0.876377 2.90144
-1.08899 -1.32682 3.30135
-0.845584 -0.503112 3.19896
0.896759 -1.78335 3.64982
-0.893618 -0.510732 3.15432
-0.354913 -1.06724 3.49081
-4.11714e-06 0.232099 2.94124
2.34571 0.122146 2.96464
-0.309023 0.744246 2.19631
1.51715 0.595611 2.69294
1.21792 0.719093 2.76034
1.69595 -0.879209 2.97243
1.39759 -0.715809 2.97416
0.793423 0.0468333 2.86385
-0.155431 0.917056 3.03677
-0.702227 -0.734085 3.32008
1.14459 0.713336 2.83447
0.647571 -1.46049 3.56133
-0.808113 0.0197667 3.11726
0.814089 -1.84836 3.58692
-1.22277 -0.714807 3.39058
1.74477 0.100886 2.72882
-0.192192 -1.52558 3.48933
-1.2191 0.831896 2.82223
-0.258101 0.816171 3.03958
1.82927 -0.533561 2.79117
-1.18534 -1.561 3.4518
0.917967 -1.72613 3.55757
-0.28281 0.101492 2.96867
0.996518 -0.608832 3.02124
1.13509 -2.10124 4.8335
-0.521255 -0.959013 3.54633
-0.015879 -0.0640968 3.00886
-0.486442 0.675319 3.11689
-0.331273 0.645628 3.1032
1.19064 -0.817666 3.10692
0.603647 -1.46996 3.56186
-1.17994 0.0101946 3.09088
1.05469 -0.0467461 2.85019
1.74759 0.986223 2.53273
-1.60794 -0.83297 3.34436
1.27979 0.65254 2.77208
-0.143667 0.0526216 1.0631
-1.04972 -0.00816858 3.05202
1.85393 0.518336 2.63709
-1.11627 0.264945 3.05382
-0.365615 -0.240956 3.07036
-0.832425 -0.634575 3.22765
-0.0155579 1.22639 2.64658
-1.34772 -1.00967 3.16885
0.679147 0.513493 2.94485
0.962908 1.13125 2.76511
0.0279899 -0.20661 3.05029
1.01706 1.20966 2.7414
0.142937 0.469192 2.91631
-1.286 -1.05581 3.40002
-0.952449 -0.172129 3.10786
-0.592925 0.620282 3.12571
1.09839 -0.155013 2.80756
0.424338 1.46945 2.84125
0.975149 -0.961581 3.24973
-0.130606 -0.93205 3.40798
0.298705 1.23765 2.9148
0.89214 -0.128276 2.90551
0.0231304 0.568492 3.03817
2.00267 -1.01127 3.40651
1.86707 -0.54911 2.75055
-0.365865 -0.854345 3.37771
0.44912 -0.0282321 2.94742
-1.04907 -0.0416193 3.11339
-0.73069 -0.624027 3.2872
-0.749517 0.719222 3.00594
-0.141318 -0.80292 3.31982
1.082 0.646327 2.90088
-0.758294 0.069991 3.09357
1.89559 0.142146 2.74216
-1.13768 -0.787706 3.34771
-0.77722 0.799162 3.00818
1.52088 0.105922 2.84117
-0.317777 0.0202495 2.97656
-1.01899 0.783415 2.83075
0.932922 0.716345 2.87723
1.1055 -0.682876 3.00335
0.701295 -1.48068 3.55139
-0.577153 -0.204776 3.13073
-0.654658 0.793302 1.86477
0.173339 -1.26347 3.51753
-1.82991 -1.1823 3.78325
0.198552 0.537032 2.90767
0.887388 1.17708 2.77689
1.51957 -0.155373 2.79653
-0.595437 0.827256 1.87271
-0.468968 0.940703 3.05206
-0.991027 -0.974201 3.35144
0.886436 0.241923 1.36439
-1.0417 0.789633 2.85292
-0.398852 -0.123151 3.02901
1.31669 -1.79044 3.52141
-0.594362 0.626333 3.04745
0.271523 -0.953428 3.38897
-2.66445 -0.26506 5.76574
-0.484459 -0.879588 3.37491
1.38451 -0.789021 2.86107
-1.21517 0.590349 2.90006
0.133688 0.430205 2.92778
1.48517 -1.14957 3.2331
-0.837582 -0.341472 3.1977
0.428041 1.50621 2.80213
-0.661927 0.745041 1.84559
1.40792 -1.14855 3.37294
-0.0917241 0.412797 2.96302
0.794983 1.08584 2.82472
-1.07366 -0.285375 3.14982
-1.25228 -0.337797 3.18168
-0.509058 -1.1432 3.602
1.39116 -0.228598 2.73735
1.69393 0.471504 2.85783
-1.01634 -0.270262 2.95009
0.34793 1.18646 2.92377
0.968051 0.9734 2.76462
2.43845 -0.392702 3.50235
-0.981527 -0.461624 3.09843
-0.135418 0.300517 2.97981
-0.538357 -1.35948 3.47391
0.824253 0.952955 2.83473
2.37654 0.464663 2.59385
-0.447249 -0.450417 3.26536
0.119932 1.4193 2.54877
0.705149 1.26406 2.38638
1.11779 -1.32341 3.37165
-0.898196 0.290462 3.00438
1.63154 -1.90511 3.81691
0.365208 -0.399351 3.1086
0.66889 1.06829 2.89469
-1.145 -1.22162 3.3547
2.31961 0.0147964 2.8932
0.459451 0.354157 2.8695
-0.650034 0.719997 1.92824
0.366315 -0.36928 3.12491
0.11376 -1.27639 3.56553
1.71423 -0.137485 2.82504
1.53726 0.296701 2.68161
-1.17796 0.0707562 3.4497
0.158345 1.04638 2.95959
0.967549 -0.438876 2.99947
0.985994 -2.81048 3.60372
-1.14966 0.352317 2.99076
0.700858 -1.38872 3.59219
-0.479905 0.715394 1.98404
0.00962844 1.13174 2.31639
1.48866 -0.379933 2.77286
0.509049 -1.34678 3.61492
-0.402022 0.300925 2.96761
1.86359 0.525676 2.64654
1.94709 0.440204 3.17249
0.648522 -0.362614 2.95216
-0.361401 0.764057 1.94932
-0.0447284 0.538021 1.37143
0.1042 -1.2726 3.56147
-1.2358 0.430225 2.99415
1.56149 -2.25753 4.22907
1.57473 0.983655 2.55912
-0.256974 -0.32919 3.13133
1.36622 -1.18134 3.32133
2.63194 0.690525 2.76086
0.183286 0.353382 2.93173
1.05602 0.220917 2.86657
-1.04141 -1.38258 3.27542
-0.0149509 0.560813 1.28744
-0.377589 0.708805 2.11913
1.49668 -0.531251 2.86402
0.62014 -1.52301 3.71062
-0.987739 0.156527 3.42639
0.626822 0.190187 2.87417
-0.572862 -0.536183 3.22483
-0.588185 0.654605 2.05026
1.24301 -1.46998 3.64268
2.03818 0.360401 2.66009
1.56817 -0.442032 2.74399
1.74584 -1.97087 3.41175
0.984665 0.253754 2.88589
2.22849 0.471431 2.60251
1.62445 -1.95465 3.4259
-0.250898 0.906655 2.58451
0.815378 -1.629 3.55566
1.28346 -0.670324 2.88854
1.37745 0.741548 2.70966
0.562019 -1.45419 3.58153
1.71207 0.0889262 2.76223
-1.1771 0.737237 2.73776
1.34782 -0.647282 2.97271
-0.666929 0.79171 2.97624
2.2896 -0.154813 2.96212
1.63899 0.0382543 2.80239
0.735274 -0.637112 3.1226
0.752636 -2.15403 3.54768
1.0425 0.149226 2.80934
1.43724 -1.66761 3.62669
-0.829811 0.632459 2.08632
0.661516 0.833676 2.96607
1.33329 -0.568278 2.88204
2.38547 -0.938999 3.83388
-0.981328 -0.288833 3.13071
-0.572533 0.119865 3.02879
1.19942 -1.68899 3.82639
-0.277238 1.08585 2.45641
0.865049 -0.838726 3.22261
-1.16591 -0.0155882 3.0874
0.533687 -1.4486 3.56069
-0.0661168 -0.057111 3.01801
1.32743 0.634793 2.71362
0.168344 -1.69373 3.59008
-0.179131 -0.790859 3.29575
1.45451 0.611146 2.73462
0.74098 -1.88569 3.97005
0.985598 -0.779145 3.22978
1.9038 0.375675 2.67774
-0.981752 0.166183 3.07271
1.58905 -1.48136 3.39122
1.6116 0.0118396 2.74987
0.0515245 0.74489 3.06072
1.64309 0.505249 2.70235
-0.249149 -1.14431 3.50472
-0.760495 0.626127 2.15697
-0.21021 -1.68183 3.60839
-1.3247 0.139514 3.08831
-0.486514 1.38187 2.96069
1.6346 -0.600681 2.83825
1.17015 -1.67501 3.53452
2.21883 0.250019 2.76597
0.217687 -1.68865 3.69467
-0.478482 0.679734 2.12436
-0.20646 -0.621831 3.19615
-1.05933 0.217397 3.02874
1.1434 -1.49493 3.36526
0.921739 -0.556234 3.00483
-1.1393 0.745894 2.45969
0.853401 -1.97065 3.5514
-1.16404 -1.40434 3.32469
-0.705166 0.16643 2.97667
1.86463 0.995941 2.54951
1.08302 -0.778975 3.09861
-0.863332 -1.264 4.49538
0.901782 0.0147799 2.88811
1.47223 -0.0390976 2.78035
0.873326 1.32796 2.80698
1.25308 0.689603 2.78345
-0.589155 -0.760348 3.21479
-0.251984 1.08073 2.45388
1.77317 -0.9336 3.08901
1.13314 0.674657 2.85713
0.0177633 0.0891315 2.96399
1.55737 -1.38211 3.19939
0.791219 -0.715638 3.16643
1.09448 0.74039 2.79183
-0.476364 0.12701 3.003
0.951543 0.0495283 2.88834
-0.525982 0.78032 2.26796
0.4911 0.752467 2.92212
1.64957 -0.623907 2.81467
-0.301971 -1.34807 3.54204
1.51679 -1.44892 3.35943
-0.376167 0.584296 3.06577
1.82676 1.03905 2.55017
1.34429 -0.12499 2.68746
-0.0471997 1.07 2.40805
-0.420032 -0.927226 3.40475
1.36797 -0.892519 3.07377
1.87603 0.079411 2.72603
-0.315024 0.673999 3.08352
1.65477 -2.08467 3.42461
-0.51314 -0.0958451 3.09118
1.39678 -0.833872 2.99829
1.7372 -0.0567762 2.77601
1.20991 -1.4481 3.44192
-0.0686164 -0.864718 3.338
1.45186 0.554517 2.66771
1.02275 -1.11303 3.30159
0.557371 0.459561 2.91843
0.492822 1.23245 2.88683
1.239 -0.947148 3.14831
0.727623 -0.274472 3.02665
0.982955 1.11599 2.74389
1.45482 0.411731 2.79003
-1.14221 -1.03321 3.30316
-0.699721 -0.240737 3.07007
0.70388 1.12688 2.86218
-1.10546 -0.088628 3.12752
-0.58753 -1.10777 3.61083
1.30149 0.508796 2.78934
-0.767752 -0.208011 3.0751
-0.158386 1.14996 2.95625
-0.129521 -0.990884 3.364
-0.769785 0.526621 3.04543
-1.43871 -0.171181 3.088
-0.443713 0.899866 1.87767
-0.118138 0.765568 2.99486
-0.360981 0.843172 1.92765
1.29563 -0.713201 2.96318
1.08242 0.0454983 2.79756
2.04523 -0.0341735 2.92105
-0.576376 0.757641 3.05237
-1.35773 -0.725996 3.21653
0.53033 -1.46081 3.56504
-0.0381884 0.0226619 2.97577
2.10608 -0.0349597 2.92623
1.48304 -1.01076 3.11021
-1.41057 0.136623 3.05333
1.94812 0.712646 2.569
-0.718663 -0.686995 3.28325
-0.66917 0.857397 2.89341
0.580097 -1.70886 3.58303
-1.10123 0.112347 3.13147
-0.443625 -1.60905 3.56746
0.270646 -0.0857754 0.144047
0.643478 -0.63987 3.18692
1.48816 0.719023 2.62704
0.0890431 -1.58725 3.55863
1.10326 -0.840383 3.0741
-0.17255 0.647533 2.96643
1.86354 0.104129 2.70627
0.952662 -0.0762191 2.9068
-1.28941 -0.824192 3.18784
0.770679 0.59631 2.93732
0.657653 -1.6632 3.59928
-1.47618 -1.58449 3.36436
1.45903 -0.0552107 2.82515
1.5268 0.377351 2.27681
1.79454 0.957757 2.52724
-0.861552 0.713455 2.97693
-0.939194 0.32717 3.04738
-1.00502 -0.00448218 3.07337
1.17652 -0.761502 3.063
-1.09396 -0.249879 3.14157
-0.548552 0.819918 1.88862
0.789212 -1.07328 3.34458
1.67622 0.448065 2.59266
1.59447 -0.910083 2.93785
0.96551 -0.200697 2.9207
-0.716879 0.781934 1.86342
-0.125541 0.684598 1.64051
-0.544403 -1.06297 3.43899
-0.374379 0.481694 2.98581
-0.488524 -0.995533 3.36422
0.0977299 0.581797 3.00842
-0.175792 -1.16223 3.51152
-1.46778 -0.167418 3.0931
-0.17142 1.16707 2.95566
-0.983951 -0.917942 3.30818
0.504841 0.516895 2.87358
-0.648638 -0.136891 3.06849
-0.653145 0.857668 1.86069
0.525269 1.56872 2.83296
1.37956 -1.2127 3.3067
0.265694 1.3941 2.73614
0.32768 -0.364372 3.08871
1.27673 0.348303 2.83236
-0.158556 -0.0673481 1.14545
-0.540035 0.74827 1.9445
0.0508863 -0.320463 3.05679
-0.315016 0.790245 1.968
0.282231 1.52508 2.78358
-0.532675 0.445984 3.0094
-0.838404 0.237493 3.21059
-1.52238 -1.14864 3.26503
0.981721 1.09884 2.83399
0.126428 -0.281142 3.04754
1.8125 0.384489 2.77746
0.542561 -1.1716 3.52191
-0.244073 -0.204527 3.09198
-0.34913 -1.0865 3.49023
-0.262611 0.869326 1.95665
0.4493 -1.0531 3.42977
0.369015 1.31678 2.91323
-0.858306 0.594701 3.16789
-0.283234 0.921988 1.9355
1.755 0.725498 2.58713
-0.41025 -0.169785 3.09866
0.272563 0.499056 2.93042
0.206688 -1.03601 3.54202
0.966769 -1.49907 3.54399
-0.192906 0.640207 3.09563
-0.533518 -0.141952 3.09347
-0.0799694 0.639637 3.02041
-1.3227 -0.922027 3.26124
1.70005 -0.95951 3.07847
-0.464409 -0.972081 3.51554
-0.0632882 -0.0884715 3.01112
-0.113129 0.584188 3.01075
0.721027 -1.21441 3.47186
1.73151 0.420771 2.696
0.951075 -0.314254 2.89922
1.48352 1.02877 2.52998
0.474723 0.391804 2.8868
1.36455 -1.13445 3.32429
-0.155639 1.16842 2.95047
1.11602 -0.275988 2.83036
0.0948075 1.09256 2.90789
1.1848 1.11599 2.6909
2.48459 0.371275 2.60301
1.52441 0.417178 2.71777
0.974653 -0.243678 2.92603
-0.133762 -0.107644 1.03978
0.216913 -1.10214 3.45452
0.877612 -0.478624 3.04905
-0.0515912 1.03345 2.98624
1.52981 0.270409 2.70294
-1.07499 -1.30943 3.3488
2.50959 0.0302607 2.93438
0.246624 1.52808 2.72692
-0.932948 -0.467825 3.27459
-0.0492195 0.994338 2.95421
-1.09458 0.137066 3.36588
2.5669 -0.315591 3.66959
-1.44797 -1.19888 3.08482
1.72103 0.252223 2.6809
-1.12941 -0.421153 3.25361
0.0766714 0.35176 2.91389
-1.17331 -0.151743 3.67709
1.51902 -1.30479 3.41338
0.272309 1.10269 2.98893
-0.00549808 0.530909 1.21694
1.61985 -1.17331 3.19488
-1.48035 -0.385226 3.21888
-0.758138 0.70642 1.89606
0.0289735 0.582558 1.46442
0.179596 0.32731 2.91912
0.583599 -1.55258 3.59927
-1.2695 0.222942 3.02592
2.59365 -0.702722 3.73917
-1.4303 -0.605547 3.1667
1.56948 0.811522 2.58887
2.67505 -0.622567 2.93085
0.506051 -1.57745 3.75221
-1.1059 0.171329 2.92567
2.43949 0.653367 2.78886
1.49618 -0.557115 3.04577
1.39512 0.802719 2.69712
-0.49019 1.44518 2.95956
0.967363 0.917364 2.84683
1.78961 -1.26987 3.30581
0.585269 0.220583 2.88416
0.0600622 -0.520672 3.1702
2.14185 -0.715542 3.2207
-1.35806 -1.32646 3.25689
1.61272 -2.12877 3.42561
0.615527 0.222347 2.89965
-1.18207 -1.36405 3.22739
0.18819 0.940059 3.00012
0.67091 -0.571103 3.11066
-0.413194 -1.46965 3.59166
-0.808548 0.203227 2.99108
-1.16316 -0.373518 3.85943
-1.27442 -0.541749 3.25634
-0.259221 0.921329 3.05287
0.022995 0.710353 1.80127
0.113345 0.974684 2.96404
2.49773 0.818581 2.88013
-1.03163 -1.62978 3.45937
1.69092 -1.09845 3.22992
0.43009 0.252675 2.85552
-1.06118 -0.485758 3.09076
2.26514 0.0285458 2.97285
0.328028 -1.45734 3.64669
-1.12888 0.77059 2.76615
1.56546 -1.87366 3.43847
-1.08073 -0.765955 3.33729
-0.224145 0.0880765 3.03614
0.056574 1.31679 2.88024
0.547091 -1.86278 3.57954
-0.0315411 -0.689351 3.2494
-0.412033 1.31602 2.95314
-0.0311741 0.75301 2.99695
1.33248 -2.0089 3.49925
-0.707409 0.0605838 3.06283
0.377872 -0.639416 3.15393
0.798064 -1.46697 3.56036
-0.10331 0.164676 3.00968
-0.33942 -1.59384 3.52051
-0.176933 0.864658 3.04003
0.0978448 0.707702 3.35346
-0.743605 0.861899 2.93904
0.908911 -1.54035 3.55839
-1.03317 -1.46144 3.30643
1.39401 0.0984936 2.85357
1.43098 -0.566904 2.93385
-0.298409 0.858929 1.9311
-0.838886 -0.995208 3.80012
-0.958014 0.699852 2.944
-0.138369 -0.0563597 3.02506
1.51094 -0.681115 2.66972
0.398559 -1.96689 3.59014
-0.97405 0.728643 3.25019
0.305965 -0.0197398 2.96865
-0.212204 1.01318 2.76517
1.78714 0.352828 2.67877
0.692229 0.720917 2.95473
-0.761998 0.335452 3.01901
-1.20406 0.0249272 3.09143
1.51559 0.406715 2.27159
-0.206101 -1.30143 3.53949
1.4433 -0.710476 2.92763
0.425326 -0.202688 2.99077
-0.129502 0.942663 2.14989
0.333602 1.24952 2.92428
-0.432644 -1.09129 3.50256
-0.987684 0.55402 2.96334
-0.0782465 0.636157 3.0331
1.31626 -0.165612 2.79104
-0.633037 0.807645 1.86557
1.69799 1.11181 2.56109
-1.10889 -0.967978 3.26557
-0.342177 0.502833 3.00846
-0.592558 -0.983396 3.43431
-1.12846 0.606026 2.8669
-1.0236 -0.126689 3.11407
-1.03302 -0.135698 3.17603
1.30822 -2.17774 3.54937
1.7134 -0.794403 2.8063
1.54978 0.511781 2.68719
-0.509338 -0.807183 3.32356
-0.719125 -0.0899961 3.05765
0.678029 -0.792555 3.1792
1.03655 0.011102 2.86946
2.51997 0.0288419 3.78912
0.919994 -0.0231325 2.8805
-0.304889 0.761057 3.09926
1.92065 -0.879416 3.12556
0.227142 -0.771462 3.2823
1.01923 0.678453 2.8969
1.85746 -1.40646 3.26873
-1.38592 -0.723442 3.14278
-0.569194 0.609417 3.05319
-0.869566 0.766737 2.65009
-0.337256 0.0389864 2.97373
1.32626 0.687667 2.71486
-0.140019 -1.59595 3.56206
-1.38726 -0.173111 3.08305
1.24344 -1.58095 3.56462
1.357 -0.930205 3.05033
-0.38754 0.569024 3.00765
1.8881 0.587286 2.61874
1.53637 -0.136767 2.73943
-0.547124 0.855084 1.88399
1.87273 0.364903 2.649
-1.43748 -0.910697 3.17817
0.596647 0.529963 2.92183
-0.889369 0.14952 3.05913
0.857541 -0.0976654 2.94282
1.37795 -1.63733 3.49727
1.3779 0.587678 2.70845
-0.0955946 -0.911797 3.33707
-0.887803 -0.387682 3.15241
0.762949 1.24561 2.83299
0.63467 -0.0638638 2.92238
-1.40452 -0.824811 3.13209
1.725 0.564921 2.71431
1.156 -1.14922 3.37048
1.65126 -0.0398031 2.78258
1.74932 0.449847 2.74466
0.0795351 -0.288725 3.05129
-0.451032 0.775919 1.86275
-0.690048 0.45396 3.08812
0.116288 -1.14009 3.54728
0.000273956 0.844452 2.09144
0.466525 -0.256771 2.97528
0.62211 -1.60294 3.57394
1.58461 -0.990484 3.12266
1.65598 -0.202234 2.72039
0.607427 0.494896 2.91886
-0.469521 -1.03282 3.44182
-0.691954 0.71162 1.91368
1.32479 -0.408408 2.74593
0.946912 0.990788 2.78381
0.945193 -1.96252 3.87149
1.29501 -1.35019 3.42968
1.3886 0.307047 2.78732
-0.0477358 0.943565 2.15424
-0.242637 -0.412858 3.17063
0.512916 1.00334 2.92026
-0.246052 -0.223231 1.32496
0.339673 -1.3006 3.48209
0.247681 0.288206 2.91007
-1.14488 0.112198 3.64814
1.53223 0.3575 2.63939
2.49211 -0.666066 3.62797
1.26281 -0.361928 2.85825
0.703549 -1.26909 3.49267
1.17371 1.04584 2.71378
-0.0243912 0.504992 1.3187
-0.613632 -1.19125 3.45441
1.80887 -0.33773 2.81744
1.33809 1.0087 2.6743
2.26994 0.30012 2.51302
1.21505 0.345786 2.84945
2.25662 0.098104 3.54099
0.782693 -0.887738 3.20791
1.46677 0.151862 2.81851
1.5457 -0.0991555 2.83622
1.93199 0.000323432 2.73698
-0.549198 -1.13783 3.49331
0.0973952 0.650096 3.12961
1.03394 -1.75566 3.67616
1.24028 -0.0717344 2.77225
1.65201 1.14291 2.56437
0.364518 0.697656 3.02994
-0.447845 -0.868965 3.3631
0.610172 -1.47874 3.57779
0.774083 -0.0290672 2.89974
-1.2318 0.657128 2.88305
0.238014 -0.821255 3.30758
1.30998 0.48904 2.84757
1.23246 -0.239305 2.77563
-0.262005 0.878341 1.97248
-1.22837 -1.05677 3.3061
-1.27342 -1.01478 3.30419
-0.383125 0.779096 2.02934
0.81712 1.13946 2.79976
1.59235 -1.87972 3.42131
1.53381 -0.213155 2.86824
-0.587933 -0.60679 3.29145
-0.436108 0.483222 3.0206
-0.646774 -1.02339 3.41148
-0.898634 0.596521 2.99914
0.0677973 -0.162838 3.02216
1.73446 -2.24716 3.32942
0.271998 0.530607 2.93712
0.333424 -1.79654 3.58118
-0.268119 -0.946884 3.35815
-0.607955 0.872411 1.88271
0.503783 -0.134403 2.9343
0.881208 1.0372 2.78096
-0.0700248 0.639724 3.02764
-0.627044 0.363331 3.02959
-0.0742107 1.11425 2.8009
-1.00594 -0.371999 3.14344
-1.15787 -1.21301 3.34447
-0.965067 0.0902719 3.08787
1.59628 -0.307786 2.83424
-0.474812 0.756778 1.87749
1.12915 -1.20047 3.41389
0.590512 0.428155 2.91117
-0.76635 0.7273 1.85147
-0.48326 -0.295172 3.1073
1.30688 -2.97432 4.3845
0.793932 0.395105 2.92252
1.00413 -1.1835 3.49957
-0.887458 0.161725 3.05646
1.4575 -0.473482 2.80318
-0.0470314 0.623768 1.34467
-0.565249 0.271464 3.00824
-0.443523 -1.43816 3.52562
1.06409 0.929045 2.76221
2.19386 -1.25838 3.85079
1.35071 0.878429 2.69711
0.951057 -1.52743 3.77015
-0.307861 0.235757 3.01296
-0.0315225 0.573543 1.30044
-1.17881 0.11578 3.75002
1.244 -0.470734 2.93501
-1.41191 -1.22748 3.1667
-1.09426 0.348625 2.94983
1.59906 -2.11187 3.42772
0.40123 -0.440213 3.08818
-0.695664 0.720306 1.93799
2.2962 0.0389066 2.96605
-0.173589 -1.32678 3.58473
0.987289 0.274822 2.91205
-0.00829934 0.543384 1.289
1.04474 -0.390239 2.91396
-1.19694 -0.316167 3.8827
0.176378 1.00398 2.92229
0.7453 -1.15307 3.26991
0.974158 0.435473 2.88875
-0.895096 0.181569 3.05485
0.0341058 -0.333405 3.07657
-0.512989 0.411588 3.01227
0.381886 -1.18087 3.5321
0.323376 1.53414 2.81703
0.997899 1.06096 2.77145
-0.994195 -0.292343 3.13421
0.207159 1.18511 2.89995
-0.067436 -0.139358 0.845426
-0.842414 0.499781 3.0222
1.18962 0.97894 2.5886
-1.3126 -0.258394 3.14438
1.55116 1.02826 2.54164
-0.956675 -1.02368 3.1619
2.59366 0.936353 2.86923
-0.228514 -0.484847 3.19377
1.34358 0.944466 2.68907
0.585985 0.285128 2.88268
-0.869439 -1.40572 3.53442
-1.20144 -0.0801229 3.69438
-1.30651 -0.452151 3.15984
-0.0404019 1.00821 2.282
1.46774 0.878399 2.57004
0.40403 -1.36251 3.54406
0.857936 0.253885 2.86172
2.45077 0.10639 3.53047
1.66086 0.33156 2.66856
2.21664 -0.353137 3.27503
0.89944 -1.31228 3.47763
-0.185149 0.790448 2.06965
-0.0174167 0.533292 1.24476
0.238147 -0.39771 3.09338
-1.07447 0.352164 3.02482
1.25763 -1.22721 3.34106
1.61783 -1.775 4.39091
1.09945 0.985769 2.74433
1.58374 -0.35449 2.82366
0.651741 -0.456962 0.857854
1.45335 -1.86143 3.4614
-0.967213 -1.48667 3.41114
-1.33858 -0.644854 3.37301
2.25803 0.218152 2.75777
0.391843 0.156866 2.91163
1.94201 -1.40742 3.30095
-0.395345 0.893965 3.02512
-0.478522 -1.60469 3.41447
2.2468 0.509373 2.64531
-0.50522 1.40404 2.96384
-1.44955 -0.579636 3.18469
-0.852529 0.668017 2.01882
0.832732 -1.51083 3.55744
-0.827997 0.235476 2.99207
1.29931 -1.92801 3.49617
-1.00049 -0.544175 3.21812
1.66574 0.805869 2.55097
0.808014 -1.55378 3.78045
1.22247 0.179579 2.79547
-0.0343247 0.0419457 2.95076
-0.229832 1.06848 2.45275
0.978436 0.746837 2.89643
1.66935 -0.706043 2.85448
0.770542 -1.92512 3.56417
0.977453 -0.726682 3.14551
0.0327518 0.733809 3.05172
2.00484 1.07237 2.6972
0.672899 0.0107221 2.90421
0.711287 -1.77138 3.57846
0.750251 0.112101 2.85271
0.411981 -1.80057 3.5932
-0.298996 0.874403 3.02937
1.82284 0.715667 2.57448
0.872083 -0.674563 3.1259
0.608082 -1.7764 3.9082
0.273257 0.081626 2.9564
1.04892 -0.631509 3.06565
2.46755 0.0129185 3.76716
0.758509 0.790295 2.92196
0.703627 -0.726925 3.16287
1.17128 0.731573 2.76464
-0.879815 -0.380228 3.12756
-0.053072 1.09447 2.90532
1.05925 0.074619 2.78855
0.561598 -1.45619 3.57342
1.37111 0.670432 2.66716
1.47213 -0.629434 2.84908
-0.272864 -1.08564 3.43337
1.12525 0.0248991 2.83982
1.28457 -2.36236 3.47364
-0.590899 0.627264 3.06154
-0.607975 -1.57219 3.46118
-0.661924 0.147431 2.99892
2.06529 1.16269 2.80725
-1.37156 -0.647619 3.16487
-0.108916 0.89791 3.11023
2.05204 -0.736548 3.06671
-0.250214 0.111651 3.00014
-0.678103 -1.54497 3.51879
2.11356 1.06307 2.76681
0.242394 -0.626458 3.21191
1.63188 0.741733 2.61461
1.11516 -0.803963 3.0632
0.0992443 0.580755 2.99168
0.778349 -0.0690781 2.88934
0.577244 -1.78183 3.71953
-0.717608 -0.575227 3.23729
-0.257131 0.677541 3.1777
1.91314 0.641975 2.61488
-1.4296 -0.0233483 3.08517
-0.904012 -1.61898 3.41758
0.108356 0.725493 3.05025
1.91833 -0.164655 2.72025
0.805525 -0.798642 3.17921
2.14232 0.093299 3.03149
1.23971 0.00829861 2.76042
0.336227 0.696809 3.03525
-0.385734 -0.783296 3.32254
1.26529 0.510928 2.83059
0.175664 -0.229808 3.00898
-0.278069 0.909576 1.96615
0.0585269 -1.05104 3.3994
-0.874187 -0.253023 3.10299
-0.621361 -1.01015 3.40918
-0.447503 0.756806 2.22485
-0.684305 0.801805 1.86578
0.284926 0.790222 3.04083
0.987921 -0.173426 2.92846
0.822569 0.492087 2.97747
-0.548847 -0.956776 3.32685
1.03874 0.587793 2.90521
-0.37819 -0.143429 3.09764
1.53618 -2.48907 3.49215
0.439006 0.547107 2.91059
1.21742 -0.881139 3.14789
0.653459 1.23163 2.84186
-0.413208 -0.927606 3.39209
0.40303 -0.0990022 2.95445
-1.02841 -1.2102 3.50716
-0.593566 -0.942542 3.42529
-0.364592 -0.347846 3.13321
-1.31516 0.420547 2.95399
-0.393525 0.7593 1.94391
1.6506 -0.284177 2.61678
0.289217 1.45553 2.81713
0.0589575 -0.222159 0.902777
1.15434 1.11464 2.70729
0.297139 -1.19695 3.53567
0.352877 0.453983 2.87897
1.12608 -0.25741 2.81487
0.386664 1.12563 2.87844
1.82235 -1.97612 4.54651
-0.569951 0.439315 3.00169
0.452727 -1.14706 3.51703
1.25232 -0.171011 2.77294
-0.422397 0.723903 1.96896
0.290565 1.28981 2.91909
-0.934778 -0.983624 3.37952
-0.682974 -0.300098 3.11131
1.11072 0.55051 2.85294
-0.685026 0.856499 1.8654
-0.787811 -0.14287 3.10208
-0.53617 0.543181 3.05461
1.83187 0.658213 2.59839
-0.751386 -0.957721 3.36782
-1.3205 0.0223714 3.10077
-0.54998 -0.103728 3.10599
2.16809 0.0473493 2.93262
-0.866891 -0.904667 3.30068
-0.1179 0.694551 3.12167
-0.189581 -0.892219 3.40524
1.75228 -1.97254 3.42598
-0.3179 -0.05519 3.05334
1.37413 0.552705 2.75825
-1.42953 -1.08678 3.20487
0.0387314 0.471537 3.00587
0.811738 -0.303472 2.98192
0.612355 1.18189 2.89201
1.40671 0.40242 2.77281
-0.395839 -1.18639 3.69163
