ply
format ascii 1.0
element vertex 1835
property float x
property float y
property float z
end_header
1.69648 -1.09882 3.04733
-0.589824 -0.344591 3.03706
1.06981 0.0788762 2.84033
0.712931 -0.743067 3.17583
1.19874 0.770105 2.79599
1.24126 0.396066 2.8521
0.0527829 -1.16353 3.3909
1.14895 0.0390279 2.87606
-0.229081 0.796596 1.97492
-0.504598 0.742512 1.90422
0.964969 -0.295415 2.94897
1.39567 0.705843 2.68962
1.469 -0.641941 2.87223
-1.37156 -0.647619 3.16487
-0.11646 0.927442 3.08549
0.0788568 -0.267125 3.07255
-0.183757 0.892009 2.00249
-0.610278 -1.57704 3.44658
-0.678126 0.159363 2.94905
-0.341652 -1.18137 3.59883
0.318599 0.50317 2.88601
0.233803 -0.632348 3.22213
1.64349 0.749344 2.62689
1.56338 -0.226895 2.957
-0.25606 0.120806 2.97539
-0.678466 -1.54906 3.50694
0.2323 0.478362 2.90855
-0.631598 -1.05935 3.36541
0.936752 1.16078 2.78911
-0.37656 -0.34769 3.09798
1.09733 -0.725295 3.09107
-1.02903 -1.23337 3.47616
-0.393525 0.7593 1.94391
-1.16632 0.790816 2.98415
-1.31516 0.420547 2.95399
1.2031 0.0374356 2.84725
0.362291 0.475779 2.88789
0.332722 0.120065 2.95121
0.300597 -1.21804 3.54204
-1.02303 -0.739983 3.39218
1.17447 1.13432 2.7237
1.64759 -0.272421 2.64114
-0.811805 0.860092 2.95927
-1.30681 0.0965779 3.0419
-0.18297 -1.7226 3.73892
-0.590495 0.454363 2.95186
0.447022 -1.16252 3.52499
-1.16702 0.838398 3.01831
-0.805221 -0.685339 3.32692
1.14519 -0.254561 2.86716
0.0506521 -1.0769 3.40259
1.12581 0.892731 2.83795
-0.291025 -1.66883 3.75678
0.397269 1.15445 2.8632
-0.249082 0.907333 1.95736
0.174232 -0.222227 3.05244
0.273535 -0.644931 3.2851
1.56433 0.180065 2.84167
1.35592 -0.555069 2.96266
0.82938 0.51997 2.98801
-0.625271 0.160353 2.97937
-0.684143 -1.45398 3.38602
1.00095 -0.182095 2.96078
1.29767 0.525521 2.83971
-0.655737 -1.01036 3.36688
1.09707 -1.77855 3.73963
1.70068 -0.485777 2.74749
0.917739 0.872063 2.90353
-0.387226 -0.140721 3.07544
1.16353 0.950592 2.77776
-0.684305 0.801805 1.86578
-0.67321 -1.41885 3.4184
1.05214 0.606161 2.91437
-0.553472 -0.958024 3.32089
0.806596 0.272034 2.93201
0.423442 -0.0990103 2.98426
1.63369 0.847769 2.58823
0.829736 -0.499472 3.06232
-1.19807 0.250202 3.11261
1.22067 -0.896719 3.17388
0.22058 -1.45643 3.57257
0.437458 0.574334 2.91224
0.680885 1.26609 2.8614
-0.41385 0.158226 2.97856
-0.421578 0.754676 2.21102
1.10794 0.504411 2.90273
1.23169 0.838238 2.79512
-0.236498 0.917727 1.96436
0.111261 -1.64004 3.687
-1.30944 -1.00633 3.22844
-0.763336 -0.627883 3.25095
0.727664 -0.222666 3.01945
-0.174049 -1.54979 3.59005
1.53695 0.533026 2.71598
0.396053 -1.04088 3.43849
-0.342487 0.239123 3.03358
1.47272 -0.568474 3.02964
-0.606132 -0.178922 3.10172
-0.709643 0.662478 2.00633
-0.416666 -0.990018 3.43516
-0.893227 0.198631 2.95708
0.220973 -1.47601 3.53125
-0.727714 0.592186 3.15374
1.35964 0.855519 2.7271
0.120939 -0.136996 2.98989
0.118667 0.169564 2.95772
-0.429141 -0.546419 3.20307
1.24424 -0.855666 3.03369
0.191308 0.682326 3.07174
-0.69272 0.706165 1.97822
1.07212 -1.36802 3.34018
-0.314081 -0.0930238 3.02389
1.08532 0.299023 2.93169
1.00537 -0.482704 2.95971
0.673383 1.29857 2.86145
0.880466 0.612445 2.93087
0.0838876 -0.457434 3.1144
1.23855 0.261743 2.84816
1.31151 -0.0598104 2.70249
1.6419 -1.06821 2.95772
-1.09742 -1.29572 3.31279
1.51199 0.894421 2.62319
1.23911 -0.814277 3.02265
-1.3311 -0.431946 3.24046
-0.231642 0.776785 2.03586
-0.835976 -0.0185276 3.05299
1.31207 0.691965 2.77348
-1.48341 -1.23678 3.29133
1.09052 0.362815 2.91109
1.57074 -0.724677 2.81845
1.3312 0.00695446 2.75169
1.79102 0.595691 2.67202
0.202774 0.737528 3.11114
1.48711 -0.363975 2.84534
-0.42152 0.736629 1.99578
0.747272 -0.778146 3.18849
1.87338 0.276559 2.72467
-0.934017 -1.24434 3.40428
-1.36019 0.343717 2.99125
1.39737 0.262252 2.8532
1.83522 0.325763 2.69317
1.28315 0.582332 2.79782
0.981651 0.980954 2.855
-1.06756 -1.36526 3.38233
0.0166559 -1.72598 3.67265
-0.994086 -0.913716 3.31395
1.66613 -1.06882 2.95603
-0.636038 -0.527806 3.32268
-0.362923 -0.0916141 3.04783
-0.0672587 -1.40445 3.57099
-0.869258 0.34121 2.96803
1.47817 -0.801946 2.97492
0.570799 -0.45842 3.09701
0.212401 1.09243 2.96404
-0.65631 -0.0564238 3.04879
1.76668 0.667138 2.81998
1.28081 0.288931 2.84735
-1.19519 -0.799251 3.18704
-1.20345 0.238155 3.00156
-1.37517 -1.25699 3.33024
-0.688565 -0.0196361 3.03365
-1.05914 0.662199 2.97038
-0.369145 -0.425389 3.15983
-1.10649 -0.802081 3.34948
-0.62634 0.777318 2.92961
-0.901786 -1.24098 3.3946
-0.570055 0.688008 1.94029
0.502163 0.0467224 2.94123
0.234243 1.14699 2.9307
-0.966155 -0.385337 3.1799
-0.165134 0.414421 2.93051
1.39003 -0.710663 3.01221
-1.14376 0.379414 2.98357
-0.0403274 -0.347988 3.06662
-1.41462 0.0209041 3.16808
0.391914 1.10455 2.89651
-1.30429 -1.10804 3.15588
-1.08288 0.74692 2.9688
-1.36744 -0.297174 3.08411
-0.867981 -0.703859 3.2237
0.571947 0.845515 2.93801
1.05236 1.15021 2.75703
0.43364 0.482866 2.92801
1.40786 -1.27052 3.6818
0.397906 0.117016 2.9354
-1.3353 -0.265718 3.13737
-1.06975 0.787777 2.8377
0.185531 -0.666682 3.20987
0.386561 0.448019 2.92427
0.881193 -1.16022 3.51102
0.141149 -1.59074 3.45752
-0.827707 0.0926294 3.0106
0.899065 1.12417 2.78926
-1.12231 0.0256381 3.06058
-1.10837 0.381068 2.98628
-0.736156 0.74951 2.97713
0.883513 1.08276 2.8404
0.0610889 -1.33168 3.61257
0.981359 0.334162 2.9543
-0.588476 -0.782631 3.25738
-1.12593 0.730314 3.03195
1.1798 1.0083 2.73806
-0.490397 -0.378784 3.0638
1.56074 -0.0157414 2.81343
0.758174 0.452417 2.95236
-1.2629 -1.1668 3.32395
-1.13376 -0.361658 3.25749
1.13544 0.0812128 2.85379
1.59338 -0.69659 2.95124
-1.04018 0.78379 2.81556
1.3258 0.396267 2.82808
-0.613704 -1.18783 3.47932
1.35036 0.0385378 2.76906
1.54454 1.01227 2.51793
0.259735 1.15129 2.93574
0.454123 -0.294199 3.00387
-0.22392 0.804879 3.04203
0.316681 -0.708303 3.22516
0.773517 -0.657493 3.14892
1.34768 0.814168 2.71947
-0.060773 -0.263182 3.06668
-0.30409 0.866561 1.93861
0.396793 -1.65562 3.50599
-1.42506 -1.50169 3.26297
1.11782 -1.11596 3.3733
1.08619 0.14545 2.83382
-0.514032 0.52426 2.97318
-0.566377 -0.629597 3.25246
-0.843541 0.669601 2.3312
-1.14137 -0.219138 3.14682
-0.960959 0.129462 3.0642
0.377902 -1.59131 3.58261
1.19895 0.469556 2.86122
-0.75172 -1.07415 3.4214
1.54913 1.03949 2.49468
-0.236342 -0.176979 3.06086
-0.920822 -0.580029 3.19389
1.55701 0.859239 2.61954
-1.51935 -0.956563 3.17289
1.66079 0.547825 2.78784
1.15534 -1.63235 3.75167
-0.185237 0.237525 2.96571
0.320747 -0.138097 2.98504
-0.495484 0.859799 1.87557
-0.276136 -0.539385 3.15427
1.54688 0.819822 2.61161
1.25816 1.17836 2.71225
-1.13016 -0.916958 3.20638
-0.0165605 0.566739 3.01314
1.26174 -1.54192 3.66712
0.437827 0.19276 2.92702
-0.114103 0.124661 2.98935
0.938351 -1.1876 3.45457
1.65587 0.464714 2.84452
-1.46123 -0.69239 3.19233
-0.651029 0.86471 2.96669
1.66576 -0.296641 2.94343
-0.514512 0.774606 1.85322
-0.991951 0.105246 3.21378
0.0775413 -1.59207 3.46954
1.61559 0.404123 2.662
-0.818652 -1.07763 3.31308
0.0592928 0.837775 3.01906
-0.718175 -0.690003 3.36253
0.451463 -0.258954 2.99967
-0.122586 -1.08296 3.439
0.355181 0.542262 2.90752
0.640704 -1.65883 3.72467
1.53053 0.18207 2.82614
1.18073 -0.206901 2.8199
1.65334 1.02868 2.56063
0.747662 -0.614152 3.12806
0.186941 0.954215 3.01072
-0.552176 0.8364 1.87808
-0.189402 -1.00502 3.34098
0.445437 0.508696 2.90194
-1.35125 -1.41 3.31192
0.244306 -0.176141 3.025
-1.04302 0.167504 2.99847
0.0751563 1.28343 2.88089
-0.732794 -0.575367 3.17137
1.59474 0.776702 2.5986
1.31358 -0.510728 2.92937
1.53451 -0.135827 2.81213
-1.21484 -1.3338 3.22995
1.53109 0.238857 2.59003
0.359537 -0.978817 3.38037
-1.18397 0.612833 2.91705
1.00118 -0.491349 3.03069
-0.46678 0.687049 2.08122
0.190177 -0.0917337 3.01825
1.31873 0.947811 2.76097
-0.675824 -1.40816 3.48573
-0.623861 0.235879 2.90256
-0.376779 -0.938545 3.38745
-0.743638 0.6135 3.07306
1.86802 0.307764 2.68827
0.145459 -0.0566394 2.98519
0.701841 -0.459579 3.09919
1.33601 1.20246 2.64947
1.64703 -0.77323 2.8728
0.72696 -1.40853 3.5666
0.268892 -0.0245488 2.98822
-0.528037 0.709973 1.997
-0.18411 -0.418982 3.1237
1.30349 0.618319 2.78898
0.195996 -0.840677 3.31472
-0.916891 0.754175 2.58566
-0.0353803 -1.35427 3.56058
0.766426 -1.81142 3.81853
1.50002 0.280658 2.78573
-0.00460004 -0.251212 3.06196
1.44093 -0.593975 2.85949
1.01334 -1.10552 3.38167
-0.282274 -1.64495 3.62114
-0.476557 0.780619 1.86418
-0.37871 0.896617 3.03828
0.329995 0.479283 2.87017
0.95686 0.127794 2.91861
0.0392687 -1.5449 3.5224
1.63472 0.190441 2.71913
0.152594 -1.05434 3.36922
1.19174 0.534419 2.84203
0.633201 -0.608661 3.15637
0.979323 0.9188 2.86903
1.52894 -0.200594 2.77716
-0.380329 0.858638 1.90478
-0.290068 -1.49716 3.52913
-0.302564 0.173913 2.95678
-0.473117 -1.00548 3.3856
-0.729608 0.535718 3.00013
-0.968253 -0.565721 3.14696
-1.25785 -0.16597 3.14739
-0.798739 0.638245 2.10681
-0.0330442 1.16628 2.68483
0.610164 -0.956845 3.31745
-0.182201 -1.46947 3.55553
0.886661 0.988011 2.85864
1.23849 -0.123289 2.8301
0.175185 0.280766 2.92723
0.29217 -0.528397 3.13158
-1.31921 -0.877776 3.2252
0.602673 0.602406 2.99428
0.0941998 -1.40242 3.47635
-1.38794 0.255317 3.01369
1.07643 -0.080697 2.85418
-0.852924 0.65997 3.07648
-1.34522 -0.497317 3.22934
-0.201405 0.989317 2.95597
-1.43299 -0.458204 3.19718
-0.342576 0.746526 2.00972
-1.38879 -0.0461606 3.10924
-0.200104 0.716673 2.9715
-0.527312 0.356238 2.98565
-0.338323 -1.36738 3.51662
-0.0724077 -0.0124252 2.96735
1.72233 -0.765807 2.8725
1.38933 1.17997 2.60754
0.334738 0.689375 3.02323
1.88655 0.489309 2.6747
-0.518948 -0.421532 3.23543
0.342909 0.310783 2.93253
1.1814 -0.755292 2.99112
1.30872 0.989737 2.75292
-0.472849 -1.32302 3.52188
1.80125 0.491632 2.67625
-0.546798 -1.61757 3.44876
-1.26932 0.260538 3.02758
1.00045 0.590371 2.93997
1.29019 -0.889995 3.06762
0.0508908 0.98372 2.94457
-0.462809 0.717303 1.93727
-0.0443819 -1.44705 3.49507
1.90969 0.450397 2.67134
0.527698 -0.52777 3.13184
1.42958 -0.124837 2.76739
0.71509 -1.58602 3.91221
0.979461 -0.924799 3.33072
0.47069 0.308981 2.91705
-0.849792 -0.494113 3.22004
1.37003 0.962778 2.68085
1.19187 -0.0785768 2.7876
0.85532 0.666581 2.92127
0.556301 0.272226 2.86657
1.74223 -0.735056 2.76298
-0.682723 0.636861 2.96491
0.318552 -1.39644 3.57308
0.441794 1.31113 2.88046
-0.0298143 -0.0486301 3.01055
0.912817 -0.441205 3.04222
1.25787 -0.766166 3.02754
-0.237767 0.775006 3.03727
0.283311 -1.33991 3.54974
1.3646 0.944136 2.73337
1.19917 0.0166365 2.80497
-0.298418 0.769289 1.99384
0.317121 -0.407092 3.07785
1.33987 0.359091 2.78648
0.142096 0.346552 2.9137
0.821485 -0.371917 3.02315
0.167542 -0.0143114 2.96564
1.60072 -1.22065 3.30493
-0.195784 0.779159 2.08982
-1.19868 -0.775425 3.26656
-0.0221514 0.734284 3.02952
-0.472607 -0.742044 3.26106
0.969813 1.13685 2.80098
0.340957 -0.344044 3.14686
-1.26326 -1.13099 3.24311
0.832561 0.45698 2.93442
-0.76538 0.106719 3.01446
-0.726804 0.825605 2.95144
0.334929 -0.296516 3.1242
0.403273 0.805244 2.99642
0.499142 -0.696373 3.21451
0.152888 1.15279 2.91801
1.65794 -1.09548 3.19005
-1.19012 0.0685395 2.97234
1.04959 0.41603 2.90656
0.434032 -0.0155396 2.97528
1.06647 0.345103 2.91707
1.20694 0.687008 2.84447
0.952522 1.04265 2.80861
0.616369 -1.31281 3.47805
-1.16658 -0.828694 3.3577
-1.06871 -0.40775 3.15254
-1.37926 -1.16951 3.2416
1.78509 0.403119 2.81136
-1.18735 -0.797086 3.35684
-1.05813 0.066913 3.04639
0.313616 1.18468 2.9755
1.32189 0.741249 2.77066
-1.35572 -0.38201 3.17953
1.71439 0.0152437 2.73559
0.406668 -1.24736 3.52567
0.862862 -1.7318 3.66357
0.510358 -0.332568 3.03988
0.164588 -0.737274 3.22853
1.49683 0.352884 2.76379
-0.0744378 0.757487 2.96662
-1.11848 -1.10931 3.31053
-0.217024 0.890143 3.01322
-0.267649 0.775308 2.01052
1.22331 0.11804 2.77709
1.27089 -0.279548 2.87801
-0.156334 0.839289 1.99258
1.12107 -0.65956 3.02277
-0.417485 -0.664164 3.27976
-1.11001 0.463048 2.91771
1.56571 -0.244996 2.86537
-0.0466654 0.0995336 2.97507
0.494692 -1.67063 3.66457
0.395627 0.488945 2.93457
-1.31897 -1.0412 3.24818
-0.442398 0.854496 3.03895
0.757242 1.14485 2.81611
0.660617 -0.596694 3.08692
-1.48489 1.0495 3.25054
-1.35381 -0.207174 3.08635
-0.961688 0.561621 2.94332
0.44962 -1.61141 3.66408
-0.933179 0.220044 2.97527
0.801933 -1.07718 3.4259
-0.607946 0.841751 1.87088
-0.890171 -0.16411 3.07822
1.37594 -0.529515 2.88987
0.501541 0.904293 2.96076
1.17979 -0.971254 3.23127
0.326421 0.17166 2.945
-0.0380874 -1.49703 3.52141
1.38072 0.503725 2.83025
0.0540757 0.099157 2.99672
0.132179 1.33031 2.88447
-0.757692 0.4722 2.99109
1.64454 0.749371 2.68821
1.32964 1.05272 2.59258
1.35671 -1.18012 3.4672
-1.4031 -0.674426 3.15296
1.66752 -0.274159 2.85634
1.62777 0.472356 2.63461
-1.04761 -1.5518 3.44299
0.643341 0.168259 2.91317
-1.23712 -1.03723 3.23479
-0.575993 0.855943 1.86488
0.138218 -0.654358 3.21336
0.581768 0.902111 2.95134
-0.988994 -0.249109 3.11312
1.31565 -0.975615 3.09142
0.821906 0.495955 2.98179
0.489028 -1.65269 3.7536
-0.743218 0.137571 2.97656
0.807443 -0.202731 2.96565
-0.0891229 0.854121 2.04366
0.992611 -0.593561 3.05924
1.50753 -0.504894 2.74367
0.738841 0.850671 2.90107
-0.680125 0.676947 2.03498
0.339953 -0.164028 2.99483
-0.0056286 -1.54309 3.62648
-0.789147 0.256779 3.01336
-1.28698 -0.997336 3.3655
-1.47276 0.634702 3.11604
0.765825 -0.520017 3.08115
-0.769362 0.64648 2.0337
-1.33405 -0.123039 3.0735
-0.0271402 1.13414 2.68797
1.7375 1.10035 2.55637
0.807284 -1.71793 4.13181
-0.462717 -1.00745 3.54206
-0.757571 0.217012 2.93553
-0.13775 0.578256 3.01443
1.63817 -0.0856278 2.8433
-0.00185234 1.05918 2.93344
0.922403 -0.476252 3.03493
0.997614 0.666846 2.92738
1.32413 -0.837492 3.0052
-0.329955 0.318827 2.95352
1.40923 -1.67936 3.55657
1.41052 -1.52768 3.74299
-1.20897 -0.0449224 3.05706
-1.03617 -0.443593 3.15684
1.66462 0.886912 2.57924
-0.696046 -0.890704 3.39352
-0.650503 0.640402 2.98119
0.442846 -1.41672 3.62119
0.843612 0.278788 2.91889
1.02655 -1.64249 3.71694
-0.112013 0.218458 2.96893
-1.82991 -1.1823 3.78325
0.201979 0.549086 2.90809
1.02183 -0.587968 3.02782
0.543016 0.952437 2.95905
-0.596954 -0.205236 3.08629
-0.654658 0.793302 1.86477
1.18655 1.21202 2.72591
0.55046 -1.54868 3.62823
1.2145 0.161447 2.83815
-0.993746 -0.981562 3.33722
0.886436 0.241923 1.36439
-0.565881 -0.579561 3.25965
1.53736 -0.161714 2.8252
1.47411 0.810547 2.66459
-0.585245 0.648162 3.01899
0.280379 -0.970362 3.39138
-1.13818 -1.35516 3.30704
1.03115 0.274397 2.88883
-0.595437 0.827256 1.87271
-0.410732 -0.11658 3.0024
-0.565508 0.692404 1.99714
-1.39902 -0.534648 3.25485
1.38886 -0.804075 2.88729
-1.21517 0.590349 2.90006
0.481268 -1.46081 3.61669
-1.14096 0.26365 3.05146
-2.66445 -0.26506 5.76574
0.912449 1.21497 2.78645
1.08911 -0.464078 2.93863
1.49255 0.881742 2.63455
-1.04421 0.791926 2.85141
-0.535262 -0.444877 3.16022
-0.754721 0.727493 2.98884
-1.05357 -0.0428962 3.09407
-0.72703 0.714499 1.92129
1.00655 -1.34726 3.4356
0.464589 -0.0160437 2.98434
-0.382615 -0.872474 3.3421
0.0981119 -0.406767 3.10795
1.26684 0.337971 2.86692
1.09559 0.662215 2.9049
0.866419 1.02333 2.83984
1.26233 -1.26058 3.33092
-0.251153 0.31837 2.95648
-0.145512 -0.820118 3.30452
0.261769 -0.374077 3.1038
0.694073 1.1243 2.84301
-0.782148 0.806928 2.99524
1.88911 0.147047 2.75025
-1.14253 -0.792503 3.33183
-0.872732 0.426025 2.93056
-0.539753 -1.27327 3.5087
-0.773025 0.0693186 3.04003
-1.32328 -0.334799 3.15541
0.951812 0.737564 2.88502
1.11992 -0.69644 3.02815
-0.809356 0.392914 2.99849
-0.265574 0.776631 2.02589
1.14062 -1.20611 3.39847
-0.335399 0.0279612 2.9635
-0.136448 0.319384 2.96567
-0.543174 -1.37637 3.44216
-1.2593 -0.881008 3.249
-1.00715 -0.469534 3.07455
1.32826 0.633223 2.78941
-1.11099 -0.0755997 3.06776
1.12566 -1.33979 3.40101
-0.898817 0.29189 2.98591
0.923162 -0.838513 3.18075
-0.419155 0.648192 3.0231
-0.458094 -0.45656 3.22798
0.995298 1.00676 2.79045
0.527896 -0.0474798 2.9817
0.838921 0.985771 2.84018
1.11746 0.727786 2.84582
1.032 -0.77151 3.07813
1.45239 -1.69364 3.58677
-1.15833 -1.23763 3.33065
1.0868 0.0204939 2.87337
0.477324 0.377357 2.89583
0.68086 1.11122 2.89312
0.371993 -0.410941 3.12324
0.863202 -0.780986 3.22475
1.55026 0.313209 2.69902
0.119582 -1.29155 3.55119
1.12633 -1.76649 3.60918
-1.31666 -0.0107134 3.04072
0.379172 -0.379268 3.13465
0.736164 0.717862 2.95992
-0.650034 0.719997 1.92824
-1.15658 -0.755924 3.37308
-0.661927 0.745041 1.84559
-0.848099 -0.33855 3.16499
-0.992406 0.808705 2.85991
0.145451 0.458378 2.92292
1.48214 -1.16139 3.25372
-0.412074 0.104204 2.95484
-1.24088 0.294279 3.00838
-1.07908 -0.28819 3.13294
0.0562864 0.81213 3.00953
-1.32689 -0.707454 3.331
0.819971 1.12094 2.83564
1.86335 0.151573 2.74769
-0.56213 0.0663349 2.98957
1.39448 -1.15701 3.39505
-0.0882288 0.430112 2.96234
1.40438 -0.229847 2.76299
0.947612 -0.647487 3.14943
-0.562918 -1.15044 3.56773
-1.46883 -1.44599 3.19557
0.356598 1.22208 2.90273
1.49348 0.764474 2.60336
1.69393 0.471504 2.85783
0.170798 0.135266 2.98265
0.2631 -1.35038 3.69583
0.0302497 0.424802 2.93365
1.40925 -0.729086 2.99566
0.808449 0.0592928 2.90531
0.867434 1.09848 2.77819
1.23526 0.749185 2.78508
0.509092 -0.366967 3.02844
-0.832911 0.0336829 3.04878
0.105784 -1.25024 3.55759
-0.478057 -0.33008 3.05189
0.871064 0.38 2.93112
-0.734557 -0.740691 3.27939
1.15705 0.728245 2.84745
0.955342 1.07701 2.80037
-1.17937 -1.0748 3.22259
-1.2191 0.831896 2.82223
0.696045 1.19889 2.849
1.7424 0.116728 2.7584
1.27627 -0.268303 2.81035
1.92438 0.156753 2.74488
-1.22979 -0.719186 3.37549
1.00266 -0.624465 3.03822
0.552071 0.460788 2.93126
-0.92037 -0.239208 3.07181
-0.301118 0.103036 2.94601
-1.18534 -1.561 3.4518
-0.998224 0.500917 2.97103
-1.37208 -1.00299 3.14638
-0.274822 0.846321 3.00808
0.0939276 1.18337 2.90575
-1.39357 -0.632391 3.33365
1.01254 1.25541 2.75925
-0.368666 -0.204713 3.0722
0.617851 0.947359 2.94711
1.04856 -1.57962 3.57587
-0.457341 0.571216 2.98602
-1.38514 -0.995328 3.22788
0.267921 0.21412 2.96196
-0.706791 -0.159579 3.03518
-0.136219 -0.560967 3.13083
-0.461834 0.895907 2.88061
-0.410128 -1.59184 3.416
0.616624 -0.9909 3.31746
-1.21388 -1.41559 3.35656
1.41803 0.159961 2.8548
-0.306671 -0.114472 3.00147
0.0213244 0.534796 2.98699
-0.916672 -0.51256 3.12896
-0.515578 0.899135 1.877
0.940529 -0.956849 3.32034
0.896759 -1.78335 3.64982
1.4998 1.16179 2.57473
-1.09798 -1.34532 3.28166
-0.309023 0.744246 2.19631
-0.919478 0.584822 2.88172
-0.000158037 0.251526 2.94468
-0.817317 -1.53864 3.418
0.69916 0.530283 2.95978
-1.34772 -1.00967 3.16885
1.58371 0.157799 2.81397
1.24479 -0.589207 2.85273
-0.0155579 1.22639 2.64658
-0.380407 -0.240323 3.04834
-1.286 -1.05581 3.40002
-0.00388168 0.136615 2.95079
-1.39304 -1.42183 3.27929
0.157128 0.490434 2.91317
0.0172526 -0.204322 3.04529
-0.704438 0.865485 2.88914
-0.993126 -0.609609 3.22226
0.0593355 0.919564 3.00744
0.985911 1.16847 2.78167
0.973098 -0.980754 3.27135
0.328188 1.02974 3.04932
-0.80266 -1.44606 3.42546
1.12565 -0.156294 2.84719
0.2128 0.254103 2.94284
-0.391814 -0.579415 3.25514
-0.595277 0.631011 3.09609
0.0289388 0.582238 3.03428
-0.770712 -0.512494 3.12406
0.717782 0.212371 2.93627
0.914999 -0.120204 2.95491
-1.00614 -1.35333 3.30225
0.318982 1.2771 2.90473
0.757686 0.94829 2.94821
-0.143503 -0.960948 3.38477
-2.46735 -0.866256 5.30022
1.42675 0.970646 2.69333
-0.0176843 -0.0759444 3.00075
-0.501739 0.704328 3.06232
1.37534 -1.39036 3.42676
1.03456 1.23315 2.75908
-0.543762 -0.957606 3.51032
0.552022 0.307834 2.88409
1.08562 -0.0490289 2.89623
1.65271 -0.407569 2.80968
-0.368917 0.288178 2.95395
1.20008 -0.830911 3.13285
-0.32558 0.65748 3.06767
-0.682339 -1.30445 3.37393
-1.05193 -0.00839207 3.04794
1.30793 0.97393 2.8091
-0.0923804 -0.406373 3.12232
1.6872 0.319133 2.71087
-1.60794 -0.83297 3.34436
1.29977 0.673234 2.78933
-1.05592 -1.2428 3.34718
-0.526288 0.727349 1.94803
1.74432 0.992322 2.55886
1.85964 0.526072 2.66411
1.25889 -0.387512 2.8521
1.26517 0.703956 2.79535
1.49205 -0.0258064 2.81362
1.54433 1.01319 2.64987
0.128863 -1.32327 3.50024
0.916423 0.0174109 2.92372
1.08923 -0.791111 3.11878
-0.12602 0.379298 2.94316
1.14686 0.686597 2.85735
-0.295929 0.754494 2.0271
0.133402 -0.376865 3.08304
-0.550985 -1.24359 3.40874
-0.604454 -0.762795 3.18584
-0.45833 0.351812 2.9931
-0.303406 -0.340198 3.11654
-0.1435 0.814003 2.01841
0.796967 -0.736412 3.17755
1.12197 0.785577 2.82266
1.10906 0.449337 2.91252
1.287 -1.19284 3.3392
0.0246464 0.0937406 2.96907
0.697465 -0.293411 3.04184
0.499321 0.779345 2.92304
1.65356 -0.629239 2.83463
0.832211 0.41614 2.94651
-0.921961 -1.12395 3.32732
0.963792 0.0507213 2.91815
-0.620961 0.740384 1.90139
-0.205234 -1.68678 3.59647
-1.3247 0.139514 3.08831
0.0118255 0.49056 2.95576
-0.760495 0.626127 2.15697
0.878488 1.17107 2.80066
0.212944 -1.69663 3.69577
0.150729 -1.14928 3.52972
1.6413 -0.602464 2.86131
1.28842 -0.242897 2.82736
1.1434 -1.49493 3.36526
1.16425 0.537259 2.87247
-0.698608 -1.0584 3.39462
-1.06083 0.2168 3.02809
-0.21764 -0.616248 3.19132
-0.317639 0.860877 1.939
1.58833 -0.208316 2.81939
-0.557646 -0.985875 3.30759
-0.71785 0.170059 2.93998
-1.16693 -1.40662 3.3133
-1.24735 0.520572 2.91571
-1.1393 0.745894 2.45969
1.23581 -0.164783 2.82613
0.936711 -0.560023 3.03153
-0.478482 0.679734 2.12436
-0.231301 -0.698867 3.23408
0.118334 0.867493 2.96998
0.744176 -0.292 3.0395
1.01155 1.1556 2.76254
-0.666839 0.809359 1.86461
-1.04788 0.138182 3.01396
1.02575 -1.13615 3.31504
0.572241 0.487713 2.94335
1.29331 0.773383 2.77348
0.0260234 -0.664252 3.23837
-0.71932 -0.248851 3.03569
1.18845 0.084231 2.81773
0.769413 -1.78095 3.87118
1.46766 0.433917 2.8186
-1.15738 -1.05516 3.27363
-0.786141 -0.208034 3.04265
0.725654 1.16281 2.86964
0.0130031 -0.613528 3.1779
-0.593174 -1.11832 3.58659
1.32522 0.524874 2.80833
0.753271 -1.75195 3.94906
-0.476264 0.211877 2.96688
-1.43871 -0.171181 3.088
-0.443713 0.899866 1.87767
1.12345 -0.541762 2.93497
-1.00672 0.716286 2.364
-0.158612 -1.00086 3.34985
-0.767537 0.538254 3.02581
0.227162 -1.50287 3.50969
-0.155072 0.167768 2.96709
0.700464 0.242004 2.94834
-0.374523 0.60877 3.03181
1.82723 1.03694 2.55259
-0.437409 0.690213 2.0747
-0.148715 -1.48327 3.5846
1.36358 -0.905818 3.10352
1.8785 0.0885409 2.74715
-1.02026 -0.52589 3.12485
1.6025 0.824393 2.60115
1.35934 -0.125883 2.72339
-0.114221 -1.44392 3.58081
-0.0471997 1.07 2.40805
1.40265 -0.851501 3.03197
-0.745149 0.311746 2.97791
-0.536482 -0.0853197 3.05411
-0.340622 0.742231 2.05907
1.41891 -0.469801 2.88687
-0.0844068 -0.879942 3.32267
1.45257 0.567531 2.70483
-1.16105 -1.27983 3.30216
0.499282 -1.68143 3.56966
1.7372 -0.0567762 2.77601
0.281457 0.279671 2.95089
0.62528 -0.45158 3.08065
-0.31629 0.689161 3.04674
-0.653196 0.693539 2.01628
1.51187 -0.537365 2.88939
-1.19058 -0.167277 3.09495
-0.377589 0.708805 2.11913
-1.04319 -1.38503 3.26364
-0.28222 0.614657 3.06023
0.104483 -1.02438 3.42943
1.07891 0.238231 2.91196
-0.588185 0.654605 2.05026
-1.22608 -0.127916 3.0975
-0.459889 0.867216 1.88658
-0.588941 -0.535093 3.19132
0.652279 0.204873 2.91552
-1.45158 -0.868001 3.01947
0.630127 -1.54448 3.71342
1.66958 0.498937 2.67464
1.72892 -0.0844525 2.75809
0.506766 1.26881 2.87749
1.56242 -0.449116 2.76844
-0.929566 0.768989 2.73267
-1.34894 -0.864617 3.15437
1.24706 -1.49683 3.66552
-0.250898 0.906655 2.58451
-0.892747 0.652773 3.06763
1.00938 0.275159 2.92811
1.12974 1.24709 2.72966
0.696058 -1.4144 3.60474
-1.4714 -0.829777 3.15577
-1.1563 0.354169 2.9846
0.981048 -0.444533 3.02441
1.32055 0.661504 2.76453
-0.970682 -0.045227 3.01261
0.513831 -1.37149 3.61861
-0.420299 0.309397 2.94012
1.36476 -0.74936 2.95676
0.169555 1.09104 2.94582
1.50008 -0.381542 2.79765
1.14148 0.655836 2.89707
1.74683 -0.0249135 2.74531
-0.479905 0.715394 1.98404
1.83858 0.406489 2.67464
0.452911 -0.807907 3.33788
-1.2358 0.430225 2.99415
0.0981695 -1.30186 3.55126
0.649586 -0.366154 2.9677
-0.1441 0.0582622 2.97823
-0.350424 0.766475 1.94907
0.567764 0.79232 2.97001
0.192891 0.374075 2.91781
1.35248 -1.19963 3.34663
1.64334 0.0136938 2.84004
1.57473 0.983655 2.55912
-0.259451 -0.337086 3.10396
1.70655 0.653914 2.60771
-0.505399 -0.730434 3.20663
-2.43969 -0.98378 5.54671
0.903834 1.04985 2.83413
-0.065276 -0.0505202 3.01341
1.35005 0.655304 2.73542
1.09607 -1.34952 3.42052
0.068274 0.343209 2.90807
0.877485 -0.859971 3.23975
-1.17069 -0.0120649 3.08262
1.4686 0.61926 2.75679
-1.43407 -0.420991 3.22443
0.0603117 0.307467 2.93797
-0.194969 -0.813411 3.27247
-0.164365 0.844396 2.32658
0.756677 -1.31856 3.48274
1.60918 -0.355923 2.82685
1.00399 -0.78945 3.24737
1.90015 0.373923 2.68285
0.74098 -1.88569 3.97005
0.906842 -1.37032 3.72194
0.237292 1.12461 2.92981
0.0483411 0.767468 3.02015
-0.59023 0.383833 2.95766
1.63204 0.0128336 2.77434
0.0511816 -1.20739 3.41375
1.71207 0.0889262 2.76223
1.62025 0.400217 2.59085
1.29286 -0.68074 2.92126
1.39348 0.758842 2.7314
0.542437 -0.336432 3.03579
1.216 1.10989 2.73831
1.64561 0.0466873 2.82922
0.114538 0.415225 2.91318
1.19521 -1.1148 3.25281
-1.1771 0.737237 2.73776
1.3612 -0.661318 2.99848
-0.120464 0.797058 2.02176
0.770064 -0.291217 3.01279
-0.814501 -1.12312 3.4723
-0.829811 0.632459 2.08632
1.43724 -1.66761 3.62669
-0.168548 0.942032 1.98468
0.140055 -0.25144 3.03667
1.06855 0.158432 2.86234
0.742737 -0.648645 3.13247
-0.456164 0.530751 2.98072
-0.383643 -1.03817 3.32176
-0.590051 0.131738 2.98368
1.22129 -1.70472 3.83921
1.35716 0.467253 2.83478
-0.572593 -0.214363 3.08131
0.682313 0.86477 2.96605
1.35312 -0.570764 2.90932
1.48352 1.02877 2.52998
1.45538 -0.659735 2.82937
1.43603 0.744807 2.67982
0.971664 -0.325766 2.92288
0.723035 -1.23638 3.48148
1.73151 0.420771 2.696
0.131 1.20953 2.88384
1.61137 0.0833195 2.75188
1.1344 -0.279271 2.86871
0.105894 1.14423 2.9
-1.48632 -0.683518 3.15172
-0.750874 0.79767 2.96817
1.34925 -1.15249 3.35104
-1.26505 0.0656574 2.9813
0.491285 0.415975 2.91596
-0.193904 0.130812 2.99142
1.53179 0.446029 2.71841
-1.00942 0.736247 2.51503
-0.66147 -1.54815 3.41753
1.19983 1.13561 2.70731
0.200962 -1.12381 3.45343
0.223924 -0.661472 3.23084
0.991087 -0.249698 2.94845
-0.561035 -1.51859 3.47122
-0.862181 0.598082 3.14603
0.443753 -1.07896 3.42633
-1.39105 0.216417 3.01629
-1.45607 -0.599583 3.12782
-0.262611 0.869326 1.95665
-0.241076 -0.211851 3.07142
0.216448 -1.06032 3.53961
-1.33562 0.180752 3.0672
0.43545 -1.48774 3.48371
0.283991 0.519179 2.93323
0.714438 0.89326 2.9402
-0.432883 -0.167824 3.06748
1.3558 -0.535908 2.9032
0.148725 0.968886 3.02782
-1.329 -0.924495 3.25436
0.981051 -1.80315 3.80301
-0.177033 1.03401 2.98512
0.663222 -1.5368 3.68919
-0.547509 -0.130778 3.06254
1.10606 0.266026 2.8434
-0.50021 -0.537822 3.19092
-0.190013 0.655334 3.07257
-0.124928 0.605835 2.98176
-1.26449 -0.4862 3.14666
1.61065 0.217559 2.6631
-0.0599405 -0.0822455 3.01827
-0.283234 0.921988 1.9355
-1.11244 -1.31983 3.29635
0.849913 0.966986 2.90679
-0.48421 -0.963141 3.49793
1.23521 -0.202983 2.82871
-0.282175 0.890342 1.94487
-1.4303 -0.605547 3.1667
1.57219 0.830958 2.61061
1.23459 -1.05363 3.32348
0.245998 0.544397 2.90549
0.564861 -1.58508 3.59918
-1.2695 0.222942 3.02592
0.192568 -0.168275 3.00504
-0.322667 0.8693 1.92318
1.33561 1.13762 2.64926
1.51262 -0.566719 3.06905
1.41003 0.821936 2.7134
0.327868 -1.01768 3.39785
0.493341 0.513206 2.89887
0.528393 -1.59827 3.7344
-1.11241 0.172093 2.9182
0.606969 0.241062 2.91615
0.0554773 0.609414 3.01546
0.379465 1.35405 2.89479
0.987985 0.955482 2.8686
-1.36455 -1.33232 3.24909
-1.21399 -0.935709 3.29441
1.75425 0.737204 2.61262
0.0561709 -0.535915 3.17024
0.371777 -0.129407 3.00561
-1.08075 -1.33317 3.32796
1.12002 -0.952668 3.41919
1.5318 0.281378 2.72803
0.88767 -0.487124 3.08013
-0.0586973 1.07555 2.97891
1.43583 -0.0828416 2.73853
0.684257 0.672727 2.96316
1.72103 0.252223 2.6809
1.58462 -0.765241 2.8608
0.132346 0.676337 3.15976
-1.44797 -1.19888 3.08482
0.579187 -0.0529833 2.95502
-0.962519 -0.462027 3.2391
0.0441838 -0.82026 3.29057
1.43966 0.685439 2.72321
1.51416 -1.31357 3.44051
-0.0415806 1.02945 2.96446
-0.392104 0.0256324 2.99634
0.280297 1.14128 2.96951
-1.13368 -0.422943 3.23906
0.0885756 0.376555 2.90975
-0.869439 -0.876385 3.33739
0.190205 0.344455 2.92369
-1.48035 -0.385226 3.21888
-1.26524 -0.0114945 3.15408
1.79888 0.410327 2.67762
1.59918 -1.19375 3.23016
-0.758138 0.70642 1.89606
1.2628 -0.741596 3.03124
1.41939 0.654307 2.73049
0.982838 -0.0811235 2.92799
1.20943 0.994577 2.76288
1.66098 -0.459452 2.86712
-0.188077 0.674326 2.94105
1.10642 -0.862153 3.09991
0.415291 0.305895 2.91356
-0.411061 -1.42387 3.54269
1.48334 -0.0548457 2.85674
0.688155 1.00891 2.9105
1.69372 -0.439797 2.96928
-1.47618 -1.58449 3.36436
-1.29715 -0.826596 3.17815
0.7822 0.623784 2.93771
-0.884461 -1.32594 3.42281
-1.24544 0.292771 2.99998
-1.01059 -0.00972995 3.05492
1.85527 0.111515 2.7522
0.590711 0.341702 2.91083
-0.868644 0.722541 2.96098
1.78808 0.96173 2.55477
-0.460126 0.726832 1.95452
-1.40215 -1.23138 3.30725
1.18099 -0.779073 3.08513
-0.887489 -0.411346 3.16188
0.467024 -1.2922 3.52083
1.12266 0.410808 2.89566
1.30417 -0.731913 2.99421
1.0981 0.053162 2.84257
-1.10515 -0.379617 3.15281
0.526292 1.13332 2.86972
-0.114782 0.798112 2.97548
0.364218 0.37639 2.91203
1.16827 -1.20887 3.39212
-0.0340689 0.0227045 2.94938
0.928332 1.0718 2.79331
-0.50746 -0.333806 3.06226
-0.592388 0.772633 3.02132
-1.35773 -0.725996 3.21653
-0.734364 -0.697094 3.25004
-0.669613 0.857235 2.88592
0.061067 -0.290363 3.07514
1.41294 1.10143 2.63029
-1.41057 0.136623 3.05333
-1.43107 -1.10292 3.28038
-1.15764 0.487508 2.89938
0.639622 -0.656068 3.19067
1.5 0.735887 2.64702
1.67041 -0.25102 2.8928
-1.1181 0.111505 3.11506
-0.437343 -1.62079 3.55403
-0.719146 0.463627 2.96387
0.245681 -1.18156 3.62835
-0.759601 0.748046 1.84973
0.340719 -0.377556 3.0976
1.37248 -0.733738 3.00406
1.3637 -1.22906 3.33316
-0.540035 0.74827 1.9445
-0.753828 0.749298 2.93415
1.28274 0.367586 2.86296
0.222405 0.0225257 2.97488
-1.52238 -1.14864 3.26503
-1.05754 0.112243 3.05867
-0.554374 0.464462 2.96049
-0.848294 -0.753774 3.31796
1.66911 0.712704 2.5689
0.0554302 -0.333067 3.06206
-0.30851 0.79324 1.96921
1.26931 0.0527229 2.83671
1.8171 0.399834 2.80143
0.537349 -1.19804 3.53067
0.376328 0.803507 2.98614
0.436669 -0.689819 3.18696
1.0087 1.12803 2.85855
0.126491 -0.289242 3.05805
0.782285 -1.09629 3.35665
1.67144 0.46107 2.61878
1.27045 -1.7513 3.81431
0.721445 0.168927 2.95356
-1.0994 -0.250965 3.12462
-0.526685 0.829072 1.88312
-0.751605 -1.59479 3.38606
0.829627 -0.646201 3.13264
-0.879818 0.649204 2.13188
-0.582719 -1.05836 3.39961
-0.0721832 0.131611 2.96538
-0.992988 -1.4761 3.3908
-0.387294 0.496744 2.9649
0.982112 -0.208873 2.94796
-0.716879 0.781934 1.86342
0.0921763 -0.616589 3.20871
-1.22197 -0.581748 3.26452
0.462731 0.875015 2.98823
-0.811685 0.66721 2.00762
-1.46778 -0.167418 3.0931
1.24029 -1.54194 3.59207
1.38203 0.233393 2.84112
-0.498239 -0.995005 3.35654
0.0978124 0.601117 2.99684
1.08041 -0.50506 2.95324
0.494452 0.950336 2.95893
-0.675812 -0.124816 3.03696
-0.653145 0.857668 1.86069
-0.110979 0.682156 1.64235
-0.246966 -1.44184 3.48995
-1.00301 -0.930189 3.27196
0.923403 0.209035 2.93958
0.51529 0.547338 2.90193
-0.465589 0.750411 1.89745
1.17562 0.75728 2.80494
1.06061 -0.356122 2.94952
-1.50475 -1.18762 3.29819
-0.811135 0.440731 2.99067
-0.0216517 -0.767049 3.24013
0.740027 0.0644676 2.93124
0.196453 -0.324491 3.08069
-0.187515 0.777366 3.01841
0.769749 -0.715221 3.18116
0.65802 1.12094 2.90056
-0.0685571 0.0317134 2.95777
0.00139446 -1.19983 3.43305
1.60958 0.357615 2.70523
1.06194 -0.271846 2.9142
1.15577 -0.653995 3.02061
0.411709 -1.19467 3.56047
1.35795 -1.70149 3.63212
0.141373 1.17864 2.87866
-0.176305 0.864403 3.05601
-0.507626 0.469701 2.9417
-0.166299 0.106558 2.99001
1.10971 -1.6481 3.62098
1.68073 0.160045 2.79442
1.14988 -1.07919 3.34023
-0.332531 0.552179 3.02456
-0.940367 -0.636201 3.19009
1.14808 0.856034 2.78582
1.35687 -0.226941 2.8333
-0.450893 0.829334 1.89083
-1.34151 0.154134 3.06427
-0.619302 -1.49985 3.4515
0.816311 -1.01633 3.26874
1.27491 0.487145 2.85695
0.341138 -0.592931 3.13239
-0.0442169 0.9083 3.06244
-0.028892 -0.198111 3.05301
1.75892 -0.898849 3.02171
1.78953 -1.93105 4.00278
1.16414 -1.61406 3.77929
-0.039274 0.263265 2.93486
-0.0440549 0.660722 3.21301
0.657141 -0.156707 2.99664
0.768878 0.971182 2.8744
-0.65636 -0.576564 3.29667
-1.4067 -0.903221 3.23041
1.4942 0.518569 2.71283
0.761186 1.19067 2.82582
-1.24798 -1.31359 3.2256
-0.44387 -0.111796 3.02866
1.47841 0.207483 2.84797
0.746136 -0.515634 3.11607
0.786844 0.93667 2.89948
-0.647712 0.830512 1.85623
0.0789391 -0.643129 3.20438
0.508841 1.32507 2.87436
-1.03558 -0.236146 3.13969
1.486 0.803241 2.61865
-1.27042 -1.42184 3.16121
0.901641 0.532012 2.92627
1.15667 -1.04457 3.23622
-1.18762 -0.193731 3.09817
1.72243 0.163525 2.74575
1.68908 -0.540091 2.80425
0.152728 0.883459 2.97682
0.925368 -1.00736 3.24968
-1.17535 0.145745 2.95695
-0.484674 -1.50754 3.46233
1.69641 0.47287 2.77086
0.699548 -0.156614 2.99726
1.06824 1.15501 2.7427
-0.0348984 -0.558413 3.16082
1.66474 0.527226 2.75154
-0.377116 -1.00197 3.40666
-0.0906729 0.9802 3.02277
1.26208 -1.60768 3.76369
-0.370597 0.762729 2.06283
1.14993 1.24295 2.72779
1.73175 0.202174 2.74677
1.02246 -1.43893 3.47647
1.13743 0.626572 2.8958
0.424109 -0.938048 3.31166
1.35163 0.274427 2.82463
0.260774 -0.512563 3.13065
-0.179783 -0.110733 3.03307
0.382924 1.04043 2.96567
0.121342 0.260434 2.91859
0.60116 -0.902319 3.30607
1.16546 0.577085 2.8472
1.07828 -1.40147 3.48895
1.0229 0.947564 2.79962
1.22365 -0.0756343 2.80238
1.62934 0.248664 2.7561
1.30911 -0.450251 2.90006
0.25708 -0.857322 3.29231
-0.516474 0.745516 3.03173
0.545622 -1.39079 3.58254
0.0100999 1.09497 2.91666
0.758971 -0.0414951 2.9343
0.769251 -0.00704585 2.95175
-1.19213 -0.442323 3.18652
0.879431 0.354169 2.93255
0.00113975 0.66877 3.04039
1.62211 -0.364175 2.77079
-1.37809 0.325444 2.95922
1.5365 1.14723 2.56485
-1.00828 -1.27891 3.44816
0.722932 1.03796 2.86225
-0.358054 -0.830492 3.38145
0.0619895 0.730719 3.14408
0.631065 -0.113464 2.99933
1.57759 0.905267 2.59
0.456833 -0.524824 3.19462
1.48149 0.579392 2.68882
0.699543 -0.937827 3.29221
1.04892 -1.42651 3.44567
1.77011 0.27091 2.80805
-0.616397 -0.0695769 3.0553
1.77754 -1.06065 3.00733
1.44423 -0.439932 2.83183
1.57743 0.859402 2.55598
0.572393 -1.79026 3.7245
-0.962264 -0.891736 3.32123
-1.34109 -1.2852 3.26556
0.519843 0.252794 2.83824
1.4197 0.550769 2.72217
-1.33553 0.338641 3.03043
0.100329 0.693242 2.98916
-0.149569 0.901592 2.45345
1.20424 1.24161 2.72863
-0.829907 -1.28218 3.33783
0.560731 -0.870881 3.33657
-0.132228 -0.438093 3.14183
1.30112 -0.0429176 2.8371
-1.33278 -1.21898 3.30392
-1.34219 0.39804 2.93293
0.0940451 -0.80991 3.28219
0.362496 0.0301533 2.97167
1.69277 -0.357181 2.6967
0.737965 1.10445 2.8573
-0.323475 0.767575 2.96621
-0.97316 -1.35311 3.41087
1.04111 -0.744025 3.10696
1.72088 -0.00880555 3.12665
-0.124514 -1.33608 3.70542
-0.438504 -0.372747 3.18972
1.71434 0.327839 2.71842
0.407232 0.743854 3.04087
0.568343 1.09645 2.91732
0.159205 0.852659 3.0104
-1.14977 -1.13004 3.26824
0.278958 1.21007 2.94742
1.03992 0.0986912 2.88654
0.594333 -0.322109 3.03012
1.383 0.447573 2.8239
-0.0716927 -0.723489 3.2558
-1.02355 -0.688882 3.26792
-1.05103 0.426673 2.86098
-0.17892 -0.274112 3.04526
0.901991 0.0674203 2.9303
-0.844097 -1.59814 3.44969
0.0498371 1.13711 2.84693
0.56336 -1.18151 3.51784
1.56841 0.70629 2.62137
0.0651066 1.13571 2.92733
-1.3304 -0.39815 3.1872
1.52466 0.676347 2.62353
0.31814 -0.825948 3.34455
-1.00951 0.397342 2.91456
-1.17308 -1.20164 3.24035
1.51426 0.023162 2.90303
0.302244 -0.368152 3.0954
1.53923 0.651904 2.66683
-0.54373 0.734232 1.95064
-0.924056 -0.777439 3.30885
-1.38763 0.370538 3.00213
0.433531 -1.28229 3.53733
-1.42728 0.00016425 3.07337
1.28622 0.0617017 2.80985
0.908491 0.435724 2.9497
1.67561 0.712199 2.64665
0.926287 1.10892 2.77756
-0.044673 -1.20722 3.46747
0.0062692 -0.718053 3.21704
-1.35598 -0.326762 3.16853
-0.826579 0.526269 3.03528
-0.0392735 -1.69366 3.64759
-0.653413 0.144224 2.95974
0.673785 -1.15315 3.42945
-0.56364 0.777648 1.84839
0.621779 -0.680293 3.17763
0.647697 0.879241 2.9636
-0.0611958 -1.71212 3.59885
-0.0322024 -0.27491 3.04355
1.25459 -1.0406 3.22101
0.884878 -1.74212 3.83532
-1.47654 0.124126 3.22625
-0.683751 -0.233471 3.07968
0.657531 0.468696 2.93354
1.25086 -0.614348 3.01876
-0.868232 0.824224 2.87016
-1.19141 -0.616797 3.32429
-0.88567 -1.03443 3.38827
-0.187204 -0.193457 3.04749
-0.416583 -1.48505 3.41059
-1.41107 0.228334 2.98102
1.31332 0.878093 2.71391
-0.919748 0.627198 3.21646
0.325011 1.19838 2.92433
0.752794 -0.552155 3.10398
-0.777618 0.670276 2.17089
1.46648 -0.150589 2.79408
0.000739425 1.23032 2.72951
1.28255 1.21292 2.69345
1.75187 -1.57246 3.68514
-1.29576 0.188305 3.04769
0.448634 -1.01436 3.42098
0.943847 0.528213 2.90693
0.157836 -0.275622 3.04066
1.2557 -0.649806 3.01207
-0.109783 -1.14389 3.43227
0.882021 -1.71885 3.67987
1.01395 1.12234 2.73939
-0.578356 0.837372 2.9349
-0.323106 0.48694 3.00682
-1.37872 0.118659 3.08407
1.18228 -1.7197 3.78445
-0.196957 0.180622 2.96425
-0.601544 -1.06602 3.35555
1.65225 0.51621 2.80705
1.31783 -0.586591 2.87747
-0.665245 0.643281 2.07408
0.292259 -0.231356 3.02543
-0.635246 0.852292 1.86649
1.67352 0.127145 2.79159
-0.072975 -1.58201 3.62137
1.5125 -0.947999 3.04526
-0.600433 0.517364 2.99366
0.501848 -0.607353 3.21723
1.41825 -0.18397 2.73863
1.08462 0.84169 2.84015
-1.09781 -0.966095 3.30875
0.912559 0.595594 2.92571
-1.75037 -1.50448 3.52941
1.48937 0.252702 2.87607
0.657708 1.20477 2.85231
-0.667292 -0.150386 3.02244
1.23594 0.933049 2.75982
-1.34141 -0.561384 3.2301
0.832403 -0.932983 3.2718
0.479599 0.5665 2.92679
1.7675 0.865457 2.58194
-2.22352 -1.91726 4.62604
0.789109 -0.112587 2.94598
-1.12903 0.23516 3.04769
0.488472 -0.518716 3.15838
-0.413754 0.684936 2.10552
-0.33422 0.763739 2.0732
1.59589 -0.448757 2.8786
0.453377 0.683004 2.96417
-0.421059 -0.0687417 2.99265
0.369603 1.08001 2.96315
-0.998941 -1.37561 3.46272
0.863606 -1.64216 3.81161
-0.298452 -0.909345 3.3548
-0.0338519 -0.440555 3.15698
-0.836847 0.32415 2.95076
-0.187576 -0.0354223 3.01413
-0.707714 0.69414 1.97161
-0.761121 -1.33273 3.47617
-1.32937 0.309546 3.01652
1.01392 -0.859413 3.28412
-1.26646 0.625776 2.87128
-0.183189 -0.15215 3.03312
0.839674 1.25705 2.80683
0.320487 -1.7271 3.61878
0.0287398 -0.557653 3.17075
0.0701305 1.2372 2.78096
-0.099462 -0.985888 3.35329
-0.9901 -1.41778 3.37407
0.274398 1.3418 2.91005
1.81871 0.890151 2.56742
-0.329734 0.907608 2.76792
0.970019 0.562775 2.9165
-0.535359 0.226675 2.96843
-0.308497 -1.40289 3.42519
-1.10477 0.298724 2.96303
1.49396 -0.820647 2.85951
0.576835 -0.520581 3.16025
-0.509186 0.66056 3.02388
-1.16258 -0.109909 3.12439
-0.628015 -1.34692 3.40349
-0.52444 0.273176 3.01363
1.65297 -0.804534 2.92066
1.22637 0.572677 2.81979
-0.384371 -0.481629 3.18742
1.28841 0.945466 2.79596
-0.276968 -0.0712441 3.02898
-0.112284 1.04653 2.97761
1.40534 -0.775208 2.95111
-1.25765 0.369735 2.97885
-0.634091 -1.29329 3.37136
-0.55486 0.00273413 3.02255
1.17493 -0.040033 2.85843
-0.382539 0.745459 1.99375
1.11023 -0.418502 2.9584
0.889375 -0.788899 3.17441
-0.386301 0.324473 2.95689
-0.0850114 -1.30266 3.49899
-0.0628544 0.726504 2.94806
1.26066 0.998944 2.7438
-1.21581 -0.400424 3.20614
-0.9225 0.678826 2.92728
-0.791739 0.724279 1.81225
0.91378 -0.356836 3.00897
-0.328362 0.816531 3.00502
0.945929 0.43352 2.93858
0.916403 -1.26714 3.48942
1.4561 0.0626607 2.89541
-0.559356 -0.768069 3.27184
-1.01655 0.777692 2.99482
0.0391245 -0.721357 3.2388
0.815392 -1.56136 3.73287
0.368456 -0.330165 3.15329
-0.937663 0.0398286 3.04253
1.15807 1.05575 2.72315
-0.341773 0.401208 2.95167
1.44167 -1.14029 3.23173
1.41528 -0.0415373 2.83943
1.43745 -0.403853 2.85533
1.32955 -0.769497 2.94826
-0.433595 0.706522 3.03601
-0.359533 -1.33626 3.46904
0.257996 1.08394 2.96474
-0.205999 0.325542 2.95917
1.48423 0.395713 2.94568
0.249131 -1.32405 3.5436
1.02869 0.0308887 2.90444
1.82813 -0.720139 2.8756
1.25402 1.06258 2.73968
0.0386145 -0.391728 3.0889
-0.605819 0.774972 2.97049
-0.884648 -1.20868 3.37065
-1.42642 -0.730469 3.12907
0.238748 -0.000246596 3.00572
-0.991768 0.365001 2.94949
1.13594 -1.99031 4.14039
1.2586 -0.346375 2.8774
0.338463 0.749931 3.04231
1.41544 0.994638 2.64158
-0.0912293 0.953018 2.02777
1.52293 -1.15781 3.27457
0.867712 0.831915 2.93493
-0.638768 0.757717 1.86741
-1.23187 0.113213 3.02226
1.0174 -0.311101 2.95645
1.48271 0.434356 2.72456
1.23794 -0.671585 2.97975
-1.34721 -0.685744 3.27872
-1.03898 0.458076 3.03503
0.924712 -0.276048 2.99811
1.67649 0.0601788 2.72507
-1.12987 -1.56156 3.3845
-0.20215 0.785191 1.96111
0.22844 -1.16752 3.49509
-0.138651 0.801959 2.95391
-0.926257 -0.644944 3.25528
-0.567785 0.835244 1.87882
1.39262 -0.224949 2.84627
0.00724775 0.960024 3.10755
-0.533873 -1.55826 3.47939
-0.886357 0.564202 3.06724
-0.273406 -1.06322 3.33408
1.70208 0.159044 2.75501
1.76019 -0.189899 2.82526
1.04628 -0.568416 2.98292
-1.15179 0.822378 2.76707
-0.495033 -1.08874 3.55878
-1.10249 0.152054 3.02209
-1.51587 -1.3737 3.1454
-0.543662 0.512854 2.96366
-0.687795 0.0768698 2.99333
1.09296 1.15132 2.72238
-0.122141 0.442412 2.9529
-0.0171686 0.804573 2.96204
0.577681 1.15178 2.87638
-0.867595 -1.16034 3.35195
-0.684196 -0.741964 3.3565
-0.799235 -0.31666 3.15129
0.376026 -1.65062 3.56076
-0.561554 0.14659 2.95542
-1.27816 -1.07461 3.26477
-0.212728 0.507624 2.93218
0.460236 -0.669274 3.14922
1.41843 1.0769 2.54014
0.414247 -0.279898 3.10576
0.300479 -1.11415 3.48206
0.489994 0.105174 2.93465
-0.50705 -1.56372 3.49465
-0.957964 0.482907 2.9666
-1.23838 -0.229792 3.11967
1.33925 0.771486 2.72283
-0.923839 -0.668363 3.37092
-0.822781 0.668905 2.25702
1.46898 1.05252 2.56275
-0.303213 -1.00063 3.28282
1.28309 0.897164 2.76574
-1.0029 -1.42434 3.29906
-1.1045 -0.190199 3.1193
-0.0890617 0.226327 2.97028
1.24428 1.22546 2.72784
-0.940572 -0.582988 3.14579
-0.434483 0.551627 3.00419
0.345982 -0.553045 3.14008
1.7289 0.159589 2.76234
0.748555 -0.1539 2.99282
1.0034 -1.59234 3.75121
1.09991 0.556508 2.88031
0.185692 -1.03231 3.50035
-0.320136 0.937928 3.02561
1.0469 -0.485988 2.9474
-0.0802573 1.05255 2.98964
-0.216896 -0.107032 3.01984
0.750245 0.641421 2.94925
0.218592 1.33441 2.89277
0.942205 -1.57852 3.82593
-0.01683 -0.933248 3.31685
-0.601513 -1.63086 3.42236
-0.150084 0.29588 2.95677
1.12241 -0.0737983 2.85361
-0.728359 0.676287 1.98476
-0.204701 -0.473429 3.14673
-0.32006 0.266759 2.96074
0.0677786 -0.887712 3.2899
0.327432 0.608937 2.97702
0.539682 -1.49271 3.73698
-0.143721 0.660932 3.06036
0.524602 -1.52098 3.67204
1.40309 -0.867427 3.00792
1.23046 0.276122 2.88051
1.34178 -0.483337 2.85899
-0.466675 0.699152 2.01121
1.09841 -0.115864 2.85513
1.7671 0.888418 2.57605
0.672655 0.25196 2.94286
0.337622 -0.907286 3.30434
-0.53886 0.624552 3.07293
-0.952212 -1.40609 3.54019
0.0278761 -0.0759014 3.00008
-0.0515423 1.13726 2.62315
-1.38019 -0.494313 3.24437
0.637568 0.983699 2.91758
0.803971 -1.68529 3.45602
-0.652494 -0.441068 3.1421
-0.838961 0.755407 3.09501
1.18824 -0.0479476 2.80921
0.0446111 1.08857 2.91624
1.39006 -1.32624 3.37523
-0.799127 -0.00733306 3.05178
0.890855 -0.838462 3.18986
0.571675 -0.400509 3.06
-0.622371 0.353645 2.93968
0.426867 0.675128 2.95452
-0.79603 0.684459 1.88429
0.41996 -1.3111 3.49303
1.14765 1.20426 2.72393
-1.28631 -0.801632 3.28408
0.638857 0.311941 2.92928
1.16629 -0.356185 2.90739
-0.784899 0.730852 1.8483
1.83846 -0.149095 2.75774
1.49768 0.704453 2.62426
1.77425 0.987458 2.55699
-0.90559 -0.797171 3.34095
0.0675719 0.424545 2.93165
-1.3923 -1.14101 3.16723
-0.295806 0.0677329 2.98234
1.0949 -0.318933 2.90786
0.159106 0.789857 3.06038
0.351312 -0.734055 3.24416
0.279466 0.381199 2.90763
-0.827717 0.716452 1.85854
0.588458 -1.24376 3.52276
-0.799071 0.0331192 3.06084
0.597176 0.0987031 2.93836
1.36049 0.443182 2.82855
-0.226653 0.874284 3.1112
0.206119 1.1986 2.93655
0.923657 -1.74933 3.71235
-0.670585 -1.12515 3.36089
-1.14879 -0.7067 3.31754
-0.479148 -0.285307 3.06778
0.410093 -0.822007 3.3139
-0.847566 0.398415 2.98421
0.575568 -1.34229 3.57313
-0.270476 0.0302092 2.99831
-0.711113 0.723728 1.8857
-1.46082 -0.407527 3.19917
-0.814248 -0.807558 3.40629
-0.399532 0.357791 2.97345
-1.15705 -1.14241 3.16203
0.716672 -0.0133445 2.95237
1.34414 0.703289 2.75031
1.66749 -0.335112 2.69222
-0.251565 0.749205 3.07527
1.5857 0.975826 2.62105
1.04027 -0.690754 3.05301
-0.112941 0.853692 3.04138
0.299833 -0.333582 3.11126
0.659629 1.18117 2.89161
-1.28828 -1.12021 3.23164
0.922441 0.098906 2.92056
1.63826 0.413325 2.65088
1.65034 0.716657 2.66966
-0.935818 -0.70174 3.27889
0.524809 -0.278537 2.98451
-0.250482 0.0669606 3.01669
-0.807357 -1.60305 3.44705
0.550778 0.428124 2.96277
-0.940931 -1.05619 3.17642
1.09863 -0.231101 2.84934
-0.696844 0.733035 1.8656
-1.44068 -0.614741 3.04716
0.783671 0.881588 2.87744
-0.908706 -1.0916 3.41478
-0.166879 0.554384 3.04839
-0.0693968 -1.59085 3.51711
-0.53158 0.179139 2.95683
-0.329225 0.894969 2.56584
-1.14887 -0.199192 3.08044
-0.792549 0.747866 1.77808
0.376919 -1.75268 3.63138
-0.562848 -0.582633 3.0807
1.0209 -1.04535 3.33094
0.872971 0.133055 2.92623
-0.806471 -1.45213 3.34036
-1.11674 0.502182 2.93364
1.32568 0.201355 2.82061
0.365559 0.881816 2.97854
0.828875 0.553543 2.91103
-0.45206 0.678813 2.10565
0.934682 1.23824 2.78463
0.792473 -1.72384 4.04036
1.03502 -0.976029 3.2551
1.27556 -0.536291 2.94808
-0.862675 -0.159194 3.09855
-0.745874 -1.12921 3.38238
-0.285631 0.504863 2.96796
0.261167 -1.66416 3.57504
-0.976877 0.145029 2.98742
-1.29199 -0.287663 3.19146
-0.745702 0.752392 1.79274
-0.491399 -0.687623 3.22219
0.885107 0.862205 2.91733
-3.40985 1.10839 7.05097
0.59137 -1.09975 3.39372
1.57344 0.0902431 2.76529
-1.4382 -1.4373 3.18643
-0.202517 -0.237988 3.06938
0.438264 1.17999 2.88493
-0.272042 -0.643667 3.20211
1.07055 -0.575891 2.98708
0.822324 0.817294 2.91435
0.673735 -0.199552 2.98011
0.0864609 0.974477 3.01814
-0.518926 -1.47975 3.36903
1.00922 0.557059 2.92364
-0.793234 -1.06338 3.44155
-0.512807 0.220386 2.96654
0.999989 0.880423 2.87745
-0.760991 -0.156514 3.05319
-0.30506 0.898205 1.93697
-0.68109 -0.577159 3.28789
-0.339768 0.178266 2.98058
-1.50522 -1.38454 3.3085
0.0697223 0.536944 2.96489
1.14584 -0.991713 3.30746
-1.30577 -0.114594 3.10074
-0.312794 0.80417 2.0977
1.39424 -0.489516 2.88564
1.79726 0.51225 2.67628
-1.26071 -0.914446 3.25867
-1.28421 -1.31232 3.20706
-0.648817 0.702824 2.20138
1.42397 0.899909 2.68202
0.209443 0.59041 2.92804
1.60981 0.239136 2.8299
1.39542 -1.35336 3.33928
0.268359 -0.90954 3.32363
-1.18474 0.327168 2.98267
0.134661 -0.476854 3.10512
-0.617365 0.699134 3.02468
0.597412 -0.0786521 2.95695
-0.538113 -1.31615 3.40535
-0.0968373 0.291227 2.96523
1.04195 -0.865029 3.28967
0.617939 0.643376 2.99394
-1.07267 -0.435084 3.14009
0.105759 1.06755 2.94817
-1.26544 -0.0421404 3.08051
0.225458 1.05795 3.02321
0.522212 1.29824 2.87685
1.36135 -0.910258 3.0252
1.68139 0.864855 2.57606
-0.738384 -1.47378 3.5016
0.785977 -0.161108 2.99889
-0.226983 0.258388 2.96565
1.27682 -1.88287 3.88944
0.145782 -0.562047 3.1622
0.658961 0.570127 2.97447
0.886827 -0.511634 3.0658
-0.0436097 0.221024 2.94884
-0.274655 -0.111454 2.99527
-0.928415 -1.41514 3.46197
1.74205 0.558146 2.78097
1.38682 0.857458 2.66227
-0.265586 -0.962626 3.40086
1.13731 -0.451681 2.90393
0.694015 1.0411 2.87746
-1.33177 -0.078308 3.13209
0.584781 0.689888 3.00143
-0.695947 -1.3598 3.43066
-0.79272 0.326548 2.99001
0.835759 -0.903205 3.28048
0.559679 1.28743 2.87558
-1.06987 -0.649906 3.28327
-0.255449 -0.0427944 3.04904
-0.362264 0.914314 2.63936
-0.758608 -0.433945 3.12285
0.0954206 0.285177 2.90682
1.2312 -0.828377 3.13399
1.1046 0.618153 2.88574
-0.139538 -1.37692 3.55735
0.62802 1.0127 2.89708
1.34189 1.16598 2.6504
-0.990373 -0.397989 3.13405
0.631391 -0.800142 3.21196
0.881081 -1.38957 3.69353
-0.762932 0.706307 1.89747
1.614 0.646663 2.66924
-0.068437 0.357665 2.97203
0.810622 -0.0139188 2.92307
-1.09096 -1.11142 3.07256
0.135705 0.0661891 2.9476
-0.277526 -0.790473 3.32115
1.55482 0.366956 2.51135
-1.27801 0.786317 2.89602
1.74804 -0.344716 2.74721
1.61034 1.01215 2.55692
0.500367 -1.29796 3.68961
0.467911 0.026921 2.94452
