ply
format ascii 1.0
element vertex 1835
property float x
property float y
property float z
end_header
0.751124 -0.902471 3.27882
1.53938 -1.97916 3.4415
-0.636823 -0.344124 3.0868
0.116249 1.29234 2.85634
1.28276 1.0758 2.70416
-0.182174 -1.21872 3.51373
0.0827879 0.445375 2.93287
0.108571 1.21484 2.86345
-0.0155234 0.844831 2.14855
1.07747 -0.273371 2.85729
-0.720176 0.400425 3.00214
-0.0492588 -1.13196 3.40685
-0.697204 0.524942 3.12498
1.223 -0.250833 2.86067
-0.510046 0.843723 1.89042
-0.165314 -0.0890409 1.13343
1.27886 -1.06143 3.21246
-1.30399 -0.979023 3.18482
0.107849 1.09166 2.72987
0.0626581 -0.217959 3.04849
-0.874292 0.497279 2.9973
-1.01579 -0.0942159 2.95635
0.116849 -1.3228 3.45193
-1.03748 0.344441 3.01295
1.04901 -0.423567 2.95053
1.0226 0.997945 2.79444
0.47345 -1.33538 3.58436
0.365667 0.281137 2.87845
0.762679 -0.398463 3.0317
0.0887898 1.26632 2.28387
1.32655 0.955618 2.73882
1.52005 1.00342 2.63627
-0.0508837 0.536496 1.41062
-0.700334 0.359091 2.98974
1.52253 -0.360341 2.82832
2.33107 0.326888 2.50325
0.778197 -1.26313 3.46652
1.45233 -0.562443 2.88959
1.03704 0.86407 2.81244
2.18079 0.491957 2.59956
0.841864 0.188079 2.89083
2.24493 -1.30136 3.38114
1.32837 -1.6183 3.6574
1.4622 -0.527484 2.84608
0.0990397 0.868515 3.00348
0.110659 0.624186 1.35933
0.395271 -1.50668 3.55221
0.225349 0.153491 2.95939
-1.4061 -0.384258 4.23211
0.0747189 -1.47688 3.60804
0.672096 0.258523 2.86284
2.26015 -0.940998 3.20507
1.16242 0.92421 2.73552
-0.899959 -0.448514 3.19578
-1.16681 -0.561129 3.46494
1.23365 -1.4077 3.47085
1.01099 0.20942 2.86458
2.21635 0.682075 2.76716
1.42929 0.694838 2.69011
-0.381933 -0.50271 3.24492
-1.10389 0.839705 2.53808
-0.517788 -1.27391 3.44913
1.1695 0.343651 2.85476
-0.145175 -0.093055 1.0794
0.0357084 -0.395616 3.09132
0.9899 1.02063 2.76377
0.173163 -1.26219 3.50849
1.31207 0.291658 2.77529
1.21491 1.00068 2.74281
0.444081 -0.37265 3.05986
-0.76572 -1.18103 3.41792
2.32474 0.35313 2.51919
1.53045 -0.329793 2.92019
1.36238 0.3692 2.75673
0.163097 1.27067 2.4309
0.542562 1.10258 2.88736
-0.225446 0.958339 3.02823
0.0441587 -0.567807 3.19447
1.26809 -1.80951 4.11304
-0.247683 -1.47795 3.49802
0.544047 0.217706 2.87531
0.112089 0.719668 1.71545
-0.0434855 0.50067 1.38722
1.51003 -0.475869 2.73971
-0.863643 0.647937 2.0487
-0.548571 -1.45943 3.57677
1.58137 0.164896 2.69028
-2.80108 -1.19936 6.27818
2.43708 -0.230751 2.8967
0.125644 0.285896 2.87919
-0.628572 0.685126 1.96799
-0.20504 -1.40527 3.54347
2.02219 0.388786 2.64017
1.11602 -1.67415 3.54613
1.39574 0.918245 2.69608
1.50532 -1.32428 3.34304
0.055778 0.273497 2.93839
2.52279 -0.0288894 3.04324
1.00291 -0.444569 3.02234
0.0170559 0.108967 2.94108
-0.447641 1.32764 2.95728
-0.884285 0.673155 2.32597
-1.12813 -0.722924 3.4142
-1.33966 -1.46601 3.18908
1.53228 -0.837165 2.91656
-0.586114 0.0880195 3.03737
-0.354471 -0.670472 3.29357
0.966102 0.774079 2.88284
1.19785 -1.59786 3.62401
-0.185782 -1.59769 3.6028
1.22584 -0.538549 2.80062
1.73158 -1.55498 3.3874
-0.563656 0.151411 3.00069
0.780577 -1.46864 3.57306
-0.490384 0.846059 2.90345
0.737396 -1.89136 3.57597
0.970517 -0.0586956 2.89777
-0.895984 0.695537 2.93757
-0.591282 -1.06605 3.47169
-1.1596 -0.845315 3.33289
0.0880219 1.33803 2.88707
1.06539 -0.0287212 2.87385
1.58383 0.587281 2.6746
-0.145978 0.505206 1.40397
0.730836 -0.791504 3.17779
0.990605 1.18795 2.77071
-0.186825 0.0517479 3.01512
-0.831004 -0.642119 3.26865
0.940224 -0.769499 3.21208
-0.415782 0.780256 3.07938
1.86576 0.0190213 2.74005
0.376222 0.728438 3.021
-0.895591 0.0824482 3.06326
-1.22307 -1.58856 3.36442
-1.31606 0.0225229 3.06434
-1.16884 -0.750621 3.36207
1.4881 0.038294 2.2413
-0.14536 -1.39865 3.53534
0.790193 -0.485685 3.06174
-0.0805765 0.495671 1.44828
-0.796384 0.286134 3.02234
2.32763 0.292705 2.50304
-0.417454 0.703178 2.03395
-0.771115 0.69349 1.8637
0.275901 -0.440878 3.06867
0.0552225 0.587608 1.27961
1.26877 0.309069 2.7963
-1.42313 -1.21517 3.11821
-0.751083 0.694396 1.93362
1.10518 -2.31459 3.81765
0.479451 -0.401663 3.03673
1.07517 -1.30316 3.42575
0.858706 0.288047 2.89001
1.62868 -0.596167 2.86851
2.00916 0.438104 2.63655
-0.802383 0.170112 3.03775
-0.314856 -1.6098 3.58318
1.78559 -2.00447 3.4101
0.423851 0.873225 2.9773
1.48005 0.754008 2.62341
0.252858 -1.60795 3.69139
2.39355 0.940706 2.93911
1.6523 0.126471 3.08912
-0.83206 -0.600043 3.27991
1.54721 -2.13459 3.44193
1.67878 -1.32153 3.36387
-0.652336 0.221519 2.98383
-1.25215 -1.37677 3.22891
0.0359612 1.28296 2.87723
-0.252629 0.907075 2.8441
-0.823456 -0.583818 3.33775
-1.06031 -1.33207 3.25406
-1.33659 0.222342 3.02502
-0.541516 1.39629 2.96882
-0.28071 -1.13438 3.48803
0.679878 -0.524625 3.10474
-0.561802 0.668993 2.08825
1.18159 0.686822 2.81178
0.745907 -1.96554 3.56464
0.793721 0.00739803 2.86386
2.46021 -1.49145 4.26526
-0.833175 -0.503132 3.2191
-0.644653 -0.771813 3.33243
-0.376632 0.843114 1.91827
0.895221 0.781138 2.89368
1.25537 -0.686893 2.99857
-0.547946 0.0849462 3.00606
0.942188 -0.663454 3.05303
1.17355 0.705715 2.76862
1.57741 -0.023038 2.84899
-0.596363 0.844044 2.53766
0.656173 0.0425964 2.9189
1.89669 0.418317 2.6437
0.622201 0.603505 2.98859
0.934405 -0.129617 2.91905
-0.287772 -1.68781 3.6282
1.51012 0.141361 2.87197
0.63405 -0.940632 3.28683
1.11841 -0.899353 3.27398
1.22463 -1.52348 3.60581
-1.11618 -0.098362 3.10101
-0.622329 -0.0923777 3.05073
-0.592019 0.581707 3.02139
-0.115298 -0.857763 3.36146
1.4477 -0.0521267 2.8576
0.767155 0.680179 2.95158
0.870345 1.21029 2.79481
1.86879 -0.371007 2.74025
0.776142 -0.794571 3.18828
-0.64218 0.672594 3.06268
1.58435 1.11986 2.5596
1.08465 -0.025641 2.82794
0.54264 -1.46106 3.56191
-0.0238773 0.084103 2.96769
1.42404 -1.40892 3.37551
0.134913 -0.733274 3.24937
-0.360771 0.860219 1.917
-0.487867 0.0458866 3.00116
0.628238 -2.01166 3.56788
0.899579 0.744087 2.89626
0.197352 -0.689254 3.19512
0.707663 -1.59917 3.61238
2.62564 0.00197761 3.80643
1.14816 0.792355 2.80546
0.633099 -1.80159 3.57474
0.570735 0.108076 2.86669
0.403277 -0.629944 3.13036
0.208825 0.821933 3.07603
0.310312 -1.64845 3.63224
-0.0498152 0.720179 3.26208
0.93338 -1.6032 3.68503
0.219347 -0.10024 2.99586
0.501739 -0.899774 3.29576
-0.642544 -0.878429 3.32672
0.064202 -0.0432751 2.98966
1.57359 0.51378 2.4485
0.198928 -1.87784 3.60093
-0.52872 -0.925771 3.5185
-0.963436 0.611797 2.91668
0.479874 -1.50764 3.58461
-0.568435 -0.814776 3.25749
0.593019 0.0130575 2.90525
1.81078 0.594606 2.65057
0.333536 -0.0260663 2.9669
-0.517272 -1.61351 3.43218
-0.637948 0.716709 2.94701
1.47868 -0.701654 2.87943
-0.874875 -0.514269 3.1839
1.89199 0.0012618 2.74327
0.225135 0.703226 3.0441
2.48257 -0.0741107 2.93087
0.127143 -1.03378 3.37895
1.07601 -0.192836 2.82573
0.747438 0.500563 2.9416
1.20503 -1.53525 3.45329
-0.048357 1.19588 2.60632
0.692535 1.2223 2.85015
0.0335233 -0.16253 3.00274
0.350398 -1.77997 3.58398
-1.05025 -0.985063 3.35539
-0.961573 0.590419 2.93923
-0.918013 -0.129748 3.12501
-0.0484796 1.08297 2.68395
-0.311579 -0.943812 3.38062
-0.895722 0.550559 2.95224
0.445894 0.390278 2.88026
-0.989006 0.0731874 3.10398
-1.06695 -0.378658 3.22026
1.20297 1.06131 2.72799
1.54759 -1.19616 3.23623
0.190966 1.08951 2.95628
1.00491 -1.20779 3.39424
0.131977 -0.3336 3.05518
-0.153102 1.15988 2.94812
-0.956211 0.378242 2.94497
0.801956 -1.12238 3.31533
-0.687344 0.488029 3.10095
-0.721198 -0.289495 3.10986
-0.0919941 0.972183 2.25828
0.569036 1.18212 2.90597
-0.385502 0.449404 3.02009
0.380488 -1.10844 3.47025
-0.0726216 -0.134257 0.863315
-0.532344 0.763131 1.88562
0.647005 -0.241808 2.97918
0.287248 1.52823 2.78333
-0.560032 -0.350167 3.07727
-0.229081 0.796596 1.97492
1.69648 -1.09882 3.04733
1.51535 0.380797 2.68817
-0.504598 0.742512 1.90422
0.944201 -0.28917 2.92957
-0.0799779 0.636563 3.02986
1.23015 0.379641 2.8261
0.0801394 -1.14576 3.39036
-0.341956 -1.17706 3.61147
0.317603 0.483787 2.8873
0.0857084 -0.262933 3.06584
-0.183757 0.892009 2.00249
-0.0438577 -0.0775401 0.952945
0.222398 0.462227 2.90357
-0.602775 -1.04566 3.41098
1.53976 -0.218841 2.93486
0.906515 1.12197 2.77719
-0.242935 -0.138411 1.24061
-1.41417 -1.26026 3.23989
-0.401791 -0.46009 3.19761
2.47538 0.0376595 2.94069
0.946059 0.284744 2.90372
0.0576109 1.14196 2.33179
1.13494 0.962432 2.7846
1.63418 0.95486 2.49931
0.874129 -0.405957 3.00369
0.0655452 0.541299 1.23229
0.795211 0.344281 2.95144
1.24496 -1.29191 3.37735
-0.478443 0.727034 1.96882
1.29021 -0.353492 2.84438
-0.0416187 0.325067 2.94556
0.387307 -1.27439 3.49311
0.278261 -0.649866 3.27831
2.42179 0.567796 2.75407
1.55721 0.173663 2.81452
-0.300375 -1.66145 3.7658
1.61614 -1.89049 3.43847
1.1085 0.866049 2.80991
0.906632 0.845633 2.91036
1.0868 -1.75891 3.72342
-0.0241909 0.533643 1.29635
-0.605505 0.1575 3.01963
-0.680414 -1.44286 3.40705
1.34337 -0.551684 2.9338
1.27401 -2.35832 3.89227
0.788156 0.261164 2.88389
-0.668185 -1.40167 3.44913
-1.07185 -0.694335 3.34656
-0.323074 -1.07973 3.48133
1.70686 -0.483724 2.73023
1.13619 0.917355 2.7463
0.246769 -1.43254 3.58438
-1.19167 0.248799 3.1191
2.61606 0.917467 2.90245
1.40422 -1.0527 3.20766
0.822851 -0.491124 3.04447
1.62974 0.84007 2.56724
1.23874 0.932728 2.73596
1.09258 -0.710909 3.07233
2.43072 -1.14053 4.09711
1.18519 0.0250118 2.81782
0.566723 -1.50224 3.58016
-1.16632 0.790816 2.98415
-0.989741 -0.534003 3.20352
2.18288 -1.49893 4.1468
-0.805786 0.854851 2.96734
-1.00932 -0.75344 3.40956
0.319197 0.11691 2.93723
-1.16702 0.838398 3.01831
-0.772036 -0.67556 3.36629
0.910835 1.28653 2.78964
-1.30681 0.0965779 3.0419
-0.187508 -1.71942 3.74062
0.14201 0.573777 1.30999
0.792359 0.925557 2.90341
-0.342032 -0.591371 3.29041
2.15928 -0.372143 3.27839
0.483111 0.21002 2.87188
-0.928438 -1.46775 3.4404
-0.196201 -0.526346 3.1734
-0.922169 0.659169 2.08947
0.0988287 0.610626 1.49815
1.4101 -1.53293 3.67421
1.74926 0.177159 2.74889
-0.31028 -0.504929 3.20685
-0.678885 0.295748 3.06428
1.25476 -2.11388 3.49047
-0.750658 -1.39543 3.5068
1.58816 0.886866 2.53045
1.7615 -1.91214 3.67961
0.133688 -1.35559 3.48084
-0.83302 0.27721 2.97627
0.455754 0.963971 2.94101
1.60079 -1.87785 3.43823
-1.06855 -1.65082 3.48329
-1.38332 -0.464657 3.18769
-0.795308 0.117511 3.07001
2.12943 0.522402 2.60224
0.907033 -0.678549 3.08743
1.54083 0.739319 2.62661
0.599452 0.0710459 2.89459
-0.90727 -1.53963 3.37534
1.20239 -1.59199 3.48414
0.628041 0.801219 3.00067
0.800201 -0.64128 3.14132
-0.672887 0.88342 2.95039
2.17739 1.11469 2.89259
-0.126422 0.885214 3.07295
0.103394 0.581329 2.98878
0.522106 0.132458 2.85338
0.130189 0.615511 3.00271
-0.067076 -0.616459 3.19039
1.57411 -0.0132475 2.85024
-1.13853 -1.40165 3.20178
0.539543 0.667663 2.95481
0.011209 1.24793 2.65232
0.706927 -0.038073 2.87998
0.736782 -0.858497 3.2528
-1.30294 0.637163 2.86804
-0.373894 -1.44754 3.54141
1.9511 -0.0323651 2.98128
2.53078 0.219472 3.67073
0.11177 -0.830105 3.29595
0.823823 -2.10674 3.55001
-0.868762 0.167011 3.03747
-0.450497 -0.803089 3.36121
0.703067 0.0422136 2.91592
1.91458 0.218232 2.73522
1.0269 0.729505 2.84428
-0.947581 0.280024 3.03624
0.0686299 0.0263838 2.95701
1.6172 -1.07415 2.95417
-0.118569 0.704327 2.9701
0.389248 -0.740477 3.22589
-0.750948 -0.987155 3.32768
1.22115 -1.38914 3.42773
-0.775629 -0.175515 3.07672
-0.835754 -0.96579 3.4412
1.07755 0.520094 2.89704
0.160563 1.42286 2.71302
-0.340917 0.851524 1.92855
1.78323 0.828047 2.55813
-0.497945 -0.14753 3.11686
-0.470152 0.619518 3.05631
-0.477575 -1.02375 3.44591
0.0740881 -0.102861 2.98989
0.621633 1.25892 2.86755
-0.759025 -0.992164 3.59628
-0.0162943 0.601473 3.07265
2.47135 0.829876 2.88181
0.399062 -1.64049 3.51545
-1.42506 -1.50169 3.26297
1.06372 0.137584 2.78763
0.771574 -0.637434 3.14035
1.32656 0.798485 2.69493
1.33865 -2.0746 3.46577
-0.950581 0.124554 3.0775
0.387316 -1.56235 3.578
1.83849 -0.97249 3.22885
-0.545005 -0.631121 3.30374
-0.843541 0.669601 2.3312
1.1486 -1.61421 3.72828
-0.181799 0.235683 2.9898
-1.17261 -1.14863 3.3878
-0.891375 -0.569559 3.23004
1.55763 0.842028 2.59359
2.19094 -1.0593 3.28916
2.14333 -0.146862 2.91258
1.26649 -1.52025 3.63384
0.429729 0.183703 2.89857
-0.672926 0.889708 2.95045
-0.271747 -0.531129 3.17417
1.53943 0.805221 2.59404
2.23422 -1.02672 3.20953
0.685731 -1.8478 3.58322
-0.731751 0.740135 2.9933
2.69525 -1.25448 4.28497
-1.11724 0.0266377 3.06717
0.971934 -1.5552 3.52171
-1.11624 0.727734 3.03606
-0.179985 1.08846 2.8829
-0.580889 -0.77422 3.28582
1.57858 -0.69133 2.93427
-1.04018 0.78379 2.81556
0.135365 0.636786 3.01762
1.1158 0.0776076 2.82258
1.54735 -0.0184434 2.80029
-0.199587 0.779191 3.0754
0.32269 -0.700958 3.21873
1.83533 -0.501612 2.77798
1.33158 0.0308945 2.74006
1.94339 0.638939 2.60415
0.36452 -0.966222 3.37563
-1.18397 0.612833 2.91705
1.87333 0.306199 2.67731
1.51703 -0.131274 2.78314
0.565161 1.51032 2.86617
-0.353364 -0.920496 3.41832
-0.735932 0.606335 3.09671
0.183238 -0.0836842 3.00832
1.33601 1.20246 2.64947
1.65457 -0.764986 2.84332
-0.895535 -0.0509721 3.11404
0.150044 -0.0654768 2.95555
0.200019 -0.820829 3.31583
-0.916891 0.754175 2.58566
1.28503 0.603423 2.76856
0.819074 -1.51263 3.55833
0.253628 -0.0253941 2.97451
1.65516 -0.292483 2.9221
-0.514512 0.774606 1.85322
0.934775 -1.16882 3.44257
1.6388 0.467567 2.83644
1.80487 -0.743154 3.01082
0.444639 -0.243954 2.99728
1.6556 1.02704 2.53683
-0.386009 -0.973599 3.41141
1.60846 0.387797 2.63417
-0.800662 -1.06283 3.35243
1.16823 -0.201055 2.78196
-0.563644 0.827969 1.88046
-0.983654 0.0584034 3.10562
-0.106249 -1.06236 3.44524
0.347453 0.524905 2.90384
0.238125 -0.172439 3.00234
0.0751563 1.28343 2.88089
-0.177283 1.13649 2.95897
-0.181237 -1.00013 3.3666
0.431203 0.485727 2.87959
-0.308321 -0.0837502 3.0318
1.6488 -1.06698 2.94957
1.24835 -0.834609 3.01591
0.192886 0.679219 3.07485
-0.63284 0.830894 2.52371
1.24284 -0.796347 2.99931
0.13039 0.614864 3.00898
1.29871 -0.0608086 2.6674
0.873186 0.595509 2.92664
-0.704499 0.555924 3.05071
1.57074 -0.724677 2.81845
1.31001 0.00262912 2.71991
0.0364645 1.28132 2.72855
-0.810628 -0.0210662 3.10434
1.2985 0.671426 2.76025
1.79259 0.586947 2.6608
1.88826 0.289748 2.712
0.748149 -0.753537 3.18212
-0.831317 -0.488996 3.18332
0.193834 0.715015 3.1325
-0.255288 0.912715 1.9714
-0.485473 -0.874869 3.34319
1.08694 0.491346 2.87632
0.712205 -0.224172 2.98023
1.82529 -0.212469 2.82509
-1.30509 -1.00151 3.2345
-0.578834 -0.177088 3.14168
0.647458 1.26109 2.85941
0.39748 -1.00969 3.44089
1.52341 0.518858 2.68764
0.118667 0.169564 2.95772
0.123544 -0.132252 2.97832
-0.726687 0.586216 3.17504
1.37492 -2.07879 3.51284
-0.389948 -0.985613 3.45702
-0.936515 -0.391934 3.1987
-0.167972 0.389549 2.94739
-0.982379 0.0613187 3.10551
-0.887332 -1.22726 3.43128
0.225435 1.11036 2.95281
-0.166241 1.1546 2.95324
-1.29747 -1.10322 3.16516
-0.0313772 -0.33566 3.09297
0.382741 1.07278 2.91283
-1.13864 0.381016 2.99083
1.38165 -1.23767 3.65879
0.120777 1.23924 2.43547
0.421618 0.460276 2.90691
-1.36744 -0.297174 3.08411
1.03425 1.12547 2.73262
-0.0477856 -0.144565 0.803017
0.377133 0.432483 2.91598
0.875436 -1.14234 3.49975
-1.3353 -0.265718 3.13737
0.963332 0.950453 2.83582
0.866659 1.0878 2.77226
-0.00655706 0.523508 1.44936
1.38493 0.244971 2.82026
-0.620947 -0.528436 3.36419
2.05891 0.889513 2.83768
-1.06373 -1.34244 3.40264
0.555372 -0.448745 3.0871
0.206657 1.05643 2.97549
-0.0479608 -1.38375 3.57079
-0.867773 0.339134 2.98462
0.0878475 -1.87318 4.32861
-0.35911 -0.417606 3.1913
-0.584649 0.684455 1.94567
-0.016113 0.563016 1.22706
-1.37164 -1.24829 3.33704
1.26722 0.275941 2.82072
0.579463 0.987629 2.89169
0.0325462 0.68545 1.37016
0.22169 0.287252 2.90454
0.187469 -0.458467 3.0899
0.090226 1.31671 2.24038
-0.275917 -1.3749 3.55727
0.582334 -0.411583 3.06031
-0.56778 0.730849 1.92934
0.0529137 -1.29561 3.4763
-0.302235 0.346176 2.95347
-0.778549 -0.384682 3.12672
0.540575 1.02937 2.92821
0.0302641 0.599678 1.57951
-0.190182 -1.31073 3.60447
1.24725 0.296068 2.81729
-0.678649 -0.647888 3.34606
1.42718 0.177824 2.78279
1.89015 0.193729 2.82553
-0.184108 -1.67265 3.74671
-0.433392 0.901844 2.88497
2.15862 -0.217981 2.95221
1.32107 -1.5383 3.52338
2.36677 0.814361 2.90407
0.553431 0.133635 2.86955
-1.41657 -0.63871 3.4619
1.55369 0.771352 2.60536
-0.923955 0.274327 2.96261
-0.567589 0.441116 3.0119
-0.783284 -1.46855 3.59958
-0.0389067 1.37039 2.89125
1.83953 -0.514003 2.92299
1.20598 -1.58865 3.48352
-0.635005 0.680572 2.01382
0.163946 -1.4481 3.62183
0.77078 0.208981 2.8625
1.78288 -0.284675 2.72738
-0.0741514 -0.503955 3.153
-0.629268 0.67028 2.03385
1.97277 -0.647795 2.98232
2.05354 -0.817605 3.08235
1.68781 0.658592 2.56562
0.624981 0.0327717 2.92408
2.18277 1.0715 2.92314
0.610137 1.59443 2.86333
-1.48262 -0.734469 3.15152
-0.981502 -1.33448 3.43825
-0.0194016 0.838097 3.06714
1.58159 -0.64444 2.95524
1.2975 0.0979704 2.77819
1.43446 -0.626912 2.94492
-0.569947 0.78199 2.94121
-0.525819 -1.58615 3.48079
0.721215 -1.56707 3.5841
1.64185 0.0694504 3.10981
1.36869 -1.55552 3.37256
-0.627194 -0.935747 3.37207
1.91306 0.0543196 2.64831
-0.94122 -0.299057 3.12302
1.00753 -0.0955718 2.89947
0.682786 0.625857 2.98389
-0.966961 -1.58674 3.34174
0.340353 -0.859232 3.2946
0.696271 0.592906 2.96458
0.0172193 1.27783 2.88544
-0.373062 -0.069029 3.00451
0.0718966 -1.70623 3.54956
-0.425237 0.00695215 3.00727
-0.509208 0.719331 1.96062
-1.21033 -0.842061 3.38003
-1.00499 0.724173 2.89857
0.906117 -1.67822 3.61942
0.0870354 -0.0275363 2.98364
-0.0494351 -0.774002 3.28997
1.91376 0.182605 2.74631
-0.370223 0.684299 3.06435
-0.723296 0.464132 3.03935
1.55929 -1.44658 3.30747
1.27038 -0.642091 2.8657
-0.467056 -1.04632 3.52866
0.570787 0.0800128 2.90615
1.25012 -1.91191 3.51481
-0.67789 0.807047 2.96468
-0.967283 -0.612129 3.32264
2.23317 1.00823 2.98867
1.34977 -0.608224 2.87865
0.263288 0.89715 3.07571
0.712868 -2.08707 3.55382
-1.22349 -1.57321 3.42197
-0.480047 0.131054 3.00791
1.68823 -0.570249 2.83149
1.39309 0.747341 2.68164
-0.362541 0.110845 2.96148
-1.07352 -1.4722 3.33306
-0.77774 -0.0593558 3.06247
-0.915741 0.777072 2.80796
-0.0152915 -0.883851 3.3657
1.1963 0.636151 2.84349
-0.847003 -0.317025 3.10979
1.5668 -0.746167 2.91291
-0.810882 0.667031 3.05274
1.99377 0.00570093 2.62489
1.67323 -0.0409428 2.7006
1.83013 0.390974 2.8185
-0.68787 -0.786595 3.35945
0.151323 0.0359687 2.94193
0.743703 0.738682 2.9344
1.05524 0.715516 2.83551
-0.803967 -0.892528 3.37982
0.100074 1.32366 2.88292
-0.138901 -0.737533 3.26472
0.974859 -0.00292455 2.85595
0.0669862 -1.67082 3.55727
1.16351 0.686753 2.82872
-0.621225 0.421467 3.03009
0.729143 -0.992327 3.30587
-0.853575 0.0439705 3.08379
0.613452 -0.183867 2.97823
1.99 0.176191 2.91141
1.61101 0.467975 2.59417
1.75212 0.819039 2.56456
-0.714834 0.871725 1.86062
0.456223 -0.142 2.96518
0.0668665 -0.959455 3.3404
1.63173 0.538406 2.6761
-0.774044 0.699434 2.29267
2.33834 0.0218579 2.92338
-1.38208 -0.0998756 3.11506
-1.0756 -0.899843 3.35527
0.148311 0.545265 2.94046
0.795232 0.423613 2.91308
-0.742565 0.158473 2.68027
-0.185182 -0.339354 3.12248
-0.260244 -1.24124 3.55738
1.12853 1.06975 2.7032
-0.163981 -1.09194 3.26914
1.04821 1.04512 2.76543
0.00456464 -0.285809 3.06491
0.694216 1.39586 2.84973
0.507821 0.384279 2.8771
-0.606793 -1.10317 3.3847
-0.0717205 0.507439 2.97229
1.37976 -0.252652 2.83802
0.203205 1.32469 2.73387
-0.383508 0.721932 2.10708
1.04688 0.457564 2.88744
1.13927 -1.05867 3.35652
-1.08819 -0.106496 3.12902
-0.894076 0.811342 1.96059
0.10176 -0.218706 3.03436
0.808104 0.69928 2.94596
0.234671 -0.0293622 2.99998
1.85202 -0.275447 2.79419
1.80008 -2.09056 4.54635
-1.40138 -0.804898 3.20753
1.64869 0.0102607 2.77794
-0.546366 0.680569 3.0208
0.784132 -1.447 3.41178
1.07656 -0.748012 3.08432
1.46679 -1.39114 3.34367
-1.01514 -0.762205 3.35869
-0.711448 0.0925605 3.04853
1.77976 0.329115 2.81296
-0.947568 0.786848 2.83595
1.52809 -0.031583 2.25804
1.27531 0.715649 2.76096
-0.330411 -1.33523 3.54181
-0.922717 0.748529 2.71925
-0.622901 0.0464623 3.06034
-0.807531 -0.728297 3.41938
1.4795 -0.86592 2.94899
1.90936 0.242066 2.70613
1.185 0.570909 2.84554
-1.29193 -0.13847 3.10228
-0.323222 -1.66525 3.51527
0.305023 0.553648 2.92693
0.464191 -2.36342 3.56535
1.08311 -0.960643 3.41846
-0.40008 0.757412 2.07543
-1.33976 -0.0973123 3.22966
-0.264057 -0.868513 3.34512
-0.661918 -0.0613117 3.05584
1.48038 -1.40413 3.34438
1.74601 0.845383 2.55465
0.949916 -1.63445 3.61452
1.17409 0.611656 2.85773
-0.902765 -0.301512 3.14313
-0.388859 0.782165 1.90483
0.198302 -1.2297 3.57518
0.869674 0.453953 2.89937
0.184197 -1.28124 3.54692
1.25649 1.08756 2.72035
1.53372 -0.266209 2.94285
0.191896 0.433963 2.90881
-0.445987 -1.11763 3.45183
1.72668 0.438064 2.70271
-1.06286 0.553962 2.99191
0.857835 -0.218573 2.99608
-0.130546 1.19689 2.83933
-0.427071 0.898959 2.65707
0.665706 -1.0599 3.36572
-1.28906 -0.949503 3.20375
-0.749792 0.676347 2.06743
1.08048 -0.175572 2.84523
1.34005 0.492234 2.79837
-0.556669 0.734116 3.07007
-1.48316 -1.2068 3.17723
-0.038454 0.362083 2.95568
-0.706532 -0.43434 3.20712
1.04472 1.01091 2.75505
1.5693 -1.26655 3.39765
1.47213 0.29514 2.7453
0.87259 -0.360148 3.01211
0.163845 0.83746 1.77761
-0.101527 0.957716 2.55827
1.44267 1.00601 2.58403
2.72195 0.887604 2.82048
0.965478 0.381679 2.90196
-1.27445 -0.356132 3.1706
0.0843583 1.14884 2.27794
0.658031 -1.17678 3.31519
-0.746627 -0.250058 3.0459
-0.688678 0.687041 1.96447
1.97047 -1.09272 3.37502
0.5785 0.490129 2.93804
0.60536 -0.220746 2.94038
-0.611208 0.759243 1.86665
2.05499 0.28547 2.89373
1.38498 0.484049 3.04974
-0.938001 -1.08457 3.51164
0.41123 1.3178 2.90576
-1.29305 -0.181898 3.12582
0.014165 -0.109054 0.6899
0.860517 -0.973928 3.22204
0.719194 0.54309 2.92686
-0.566352 -0.138115 3.08987
-0.409925 0.895206 1.91591
0.0795698 1.22338 2.70213
-1.07239 -0.982802 3.4637
0.750681 0.525777 2.948
-0.958801 0.408416 2.94952
0.161036 1.5106 2.75288
0.208862 -1.30284 3.58045
0.349373 1.1012 2.91515
-0.193468 -0.373776 3.10918
0.754118 0.343831 2.92124
-0.627002 -1.16693 3.36451
-0.0763404 0.916668 2.37899
1.12432 -0.322941 2.89964
0.136758 1.27562 2.32274
-0.962377 -1.12543 3.36832
-1.22517 -0.302613 3.1612
-0.228379 -1.09478 3.39836
-0.0382886 0.444362 2.96277
-0.290218 -0.0220302 1.49888
-0.398413 0.771284 1.92177
-0.211159 0.96907 2.89987
0.481678 -0.542827 3.16509
0.289446 -1.557 3.74514
-0.150535 0.262714 2.96306
0.0454907 0.539182 1.34517
1.50201 -0.462826 2.83198
0.324609 0.957314 3.02839
0.991672 -1.5359 3.76872
-0.801109 0.231671 2.98481
0.799988 -0.442632 3.04962
0.00894515 0.572697 1.30083
-0.360596 0.740499 2.01194
2.28627 0.13815 2.97532
0.974977 -1.40092 3.54569
1.14155 -1.65432 3.54029
0.138839 0.309854 2.89494
1.15778 -0.389552 2.86683
-1.2529 -0.354956 3.93368
0.915538 0.953723 2.8148
0.394156 -1.3114 3.47325
1.81263 0.27603 2.7715
2.06649 0.600486 2.65346
2.00933 0.37252 2.76192
1.5168 0.146963 2.86714
1.09015 -1.76356 3.79159
1.40048 0.785281 2.64955
-0.00627613 -0.664551 3.23762
1.05465 -1.58009 3.56866
-0.327233 -1.09386 3.49564
0.617555 0.0978612 2.88199
-1.27778 -0.64144 3.31891
0.0408245 0.836712 3.03813
0.417301 -1.50049 3.52255
1.6616 0.6156 2.6424
-1.40148 -0.603882 3.3053
1.91976 0.300566 2.8472
-0.879256 0.196622 3.03982
-0.293716 1.40985 2.92508
-0.54747 0.671654 2.15701
1.27566 -2.44125 3.47042
0.422187 -1.60848 3.61667
0.560274 0.168487 2.87075
2.09668 0.296625 2.75568
1.21034 0.831374 2.73786
-1.13676 -0.646782 3.28527
2.28399 -1.17023 3.28403
1.58694 0.125669 2.72663
1.26291 -1.66972 3.49696
1.18714 -1.57966 3.63996
1.2421 -0.563131 3.03037
-0.251096 0.848571 3.01871
0.354212 -1.47104 3.56636
-0.404846 0.982995 2.96066
1.69794 -0.501659 2.81355
0.783919 1.43603 2.83961
1.49563 0.200093 2.78303
-0.286993 -1.41166 3.53474
2.26263 0.24428 2.75094
-0.691174 0.664553 2.0312
2.11162 -0.434184 2.80878
0.860329 -2.21522 3.54143
-0.360381 0.752439 3.03581
0.133949 -0.791591 3.24284
2.39269 -1.53775 4.4418
-0.89133 0.0443609 3.07497
0.840417 0.692782 2.89384
-0.230226 -0.778211 3.33853
-0.983246 -1.10319 3.40953
1.11625 -0.00892614 2.80919
0.748588 -1.808 3.57285
0.538269 -0.712894 3.24507
0.0850141 0.828671 3.04664
-0.867735 -0.309055 3.11476
1.46694 0.0972105 2.93733
-0.899855 0.775997 2.67336
-0.45976 0.793836 3.09151
1.5469 -0.605601 2.86566
-0.84806 -0.315926 3.11038
1.79607 0.071234 2.8296
0.0319647 -1.65139 3.61087
1.92131 -0.0495115 2.64065
-0.215713 -0.941868 3.41773
-0.164915 0.910843 1.95835
-0.0235173 -0.106199 3.00377
-0.00891873 0.827615 3.736
-0.708851 0.552018 3.04097
0.251163 0.5923 2.94306
-0.329296 -0.876838 3.3874
1.40455 -0.0660135 2.8311
0.38197 -0.833703 3.31377
1.76801 1.04687 2.55561
-0.911227 -0.0279815 3.1016
1.81548 -0.747968 3.03579
1.80052 0.892385 2.53769
1.48858 -2.21444 3.48278
0.81129 0.654227 2.91548
1.16889 -0.243427 2.86681
-0.763078 -0.666088 3.26942
-0.732385 0.687928 1.97572
-0.425807 -1.17225 3.58409
1.47307 0.46789 2.76797
-0.688166 0.757374 1.8391
0.401925 -0.215701 3.05191
-1.03732 -1.02005 3.26772
-0.582454 0.482022 3.00542
-0.859754 -0.45716 3.17901
-0.703945 0.594591 3.18995
-0.650779 -0.189163 3.09407
-0.873048 0.225118 3.04006
1.44771 1.15463 2.59903
0.503674 -1.01296 3.37379
0.25325 -1.00785 3.511
-0.467409 0.83472 1.89963
0.831752 -0.146311 2.93887
0.771533 0.514323 2.95367
0.314558 -1.6909 3.5916
0.764039 -1.63589 3.74938
0.0963136 -0.0656188 2.96118
-1.2583 -0.839177 3.17731
0.953291 0.650887 2.91227
1.47937 -0.74533 2.89278
-0.986417 0.235092 2.99431
0.320331 -1.92395 3.59813
-0.946124 -0.0285783 3.08275
0.141846 -1.6757 3.59533
1.69297 0.577801 2.67202
-1.07126 0.04377 3.01083
-0.488793 0.714141 1.98687
-0.943131 -0.790824 3.35021
0.198847 0.768912 3.08255
-1.01782 0.365174 3.02774
0.511505 0.00687017 2.95775
-1.4064 -0.757761 3.2587
-0.0979728 0.950685 2.03509
0.298996 0.735905 3.038
-0.946581 -0.0718949 3.09866
-0.106224 -1.41982 3.54996
0.0113534 1.22462 2.80178
-0.0481804 0.53044 3.00449
0.865201 -0.186061 2.98257
-0.772834 0.162066 3.04026
-1.49506 -0.99237 3.26894
1.72522 0.758463 2.58501
1.05227 -0.149068 2.85552
-0.191149 -0.959681 3.37147
0.366513 0.584297 3.00587
1.92023 -0.552677 2.92018
-0.111703 -0.118134 3.07653
1.72428 0.508951 2.65064
0.379686 1.22745 2.91625
0.393814 -0.905462 3.26802
0.219064 0.421768 2.9157
0.379174 -1.27225 3.58266
-0.163112 -0.354659 3.10945
1.36446 1.03385 2.61016
-0.677483 -0.101577 2.15955
-0.890572 0.403001 2.94838
-0.473656 -1.20939 3.55497
0.568807 1.38511 2.86364
1.35117 1.00572 2.60142
-0.0436507 -0.306766 3.09289
0.327296 1.48954 2.70041
-0.855197 -1.07911 3.34765
1.03832 0.479168 2.9118
0.58731 -0.276711 2.98007
-0.308641 0.798527 1.88363
-0.205559 1.13752 2.95333
-0.460791 0.478298 3.02497
-1.18067 -1.01658 3.30085
-0.828511 -0.23888 3.14252
0.39514 1.1402 2.86345
-0.798872 0.691624 1.95947
-2.09127 -0.767686 4.60077
1.11744 0.26324 2.80499
0.0827789 0.76343 1.54832
-1.14981 -0.469419 3.13971
-0.533933 0.695571 2.04281
-0.00481165 -1.43121 3.68911
1.07212 0.240836 2.87694
-0.239493 -1.21168 3.51568
-0.686248 -0.432497 3.24505
1.02177 -2.18687 4.10358
0.422107 1.04652 2.86895
2.43446 0.834369 2.8975
1.06048 -1.30155 3.38086
-1.33036 0.3759 3.00307
1.66916 -0.367927 2.756
1.47741 0.932538 2.5934
-1.53469 -1.23503 3.33275
2.30202 1.02914 2.98031
0.789119 0.29616 2.9227
1.08729 -0.975438 3.30304
0.958937 0.578909 2.91415
-0.165508 -0.138563 3.06925
0.158459 -0.933069 3.32817
-0.492976 0.570877 3.05123
0.751293 1.3867 2.84348
-0.845778 -0.108753 3.08714
0.581811 1.27425 2.87106
-0.918793 0.775648 2.79802
0.233283 0.663161 3.13534
-0.785666 -0.566659 3.23781
0.862035 -0.0889062 2.92131
-0.483368 0.806728 2.42395
-1.21793 -0.872987 3.3448
1.78785 -0.208325 2.75654
0.625904 1.34604 2.86146
1.31332 -0.283045 2.80954
0.493717 1.14411 2.89381
0.263977 -1.22106 3.57335
0.724693 0.463079 2.93209
0.800758 -0.262849 2.98753
-0.314733 0.784313 1.94953
-0.320267 0.433669 2.99552
-1.46691 -1.05409 3.19644
0.383529 -1.06702 3.40993
1.25277 0.497982 2.81581
1.77003 0.32624 2.80076
1.78962 -0.218062 2.76534
-0.568366 0.853002 1.88067
0.139544 1.41607 2.66845
-1.42098 -0.965616 3.21573
-0.913704 0.512405 2.96231
-0.493188 -0.176217 3.0671
-0.413423 0.899507 2.65593
-0.676912 -0.101997 2.15947
-1.27258 -1.25058 3.31785
-0.96134 0.0383446 3.09987
-0.817377 -0.428888 3.21227
-0.789813 -1.25765 3.46655
0.690311 0.304386 2.89841
0.244519 1.3857 2.79563
-0.400807 0.731203 1.99746
0.136384 1.09058 2.90689
1.82911 -0.362745 2.82793
2.51539 -0.942174 3.15643
0.697557 0.375343 2.90177
1.54376 0.943774 2.47698
-1.06224 -0.358512 3.23832
1.1378 0.334591 2.86149
1.66514 -1.12756 3.11728
0.456836 -0.584521 3.1683
0.882425 0.906117 2.88289
2.18929 0.345361 2.62241
-0.181056 -1.46342 3.37539
-0.40686 0.218917 3.04633
1.10655 -2.41338 3.86754
0.439289 -0.539564 3.15728
0.221207 0.883633 2.98277
-0.0960856 0.461409 1.42334
1.33457 -1.50851 3.57809
0.57726 0.168919 2.85705
-0.515998 -1.46085 3.65783
0.309809 0.280492 2.90803
1.37703 -2.07209 3.49298
2.15312 0.265378 2.64451
1.54442 0.905618 2.60096
-0.493784 -0.490097 3.13445
-0.804516 -1.32339 3.43592
0.936467 0.251673 2.88697
2.11318 -0.186086 2.946
0.357047 -0.45875 3.08446
0.419846 0.989816 2.97624
2.30874 0.544626 2.68843
1.05035 -1.30512 3.49422
-0.484344 0.388603 2.99469
1.36063 -0.363649 2.85391
-0.483812 0.751168 1.93168
-0.329123 -1.23863 3.49743
-0.929901 0.362805 2.94105
0.701685 1.04229 2.84939
0.180344 -0.349339 3.0546
0.116839 1.44739 2.67305
-0.710766 0.726115 1.81526
-0.955603 0.0294125 3.09134
1.40382 -1.10122 3.16873
-0.541359 -0.315061 3.11112
-0.591703 -0.971825 3.46357
-0.41839 0.43441 2.98715
0.0145062 0.961652 2.95615
0.823348 -0.523462 3.08409
-1.30299 0.281076 3.02212
-0.85835 -1.44419 3.52778
1.89904 0.417632 2.64712
-0.794791 -0.483731 3.0778
0.122936 0.960917 3.03791
2.67567 -2.00378 3.66098
-1.2536 -1.33489 3.37454
-1.20164 0.232711 2.97583
-0.714028 -0.4764 3.25355
1.72746 0.289037 2.75777
2.08912 -0.146659 2.92411
-1.22386 -1.29099 3.36285
-0.617105 0.695417 1.95001
1.95704 0.0602638 3.01465
1.04368 -2.2407 3.85489
-0.578082 -1.29314 3.43615
-1.03526 0.305048 3.00146
-0.27901 0.749125 2.11718
1.94639 0.493153 2.6396
0.961661 -0.409731 3.01147
1.24262 -1.657 3.56793
1.30616 0.127428 2.79031
-0.130387 -0.668798 3.26467
-0.690388 -1.55283 3.25848
0.586648 0.849873 2.94925
0.786427 0.0969077 2.90335
-0.929195 -1.50556 3.40404
1.03032 -1.76815 3.56577
1.07411 -0.600554 3.03298
0.354958 0.822571 3.00937
2.02935 0.473667 2.61956
-0.634492 1.13515 2.85884
1.50396 0.79567 2.58911
2.16824 -0.0317587 2.92421
-0.61601 0.175818 3.01822
-0.316993 1.41548 2.94107
-1.39685 -0.591242 3.20202
-2.30699 -2.44226 5.48962
-0.354914 -0.850812 3.34093
0.601876 -0.0351869 2.92544
-0.337918 0.770355 3.19209
-1.02366 0.107335 3.06342
-1.34986 -0.809769 3.19532
-0.724389 0.00846236 3.05903
0.521734 -2.0723 3.57414
2.14383 1.00579 3.04584
-1.00256 0.681248 2.9059
0.116762 0.606869 3.00066
0.517897 -0.786526 3.22859
-0.582692 -0.920903 3.35924
0.367837 0.0757405 2.92996
0.241341 -0.748068 3.27776
0.697178 0.772699 2.93974
0.0454329 1.32001 2.85232
0.450199 -1.85457 3.58414
1.20675 0.0160578 2.79161
0.863123 0.733571 2.91764
0.836677 -0.685593 3.15218
-0.233683 1.00447 2.74478
-0.315962 0.728207 3.00281
1.79925 -0.563042 2.84832
0.101429 -0.795774 3.27851
0.350906 0.0244172 2.95778
-0.279432 0.568599 1.83388
0.405198 0.716837 3.04155
-1.11805 -1.03136 3.33893
1.0383 -0.72819 3.09197
1.69818 -0.0114084 3.10886
-0.0507011 -0.702263 3.27542
1.01834 0.0815238 2.82897
-1.10335 -0.103897 3.14015
1.92402 -0.164813 2.89422
0.164493 0.814505 3.02671
1.37875 0.194669 2.01439
1.55541 0.694801 2.61812
-0.844097 -1.59814 3.44969
0.468537 -1.5507 3.58369
1.85861 -0.283234 2.72602
0.88656 0.0541554 2.90126
-0.99668 -0.685964 3.31314
1.48076 0.569674 2.66168
0.713847 -0.921671 3.27311
0.618351 -0.118509 2.96626
0.575185 -1.77194 3.72997
-0.940773 -0.886402 3.36133
1.39795 0.534078 2.6938
-0.995265 0.262812 3.054
-0.589394 -0.0819173 3.07091
1.77005 -1.05298 2.99442
1.20424 1.24161 2.72863
0.0977176 0.668026 3.00394
0.257664 1.63302 2.79039
1.27714 -0.0537952 2.79958
-0.97316 -1.35311 3.41087
0.569121 -0.850088 3.32343
-0.0551108 0.00663549 0.839365
-0.0390675 -0.254963 3.06909
-0.56364 0.777648 1.84839
0.688986 -1.12833 3.41755
-0.819362 0.521573 3.05848
0.590476 -1.75224 3.65196
-0.660201 -0.239863 3.11824
0.300052 1.15711 2.93165
0.649185 0.452821 2.90799
1.24342 -1.022 3.1957
1.88884 -1.8662 3.41727
-0.914603 0.624577 3.23344
-0.186404 -0.193471 3.05548
1.27913 1.20423 2.69268
-0.855185 -1.0302 3.42976
-0.0142969 -0.0959905 0.798338
0.461694 -0.994934 3.41874
0.921964 0.516479 2.88756
1.44998 -0.150206 2.76999
0.000739425 1.23032 2.72951
-0.178555 1.14972 2.96055
-1.16069 -1.1756 3.26927
-1.00723 0.395383 2.91775
-1.3304 -0.39815 3.1872
0.057241 1.09738 2.92999
0.43773 -1.25624 3.52689
-1.38763 0.370538 3.00213
-1.1045 -0.216036 3.12058
-0.54373 0.734232 1.95064
0.298598 -0.360583 3.0792
0.899106 1.07119 2.76233
0.0716967 0.615939 1.32756
0.898825 0.419454 2.91497
-1.35598 -0.326762 3.16853
0.0337631 1.13528 2.41431
-0.0412679 -1.19382 3.46966
1.3413 -0.221163 2.80806
-0.483744 0.824693 1.89043
1.89362 0.297343 2.82022
1.15717 -1.06233 3.31962
-0.328052 0.530808 3.05296
-0.0225638 -0.19257 3.06306
0.734789 1.15442 2.8161
1.14993 1.24295 2.72779
0.820117 -1.00137 3.25093
1.26056 0.463869 2.82636
0.801187 0.150804 2.88213
0.643049 -0.151663 2.97261
0.340555 1.39996 2.85324
1.75892 -0.898849 3.02171
-0.0440549 0.660722 3.21301
-0.439575 -0.107054 3.039
0.488179 1.28805 2.8816
0.583211 -1.51213 3.60537
-1.4067 -0.903221 3.23041
1.47507 0.507061 2.69295
-1.50475 -1.18762 3.29819
-0.80847 0.438791 3.01068
-0.0740264 -0.0340229 1.01377
1.05212 -0.343397 2.92401
-0.472112 0.747648 1.89724
0.0163063 -1.17348 3.42979
1.61146 0.342726 2.67031
0.649468 1.08127 2.90377
0.199884 -0.319019 3.05574
0.0664792 1.39647 2.49519
0.41446 -1.17251 3.55239
1.04192 -0.260151 2.88257
-0.492111 0.454485 2.97475
0.10044 1.31632 2.64882
0.134316 1.12574 2.88241
0.381027 1.01024 2.98859
0.260082 -0.497295 3.12049
1.33466 0.249955 2.79004
1.01173 -1.41632 3.46098
-1.12169 -0.616011 3.31003
0.0149559 0.610138 1.52841
1.30313 -0.442114 2.87874
1.01186 0.926195 2.7837
1.07688 -1.37153 3.47506
0.118379 0.247757 2.90807
-1.18319 -0.438917 3.20612
0.86409 0.333436 2.91356
2.0587 0.308035 3.1953
0.53732 -1.36 3.57415
0.0124565 1.05513 2.91436
2.09501 0.451336 2.63018
-0.996521 -1.26538 3.48144
0.703155 0.994683 2.85441
2.17529 -0.117982 3.18763
1.61091 -0.36054 2.755
-1.37809 0.325444 2.95922
1.72243 0.163525 2.74575
-1.27042 -1.42184 3.16121
1.4715 0.786262 2.60278
0.0779135 -0.632321 3.19735
-0.486912 -1.49098 3.47915
1.51484 -1.91953 3.44958
-1.17535 0.145745 2.95695
1.68791 -0.538097 2.78352
2.13229 0.209407 2.89431
0.156311 0.847995 2.99268
1.25041 -1.58496 3.74367
0.701855 -1.46091 3.57196
-0.0865894 0.931058 3.02555
-0.021346 -0.549147 3.16461
1.93573 -0.214187 2.88955
1.73175 0.202174 2.74677
2.10397 0.336225 2.64591
-0.327778 -1.04614 3.46772
1.47631 0.420385 2.69759
0.321389 1.33307 2.90373
0.998257 -0.310114 2.92563
-0.638768 0.757717 1.86741
1.53131 -1.14056 3.24603
0.229775 -1.13747 3.50164
-0.20215 0.785191 1.96111
0.910459 -0.261145 2.98422
1.74264 0.453195 2.70006
-1.03093 0.454822 3.04756
-0.256894 -1.05919 3.35604
-0.883192 0.563884 3.08191
1.37771 -0.220383 2.81958
0.0974073 1.36034 2.62329
-0.567785 0.835244 1.87882
-0.525506 0.4945 3.00135
-0.0837154 -0.0325549 1.02671
-0.489941 -1.08907 3.56818
1.07695 1.13435 2.69648
1.76045 -0.204695 2.8295
-0.354539 -1.31898 3.49879
0.247704 1.04772 2.98293
1.4243 -0.394069 2.83886
0.070856 0.610833 1.40337
-0.20003 0.317012 2.99015
0.196786 1.48422 2.64501
1.23266 1.05099 2.7373
0.0403152 -0.375126 3.10151
1.46231 0.382388 2.91982
0.257812 -1.29711 3.53957
1.40732 0.979301 2.62125
1.24016 -0.345695 2.84804
0.057259 0.933164 1.87593
-0.986813 0.36266 2.96189
-0.866822 -1.1946 3.40977
-0.9402 -0.577934 3.15033
2.07576 0.4231 2.63677
-0.09122 0.209758 2.95491
-1.00141 -1.42265 3.30924
1.24159 -2.36181 3.91427
1.2623 0.875032 2.7456
-0.307066 0.904221 3.0656
1.0125 -1.58471 3.746
2.44059 1.08278 2.91808
1.72511 0.153517 2.73667
0.340751 -0.534261 3.14243
-0.601513 -1.63086 3.42236
-0.148944 0.286496 2.96245
0.927232 -1.56821 3.81991
2.43923 1.10903 2.8632
1.18623 -1.80542 3.53382
1.03676 -0.467125 2.92868
-0.0719717 1.00776 2.99696
2.32817 0.619669 2.75649
0.538682 -1.48115 3.73752
-0.310994 0.258962 2.99085
2.31217 -0.214018 2.93153
-0.203754 -0.46316 3.16346
-0.728359 0.676287 1.98476
-0.00890576 0.775638 2.98183
0.277283 -2.01415 3.59885
-0.670009 0.0655039 3.04346
-0.985403 -0.573509 3.30399
-0.668173 -0.733695 3.39814
-0.415542 -0.928072 3.39081
-0.112716 1.35311 2.90413
-0.822781 0.668905 2.25702
0.452508 -0.651885 3.14605
-0.545608 0.132318 2.99024
0.402655 -1.61869 3.55193
-0.899337 -0.668075 3.40298
1.32409 0.746607 2.69965
-0.406886 -0.960239 3.41699
-0.508302 -1.55867 3.50559
0.469203 0.0954788 2.88815
1.20274 0.905853 2.75341
-1.34141 -0.561384 3.2301
2.18857 0.964096 3.04347
1.91759 -0.490977 2.797
-1.75037 -1.50448 3.52941
1.47352 0.242166 2.85094
0.483725 -0.513044 3.1427
-0.413754 0.684936 2.10552
0.0875241 0.695948 1.45821
-2.22352 -1.91726 4.62604
-1.12509 0.233411 3.05333
-0.836245 0.320761 2.96648
2.3831 -1.3015 3.2578
-0.998941 -1.37561 3.46272
0.368387 1.05498 2.98125
2.32476 0.964036 2.93273
1.58556 -0.440111 2.86366
-0.755642 -1.31873 3.50478
-1.32937 0.309546 3.01652
-0.707714 0.69414 1.97161
1.09217 -2.2021 3.70496
-0.0237549 -0.432375 3.16868
2.1022 0.356075 2.62912
0.876392 -1.69812 3.68166
2.08925 -0.150447 2.92425
1.24742 -0.631154 2.98299
0.787993 -1.69121 3.64394
-1.37872 0.118659 3.08407
1.26941 -2.49801 3.47042
-0.566742 0.821726 2.95681
2.21513 0.273475 2.63975
1.28314 1.02835 2.7134
1.30395 -0.574664 2.84884
-0.665245 0.643281 2.07408
2.10578 -0.0109351 2.93141
1.18228 -1.7197 3.78445
-0.198566 0.187722 2.98829
0.502879 -0.59514 3.20967
1.06496 0.811709 2.81429
1.67098 0.120452 2.76388
-0.0800245 -1.56893 3.63691
-0.0572652 0.694837 2.97381
1.15344 -0.0418908 2.81401
0.0867054 1.28038 2.76926
-0.542854 0.00144454 3.05022
-0.371419 -1.37915 3.52906
1.40078 -0.75284 2.92472
-0.915681 0.674446 2.93904
2.26489 0.937399 3.2062
-0.556317 0.603255 3.04532
0.877484 -0.771421 3.15353
1.43254 0.0487806 2.87365
-0.54747 -0.769532 3.30272
-0.867252 -0.562938 3.17998
-0.31632 0.78992 3.03516
0.797848 -1.52958 3.72321
-0.935249 0.041765 3.06704
-1.10725 0.230313 3.03184
-1.00851 0.775297 2.99947
0.0513009 -0.707102 3.23963
0.180009 -1.7605 3.59197
1.8376 -0.164934 2.87399
-0.0885084 -0.958347 3.37116
0.314537 -1.72296 3.62573
-0.185156 -0.143685 3.04639
0.0701305 1.2372 2.78096
0.955891 0.544609 2.89743
-1.02215 0.369487 3.03135
0.251666 1.30438 2.91584
1.82176 0.885538 2.54455
-1.16353 -0.109106 3.12657
-0.494975 0.641755 3.06782
1.49324 -0.82324 2.84436
-0.280449 -1.07498 3.48292
-0.269584 -0.075965 3.04896
1.64675 -0.797969 2.89889
1.20376 0.549905 2.80611
-1.25618 -0.910625 3.26698
-0.00555211 -0.0489876 0.66401
-1.30012 -0.111687 3.1075
1.78901 0.515796 2.65449
0.205703 0.573763 2.93462
-0.801463 0.4177 3.0484
-0.650363 0.703271 2.20442
0.589197 -0.0748751 2.93941
0.505134 1.26496 2.88967
-0.593238 0.67998 3.09169
0.270179 -0.8943 3.31705
2.03795 0.214456 2.82479
-1.26544 -0.0421404 3.08051
1.03657 -0.844499 3.274
0.595812 0.619862 2.98705
-1.28927 -0.287711 3.19929
-0.745702 0.752392 1.79274
-0.720501 -1.11883 3.42454
-0.276944 0.489633 2.98543
0.518787 -1.7527 3.61813
-0.202417 -0.23056 3.08955
0.429962 1.14564 2.90314
1.56918 -2.05835 3.43491
-3.40985 1.10839 7.05097
0.599889 -1.08201 3.38422
-0.774323 -1.05643 3.48412
0.989331 0.537837 2.90729
0.659087 -0.198362 2.95373
-0.854701 0.227351 3.03533
-0.32226 0.800773 2.09879
0.0627724 0.524105 2.96888
1.14798 -0.974276 3.28619
0.510696 1.35631 2.88774
-0.30506 0.898205 1.93697
-0.738276 -0.154305 3.09031
0.857113 -1.35445 3.66657
-0.985182 -0.392723 3.15349
-0.268641 -1.12416 3.49381
-0.0635669 0.350442 2.96666
0.0471884 1.35724 2.64194
-0.762932 0.706307 1.89747
1.74976 -0.351552 2.72921
1.61288 1.00729 2.53237
2.50311 0.700273 2.7952
1.55482 0.366956 2.51135
-1.06231 -1.09054 3.10158
-0.671716 0.733013 1.92055
0.404916 -0.316068 3.07801
-0.249591 0.371746 2.9416
0.492851 -1.28691 3.68499
0.152914 -0.551241 3.15085
2.32685 -0.154356 3.03117
-0.228918 0.245401 2.97603
-0.736645 -1.45796 3.52486
1.67921 0.853867 2.54614
1.37339 0.83861 2.64827
-0.92822 -1.39539 3.48539
0.28287 1.37746 2.90642
-0.0444842 0.215219 2.94014
0.878694 -0.505232 3.03653
-0.685478 -1.35064 3.46463
-0.794763 0.32562 3.00606
2.34929 -0.214089 2.91032
1.1297 -0.431576 2.88246
0.675127 1.00363 2.86658
2.28079 0.630687 2.7609
-0.127378 -1.34051 3.56666
0.0926248 0.269415 2.89601
2.38332 0.898159 2.93454
0.694618 -2.45467 3.99194
-0.725238 -0.433399 3.15791
0.61337 0.987061 2.89714
-1.3923 -1.14101 3.16723
0.0652299 0.415201 2.92253
1.15445 -0.350982 2.8715
-0.784899 0.730852 1.8483
0.596426 -1.22172 3.51858
0.271253 0.358593 2.89303
-1.06981 -0.130854 2.95957
-0.827717 0.716452 1.85854
1.07352 -0.31349 2.87181
0.190232 1.16124 2.95037
0.0795434 1.31176 2.44144
1.34612 0.428575 2.79669
-0.454358 -0.29617 3.09121
-0.996196 -0.0125981 3.10599
-0.652718 -1.11454 3.39485
0.387788 -1.42494 3.54455
1.33091 -0.468967 2.84166
-0.491105 0.701573 2.02319
1.22028 0.269625 2.84703
0.546378 -1.50226 3.66337
-1.38019 -0.494313 3.24437
0.624517 0.962372 2.92428
0.0596662 0.941967 1.95725
-0.952135 -1.38858 3.56705
0.656612 0.227416 2.90911
-0.597392 0.338396 2.98224
1.57512 -1.89963 3.43683
1.39527 -1.31132 3.35379
0.0551235 1.0505 2.91596
2.3384 0.24636 2.74557
-0.622759 -0.447429 3.18348
0.624979 0.285053 2.90539
0.454712 -1.28716 3.48436
1.21596 -1.73577 4.01665
-0.79603 0.684459 1.88429
0.566709 -0.389792 3.0476
1.09747 -1.67256 3.61338
-0.0694101 -1.58 3.53295
-0.514843 0.165344 2.99126
-0.282725 -1.08027 3.47953
-1.44068 -0.614741 3.04716
0.774348 0.860026 2.86891
0.856181 0.117239 2.89517
-0.80886 -1.44977 3.35503
1.58208 -2.14888 3.43342
0.374582 -1.74562 3.63813
-0.544012 -0.575043 3.10464
0.34781 0.851243 2.98262
2.00181 -0.787572 3.264
0.668542 -1.62601 3.61994
-0.45206 0.678813 2.10565
1.92587 -0.964519 3.25332
1.30481 0.193466 2.79415
1.80664 0.308589 2.82168
1.26119 -0.527682 2.91942
0.78132 -1.71833 4.0414
1.31503 0.669262 2.72366
2.22411 -0.18735 3.591
-0.269931 0.0263205 3.02035
0.415725 -0.81111 3.31326
-0.238795 0.727774 3.10465
-0.58061 -0.602986 3.30096
-0.0769246 1.09075 2.9607
0.709174 -0.00999226 2.92854
-0.796976 -0.798116 3.44644
1.92231 -0.813854 3.1131
-1.05035 0.222208 3.06046
0.904271 0.0956311 2.8892
1.67685 -0.768059 2.55868
1.03916 -0.67016 3.04336
-0.0975843 0.822807 3.06578
-0.000970086 -1.37577 3.36005
-0.247428 0.0608553 3.04144
-0.807357 -1.60305 3.44705
1.84011 -0.511731 2.75392
1.64299 0.698164 2.66214
-0.912791 -0.690918 3.31697
-0.196368 0.768722 2.10857
-0.550032 0.314362 3.03515
-0.935795 0.0182341 3.08657
0.469334 -0.420746 3.05715
0.102176 1.24749 2.43893
-1.05064 -1.25213 3.29652
0.973118 -0.376131 2.99207
-0.346634 0.766223 1.98102
1.33867 -1.21924 3.2556
0.584762 0.369314 2.93222
0.704549 -0.359097 3.01918
1.44445 0.975505 2.63061
1.48425 -1.21439 3.3547
0.507113 0.326821 2.85382
2.50831 0.310539 2.64993
0.78843 -1.71313 3.91551
1.16795 0.200202 2.80148
2.24552 0.158826 2.98495
0.16952 -0.588493 3.17783
-0.362012 0.918267 2.7804
-0.0680336 -1.93194 4.27724
-0.177478 -1.50669 3.62968
0.943855 0.153243 2.83892
2.33868 -0.0887345 2.99257
1.57547 -0.486882 2.76337
1.06741 0.841785 2.82343
1.41567 -1.4119 3.38965
1.39503 0.269884 2.78629
2.17494 0.288167 2.6412
1.20378 -1.5764 3.47718
0.655164 -0.504881 3.11916
-0.33161 0.726409 2.06491
-1.45773 -1.23005 3.06677
-1.37964 0.282463 3.08954
-0.012607 1.32289 2.89441
-0.733487 -0.475845 3.19784
0.3786 0.9708 2.97954
1.75226 -2.06784 3.40592
0.639291 1.58407 2.86088
0.131102 0.781538 3.04736
-2.48476 -1.26761 5.22427
-0.100307 1.32773 2.89586
0.444357 0.0529371 2.90691
0.849774 -1.87307 3.61338
-0.513952 0.767913 3.03684
-0.287246 -0.712846 3.23226
-0.672379 -0.992737 3.56958
-0.158402 0.0277484 3.00972
1.05684 -0.645108 3.03591
-0.499786 0.799854 2.76914
0.126193 -1.74485 3.59063
-0.0872168 -1.69275 3.63665
1.7227 0.117209 2.7351
1.8383 -0.31365 2.71173
1.55424 -0.579685 2.84718
-0.501827 0.819167 3.00729
0.63202 -1.57416 3.57884
-0.440941 0.0917652 3.01803
0.695348 -1.74145 3.88721
0.714929 -1.58855 3.76076
0.404409 -0.86895 3.26096
-0.998346 0.78664 2.84642
-0.829224 0.704887 3.05935
-0.834043 -0.0657037 3.09689
-0.123675 -1.51958 3.56842
0.0460798 -0.831744 3.28426
0.553823 0.617524 2.94211
-0.555067 -0.0420624 3.0759
1.26821 -1.79193 3.70402
-2.15819 -1.1022 4.39083
-0.283758 0.883733 2.43393
-0.00602701 -0.0492949 0.664786
-0.30451 0.952959 2.74774
0.136426 -0.00934222 2.93914
-0.874704 0.30239 3.03155
-1.13198 0.724386 2.94486
-3.14285 -3.24878 6.92852
0.741215 1.47319 2.84593
1.07139 0.757711 2.79607
1.45691 -0.617824 2.9181
-1.18518 0.119018 3.13882
-0.101769 -1.69848 3.5255
0.61735 -1.47076 3.57205
1.23937 -1.8225 3.51798
2.18235 0.319718 2.63301
1.2185 0.801002 2.7135
-0.172984 -0.636201 3.26686
-0.0664989 0.176033 2.9613
-0.879473 -1.52634 3.42641
1.20244 -0.57349 3.00472
1.41166 0.754577 2.60912
2.11131 -0.0470335 2.92964
0.204174 -1.51905 3.52846
-0.224049 0.132755 3.0034
-0.216828 1.15673 2.95841
0.29511 -0.0361057 2.95527
-0.222488 -0.00816623 3.05528
0.0123476 1.16675 2.86829
-1.20274 0.113137 3.09134
1.43659 -0.764404 2.90169
0.135703 0.711703 3.03684
2.29508 -1.51516 4.21707
1.15246 -0.763136 3.10483
-1.16223 0.670174 2.89067
1.84194 -0.582515 2.84181
0.325962 -0.778023 3.30811
1.78332 0.0594246 2.76887
-0.250514 -0.849594 3.32137
-1.00428 0.79265 2.91933
1.52318 -1.47653 3.43826
1.64143 -0.827721 2.7296
1.61119 0.0261582 2.67378
-1.33561 -0.718932 3.27628
1.71726 0.700536 2.71444
-0.301477 -1.51188 3.53861
0.233236 1.24404 2.93826
-0.946423 -0.193822 3.10838
-1.19936 0.534979 2.76319
1.27267 1.14238 2.67673
-0.0511227 0.00206129 0.836382
-1.01839 -0.158023 3.15434
0.287046 -0.991211 3.3921
1.86285 0.998359 2.54569
-0.0567997 -0.108479 3.0346
0.203917 -0.919089 3.29315
-0.711208 0.636835 2.99344
-0.888911 -0.00586057 3.07757
-1.20111 -0.0739962 3.10071
-1.07136 0.590061 2.90579
1.30863 -0.831248 3.03333
-0.917876 0.466833 2.96074
0.348057 1.44933 2.79095
-0.738232 -1.16403 3.41774
1.6031 -0.297401 2.73645
0.814468 1.10676 2.79175
1.46886 0.381239 2.71808
-1.04235 -1.07057 3.32585
-0.293197 -0.274881 3.07209
-0.0924804 0.832476 2.11994
1.23553 -1.85029 3.56435
-0.141712 1.17389 2.84552
-0.00101017 -1.06286 3.39537
-1.09348 0.532945 2.93606
-0.498902 -0.243755 3.08411
-0.458283 0.873202 1.89729
-1.15525 -0.248218 2.96859
0.189637 -1.08875 3.6158
-1.71161 0.622165 3.63977
-1.04449 -0.197159 3.11275
-0.136412 0.84262 2.00492
0.390583 0.472693 2.92428
1.25364 -0.269677 2.85653
1.33391 -1.71218 3.52712
-0.156334 0.839289 1.99258
-1.11054 -1.09282 3.32988
-1.31312 -1.03599 3.25759
0.739858 1.10831 2.81441
1.55101 -0.236816 2.84192
1.36641 -1.6165 3.44007
-1.10344 0.460743 2.92463
0.802264 -1.05571 3.41491
-0.954982 0.557577 2.95485
-1.35381 -0.207174 3.08635
-0.607946 0.841751 1.87088
0.356026 -0.0667735 0.179623
1.36508 0.492172 2.80187
0.616674 1.45503 2.87279
1.17472 -0.94493 3.21514
-0.86783 -0.171154 3.12532
0.927532 1.00643 2.79289
0.132179 1.33031 2.88447
1.03862 0.333307 2.86388
-0.0172135 1.07931 2.36594
-1.05577 -0.40638 3.16848
0.626761 -1.28879 3.47731
1.96253 0.508662 2.64209
-1.35572 -0.38201 3.17953
0.298324 1.15468 2.99021
-1.37073 -1.16416 3.25189
1.77568 0.394002 2.78973
-0.267649 0.775308 2.01052
0.505729 -0.322197 3.03575
2.64931 0.641449 2.72403
0.391682 -1.22197 3.51967
1.48378 0.332916 2.73547
-0.00771569 -1.51845 3.64619
-0.778755 0.254787 3.04455
2.14676 -1.08802 3.52573
1.50657 -0.492384 2.72207
-0.694507 0.66973 2.04262
1.30011 -2.1641 3.81961
0.7904 -1.71231 4.13595
-0.745326 0.214735 2.96657
1.31578 -1.7209 3.72193
0.759251 -0.512309 3.06695
-0.769362 0.64648 2.0337
-0.320799 0.308813 2.98534
1.40923 -1.67936 3.55657
1.40961 -1.51459 3.72988
2.04834 0.279572 2.77289
1.15726 -1.68815 3.53868
0.914589 -0.457507 3.03241
-0.00752277 1.01696 2.92607
0.442969 -1.38894 3.61645
0.831959 0.26777 2.86791
