ply
format ascii 1.0
element vertex 1845
property float x
property float y
property float z
end_header
1.62974 0.84007 2.56724
3.13052 -0.819423 3.24209
1.23373 0.919552 2.72116
1.08877 -0.711348 3.07346
2.43436 -1.14019 4.09352
2.62333 -0.554432 2.81318
1.17859 0.0182418 2.81436
0.572304 -1.49173 3.58537
-1.16632 0.790816 2.98415
-0.989741 -0.534003 3.20352
1.07728 -2.8162 3.56745
2.1924 -1.51149 4.14871
-0.805786 0.854851 2.96734
-1.00932 -0.75344 3.40956
0.303191 0.113649 2.92315
2.38069 -1.54132 3.25347
-1.16702 0.838398 3.01831
-0.772036 -0.67556 3.36629
0.895411 1.27459 2.78656
-1.30681 0.0965779 3.0419
-0.187508 -1.71942 3.74062
0.14201 0.573777 1.30999
0.783988 0.912598 2.9
1.81032 -1.79402 4.14572
-0.34581 -0.588194 3.29496
2.17018 -0.370976 3.26858
0.474321 0.201844 2.85305
-0.928438 -1.46775 3.4404
-0.202074 -0.522565 3.17657
-0.922169 0.659169 2.08947
0.0988287 0.610626 1.49815
1.41786 -1.53336 3.68409
2.06869 -1.93751 4.44233
1.74926 0.177159 2.74889
2.41714 -0.91613 3.24708
-0.318952 -0.498775 3.20795
-0.681289 0.29096 3.07573
1.26041 -2.09638 3.50076
-0.750658 -1.39543 3.5068
1.58816 0.886866 2.53045
1.7615 -1.91214 3.67961
0.935863 -1.69791 3.67521
0.142298 -1.34641 3.49303
-0.83302 0.27721 2.97627
0.450636 0.943582 2.92467
1.60861 -1.8641 3.44551
-1.06855 -1.65082 3.48329
-1.38332 -0.464657 3.18769
-0.782883 0.112065 3.09439
2.12943 0.522402 2.60224
0.58598 -1.44071 3.58568
0.901704 -0.678174 3.08501
1.54083 0.739319 2.62661
2.94374 -0.808383 3.13896
0.587966 0.0633985 2.87472
-0.90727 -1.53963 3.37534
1.21154 -1.57678 3.49292
0.623811 0.793386 2.99561
0.793383 -0.636346 3.14282
-0.672887 0.88342 2.95039
2.17739 1.11469 2.89259
-0.11959 0.877452 3.07783
1.21394 1.32524 2.62223
0.0990735 0.575149 2.99461
0.51301 0.126797 2.83165
0.124957 0.604928 2.98233
1.0394 -2.69058 3.59723
-0.071753 -0.612358 3.19369
1.57505 -0.0215942 2.84867
-1.13853 -1.40165 3.20178
0.541165 0.653337 2.94112
0.011209 1.24793 2.65232
0.700381 -0.0386273 2.85759
0.580366 -1.74078 3.6843
0.733391 -0.855031 3.25086
-1.30294 0.637163 2.86804
-0.373894 -1.44754 3.54141
1.9511 -0.0323651 2.98128
2.53078 0.219472 3.67073
-0.573692 0.273891 3.04269
0.107607 -0.823818 3.29486
0.831582 -2.08527 3.56615
-0.868762 0.167011 3.03747
-0.448527 -0.806124 3.36769
0.692254 0.0380291 2.89872
1.91643 0.219524 2.73329
2.83851 -1.00307 3.01736
1.0224 0.716166 2.83887
-0.947581 0.280024 3.03624
0.0631809 0.0261361 2.94298
1.6172 -1.07415 2.95417
-0.113999 0.689743 2.97749
0.383331 -0.735721 3.22958
-0.453252 0.254918 3.02266
-0.750948 -0.987155 3.32768
1.22521 -1.38075 3.43605
-0.772558 -0.177366 3.08783
2.53269 -0.1232 3.07679
-0.835754 -0.96579 3.4412
1.0743 0.509192 2.89091
0.160563 1.42286 2.71302
-0.340917 0.851524 1.92855
1.78323 0.828047 2.55813
-0.893146 0.154519 3.48932
-0.496508 -0.16255 3.13055
-0.470152 0.619518 3.05631
-0.477575 -1.02375 3.44591
0.0684945 -0.108303 2.97865
0.613227 1.24875 2.87197
1.2129 -2.57481 3.49641
-0.759025 -0.992164 3.59628
-0.0162943 0.601473 3.07265
2.47135 0.829876 2.88181
0.399062 -1.64049 3.51545
-1.42506 -1.50169 3.26297
1.05915 0.131418 2.7711
2.50982 -1.43195 3.18369
0.767222 -0.63131 3.14358
1.32656 0.798485 2.69493
1.34054 -2.06149 3.47788
-0.950581 0.124554 3.0775
0.391719 -1.55017 3.57992
1.84502 -0.972147 3.22928
1.50264 -2.34112 3.81303
-0.543415 -0.631627 3.31677
-0.843541 0.669601 2.3312
1.149 -1.61413 3.72652
-0.18452 0.233038 2.98131
-1.17261 -1.14863 3.3878
-0.891375 -0.569559 3.23004
1.55763 0.842028 2.59359
2.20027 -1.05957 3.28483
2.15011 -0.147635 2.90772
1.39348 1.01987 2.80709
1.27444 -1.51896 3.63916
0.419683 0.177969 2.88584
-0.672926 0.889708 2.95045
-0.276584 -0.525692 3.1803
1.53943 0.805221 2.59404
2.23422 -1.02672 3.20953
2.69073 -0.53131 3.07208
0.685731 -1.8478 3.58322
-0.731751 0.740135 2.9933
1.07574 -2.8953 3.56135
2.69966 -1.25831 4.26993
-1.11724 0.0266377 3.06717
0.979838 -1.54371 3.52847
-1.11624 0.727734 3.03606
-0.179985 1.08846 2.8829
-0.580889 -0.77422 3.28582
2.45442 -1.03672 3.19981
1.57671 -0.692469 2.93696
-1.04018 0.78379 2.81556
0.135365 0.636786 3.01762
1.109 0.0723481 2.81529
1.54715 -0.0246782 2.7872
2.55973 -1.14995 3.13579
-0.185712 0.768325 3.08251
0.320564 -0.697875 3.22153
1.83542 -0.503702 2.77505
1.32653 0.0253051 2.73823
1.94339 0.638939 2.60415
0.357895 -0.95989 3.38289
-1.18397 0.612833 2.91705
1.87333 0.306199 2.67731
2.40955 -0.464249 3.44854
1.51539 -0.134395 2.78141
0.561185 1.5092 2.86682
-0.357739 -0.925348 3.42472
-0.735932 0.606335 3.09671
2.59175 -0.853698 3.41298
0.168489 -0.0844996 2.99786
2.12978 0.190847 2.81902
1.33601 1.20246 2.64947
1.65203 -0.760565 2.83887
-0.889098 -0.0551198 3.12622
0.143296 -0.0700873 2.94199
0.194595 -0.812886 3.31682
-0.916891 0.754175 2.58566
1.28285 0.594048 2.76544
0.840206 -1.50068 3.55839
0.241681 -0.027539 2.96427
1.38627 0.949032 2.61751
1.65362 -0.295898 2.92127
-0.514512 0.774606 1.85322
0.932394 -1.16016 3.45125
1.63513 0.455859 2.83488
1.66757 -1.69806 3.75977
1.80688 -0.744297 3.01283
0.434999 -0.242592 2.99601
1.6556 1.02704 2.53683
-0.378608 -0.96974 3.42218
1.61016 0.377454 2.63303
-0.800662 -1.06283 3.35243
-1.11457 0.2678 3.76769
1.29406 -1.75202 3.86655
1.16347 -0.205067 2.77514
-0.563644 0.827969 1.88046
-0.983654 0.0584034 3.10562
-0.10054 -1.05522 3.45584
0.338779 0.513788 2.89029
1.07776 -2.19378 3.66591
0.227494 -0.177222 2.98507
0.0751563 1.28343 2.88089
-0.177283 1.13649 2.95897
-0.181237 -1.00013 3.3666
0.424511 0.475417 2.86764
1.23634 1.33465 2.87348
-0.311151 -0.0836401 3.02782
1.6488 -1.06698 2.94957
1.25244 -0.828705 3.02494
0.192886 0.679219 3.07485
-0.63284 0.830894 2.52371
1.24708 -0.79067 3.0087
0.124067 0.604415 2.98851
2.43144 -0.56031 3.45814
1.29469 -0.0642624 2.66368
0.868418 0.586059 2.91844
-0.704499 0.555924 3.05071
1.57074 -0.724677 2.81845
1.30588 -0.00292094 2.71766
0.0364645 1.28132 2.72855
0.337207 -1.78233 3.60037
-0.803139 -0.0218936 3.12367
1.29602 0.660398 2.7564
1.78832 0.569262 2.6525
1.88826 0.289748 2.712
0.746024 -0.748202 3.18318
2.7378 -0.12291 3.08488
-0.831317 -0.488996 3.18332
0.18799 0.704131 3.12152
-0.255288 0.912715 1.9714
-0.483364 -0.87528 3.3494
1.29087 0.972148 2.65369
1.08221 0.481766 2.86703
0.702887 -0.225754 2.96686
1.82653 -0.21533 2.82169
-1.30509 -1.00151 3.2345
1.02601 -2.20095 2.9099
-0.581285 -0.177083 3.16685
0.63892 1.25129 2.86446
0.396458 -0.999881 3.44545
1.39533 -2.57087 3.57726
1.52423 0.508576 2.68546
0.118667 0.169564 2.95772
0.11188 -0.133233 2.96842
-0.726687 0.586216 3.17504
1.38273 -2.07426 3.50547
-0.384587 -0.986663 3.46404
-0.936515 -0.391934 3.1987
-0.169183 0.37884 2.94647
0.57952 -1.71098 3.62407
-0.982379 0.0613187 3.10551
-0.887332 -1.22726 3.43128
0.224802 1.09986 2.9596
2.5347 -0.0314339 3.34113
-0.166241 1.1546 2.95324
-1.29747 -1.10322 3.16516
-0.0369307 -0.334016 3.08847
0.380813 1.06284 2.91793
-1.13864 0.381016 2.99083
1.37989 -1.23812 3.66973
0.120777 1.23924 2.43547
0.413811 0.449848 2.89305
0.966511 1.05106 2.40453
-1.36744 -0.297174 3.08411
1.03425 1.12547 2.73262
-0.0477856 -0.144565 0.803017
0.368179 0.42155 2.90225
0.874774 -1.13752 3.506
1.1076 1.00472 2.51702
-1.3353 -0.265718 3.13737
0.956417 0.935789 2.82353
0.857159 1.06888 2.7553
1.72813 -2.09605 4.3538
-0.00655706 0.523508 1.44936
1.37972 0.244521 2.82485
1.8278 -1.20112 3.54584
-0.617719 -0.529956 3.37596
2.05891 0.889513 2.83768
-1.06373 -1.34244 3.40264
0.563344 -1.44885 3.61555
0.545777 -0.449004 3.0826
0.205399 1.04621 2.98129
2.84676 -1.09289 3.11238
-0.039776 -1.37731 3.56984
-0.867773 0.339134 2.98462
0.0878475 -1.87318 4.32861
-0.366576 -0.412784 3.19465
-0.584649 0.684455 1.94567
-0.016113 0.563016 1.22706
-1.37164 -1.24829 3.33704
1.26488 0.263881 2.81618
0.578099 0.97175 2.88087
-1.1522 0.0241505 3.61037
0.0325462 0.68545 1.37016
0.210375 0.278134 2.8917
0.179089 -0.456483 3.08076
-1.19023 -0.388129 4.11094
0.233435 -1.25322 3.55638
0.090226 1.31671 2.24038
-0.275917 -1.3749 3.55727
0.571243 -0.409453 3.05763
-0.56778 0.730849 1.92934
0.522205 -1.74869 3.64047
0.0653095 -1.28186 3.48059
-0.303228 0.335585 2.96151
1.84275 -2.01834 4.43761
-0.775145 -0.385543 3.13419
0.534901 1.01639 2.92381
0.0302641 0.599678 1.57951
-0.190182 -1.31073 3.60447
1.24626 0.28347 2.81263
-0.677835 -0.648212 3.35439
1.42718 0.177824 2.78279
1.89424 0.186552 2.81992
0.436864 -2.05167 3.64885
-0.184108 -1.67265 3.74671
-0.433392 0.901844 2.88497
2.16839 -0.222977 2.94659
1.32107 -1.5383 3.52338
2.36677 0.814361 2.90407
0.543739 0.12364 2.84395
2.52682 -1.63745 3.21749
-1.41657 -0.63871 3.4619
1.55369 0.771352 2.60536
-0.923955 0.274327 2.96261
-0.564108 0.44186 3.02056
1.42771 -1.91069 3.74205
-0.783284 -1.46855 3.59958
-0.0389067 1.37039 2.89125
1.83953 -0.514003 2.92299
1.21689 -1.57428 3.49242
-0.635005 0.680572 2.01382
2.59344 -0.791327 3.09251
0.171604 -1.4411 3.63752
0.763109 0.201112 2.84626
1.78288 -0.284675 2.72738
-0.0782984 -0.501873 3.15275
-0.629268 0.67028 2.03385
1.9788 -0.644656 2.98115
2.05862 -0.818307 3.07773
1.68781 0.658592 2.56562
0.610517 0.0270978 2.90893
2.18277 1.0715 2.92314
0.610137 1.59443 2.86333
1.48704 -2.42513 3.86316
-1.48262 -0.734469 3.15152
-0.981502 -1.33448 3.43825
2.40406 -0.0404657 3.14512
-0.0157186 0.822902 3.08079
1.58257 -0.643255 2.95707
1.29095 0.0923831 2.77527
2.47724 -1.17921 3.16967
1.43514 -0.624712 2.94734
-0.569947 0.78199 2.94121
-0.525819 -1.58615 3.48079
0.723129 -1.55928 3.59104
1.63068 0.0696099 3.10376
1.36869 -1.55552 3.37256
-0.627194 -0.935747 3.37207
1.91306 0.0543196 2.64831
1.22694 1.37148 2.76479
-0.94122 -0.299057 3.12302
1.00285 -0.0977658 2.89558
0.679735 0.616832 2.96857
-0.966961 -1.58674 3.34174
0.339608 -0.85294 3.29997
0.689694 0.582473 2.94938
0.0172193 1.27783 2.88544
-0.376197 -0.0730745 3.01264
0.0756171 -1.69753 3.54829
2.90248 -0.928001 2.97502
-0.426763 0.00110395 3.01852
-0.509208 0.719331 1.96062
-1.21033 -0.842061 3.38003
0.233726 -1.49068 3.61089
-1.00499 0.724173 2.89857
0.906117 -1.67822 3.61942
0.0801098 -0.0297351 2.96743
-0.0534233 -0.76569 3.30107
1.91376 0.182605 2.74631
-0.36672 0.680427 3.07095
1.29633 1.05362 2.56766
-0.719574 0.459728 3.04727
1.55929 -1.44658 3.30747
1.26498 -0.640943 2.86574
0.939873 0.652995 3.07625
-0.467056 -1.04632 3.52866
0.560268 0.0728553 2.88813
1.25682 -1.90589 3.5218
1.16477 0.390262 2.83832
-0.67789 0.807047 2.96468
-0.967283 -0.612129 3.32264
2.23317 1.00823 2.98867
1.34514 -0.608135 2.88146
0.265519 0.886636 3.07029
0.72026 -2.0688 3.57401
-1.22349 -1.57321 3.42197
-0.489131 0.124227 3.01793
2.12149 0.0656629 2.9657
1.69161 -0.570636 2.8346
1.39309 0.747341 2.68164
-0.363332 0.108259 2.97468
-1.07352 -1.4722 3.33306
0.873201 -2.46353 3.77713
-0.778777 -0.0592142 3.06855
-0.915741 0.777072 2.80796
-0.0175002 -0.876294 3.37443
1.19441 0.62663 2.84261
-0.847003 -0.317025 3.10979
1.56388 -0.744076 2.91224
-0.810882 0.667031 3.05274
1.9829 -0.00775503 2.62454
2.04258 0.688586 3.24377
1.67756 -0.0468905 2.70056
1.83606 0.384641 2.81546
-0.68787 -0.786595 3.35945
0.141396 0.0300786 2.92312
0.739243 0.728822 2.92692
-0.198613 -1.03805 3.4355
1.05155 0.701315 2.83018
-0.803967 -0.892528 3.37982
0.100074 1.32366 2.88292
-0.142836 -0.728628 3.26916
0.964804 -0.00836943 2.84661
-1.32462 0.318243 4.24968
0.0669862 -1.67082 3.55727
1.15769 0.676916 2.82558
-0.61434 0.415804 3.05205
0.730992 -0.984876 3.31352
-0.853423 0.042233 3.09212
1.58823 0.696331 2.62326
0.601758 -0.187904 2.96517
1.99162 0.176851 2.9113
1.61101 0.467975 2.59417
1.75212 0.819039 2.56456
-0.714834 0.871725 1.86062
0.571137 -2.27797 3.78064
0.449238 -0.148228 2.95902
0.0683212 -0.948718 3.34796
-0.51783 0.288247 3.24313
1.63173 0.538406 2.6761
-0.774044 0.699434 2.29267
2.33834 0.0218579 2.92338
-1.38208 -0.0998756 3.11506
-1.0756 -0.899843 3.35527
0.138704 0.529517 2.92468
0.789975 0.413173 2.90328
-0.742565 0.158473 2.68027
0.693311 0.550001 1.17991
-0.191147 -0.33746 3.12322
-0.258029 -1.23999 3.56256
1.12853 1.06975 2.7032
1.46211 0.0974346 2.72956
-0.163981 -1.09194 3.26914
1.04249 1.02904 2.74894
-0.00390797 -0.281173 3.05734
0.686143 1.3887 2.85375
0.500116 0.375592 2.86098
-0.606793 -1.10317 3.3847
1.94576 0.326494 3.23489
-0.0749344 0.497189 2.95673
1.37547 -0.255155 2.83794
0.203205 1.32469 2.73387
-0.383508 0.721932 2.10708
1.04523 0.446859 2.88228
1.13904 -1.05592 3.36309
-1.08819 -0.106496 3.12902
-0.894076 0.811342 1.96059
2.08844 -1.91867 4.35271
0.091939 -0.219241 3.02231
0.800891 0.686664 2.93641
0.223772 -0.0331649 2.99008
1.85603 -0.280004 2.79093
1.1039 1.0535 2.52608
1.80996 -2.08097 4.52607
-1.40138 -0.804898 3.20753
1.64869 0.0102607 2.77794
-0.546366 0.680569 3.0208
0.784132 -1.447 3.41178
1.07446 -0.747502 3.08808
0.554244 -1.99701 3.63107
1.4761 -1.37749 3.34885
-1.01514 -0.762205 3.35869
-0.709419 0.0893819 3.07948
1.78725 0.322664 2.80461
1.18184 1.46196 2.80709
-0.947568 0.786848 2.83595
1.52809 -0.031583 2.25804
1.27495 0.70745 2.7546
-0.330411 -1.33523 3.54181
-0.922717 0.748529 2.71925
-0.624363 0.0421179 3.07598
-0.807531 -0.728297 3.41938
0.290446 0.775831 3.02507
1.4795 -0.86592 2.94899
1.90837 0.237975 2.70597
1.18309 0.559391 2.84266
-1.29193 -0.13847 3.10228
-0.323222 -1.66525 3.51527
1.7821 -0.152147 2.84604
0.292484 0.542652 2.91191
0.464191 -2.36342 3.56535
1.08073 -0.961372 3.42293
-0.40008 0.757412 2.07543
-1.33976 -0.0973123 3.22966
0.850756 -1.57871 3.52916
-0.264057 -0.868513 3.34512
-0.66036 -0.0595735 3.08089
1.48038 -1.40413 3.34438
1.74601 0.845383 2.55465
1.51565 0.771858 2.57014
0.956922 -1.62934 3.62356
1.17049 0.601127 2.85384
-0.902765 -0.301512 3.14313
0.507957 -1.61446 3.64063
-0.388859 0.782165 1.90483
0.198302 -1.2297 3.57518
0.866716 0.445512 2.89174
0.187103 -1.27719 3.54768
1.25649 1.08756 2.72035
1.53086 -0.270111 2.94307
0.184693 0.424645 2.88563
-0.445987 -1.11763 3.45183
1.72668 0.438064 2.70271
1.33777 -2.86426 4.21875
-1.06286 0.553962 2.99191
0.998438 -2.13899 3.34234
0.849159 -0.221891 2.98917
-0.130546 1.19689 2.83933
-0.427071 0.898959 2.65707
1.20367 -1.82619 4.08719
0.667773 -1.05306 3.37146
-1.28906 -0.949503 3.20375
-0.749792 0.676347 2.06743
1.07338 -0.178818 2.83874
1.34056 0.48405 2.79342
-0.556669 0.734116 3.07007
-1.48316 -1.2068 3.17723
-0.0423589 0.351495 2.93835
-0.702303 -0.435027 3.22181
1.03523 0.992954 2.7406
1.57908 -1.26432 3.40536
1.19887 0.975416 2.58266
1.47133 0.288591 2.74042
0.865051 -0.357732 3.00907
0.163845 0.83746 1.77761
-0.101527 0.957716 2.55827
1.44267 1.00601 2.58403
2.72195 0.887604 2.82048
0.963329 0.373214 2.89344
0.888519 -1.75749 4.15984
-1.27445 -0.356132 3.1706
0.0843583 1.14884 2.27794
1.37121 -1.79992 4.23184
0.662619 -1.1673 3.32362
-0.745608 -0.250468 3.05746
-0.688678 0.687041 1.96447
1.97047 -1.09272 3.37502
0.579868 0.484441 2.93735
1.36141 0.958662 2.60059
0.596997 -0.223279 2.92783
-0.611208 0.759243 1.86665
2.05499 0.28547 2.89373
1.384 0.485351 3.04603
-0.938001 -1.08457 3.51164
1.02653 1.17185 2.48958
0.408346 1.31432 2.90851
-1.29305 -0.181898 3.12582
0.014165 -0.109054 0.6899
0.858513 -0.967883 3.22474
0.714501 0.530289 2.91872
0.948284 1.14915 2.38335
-0.568872 -0.134739 3.11714
-0.409925 0.895206 1.91591
0.0795698 1.22338 2.70213
0.863432 -1.62498 3.62887
-1.07239 -0.982802 3.4637
0.745989 0.515138 2.93415
-0.958801 0.408416 2.94952
0.161036 1.5106 2.75288
0.208303 -1.29956 3.58031
0.348439 1.09087 2.92054
-0.19961 -0.372953 3.10953
0.74942 0.332773 2.90292
1.48845 -1.60434 3.96021
-0.627002 -1.16693 3.36451
-0.0763404 0.916668 2.37899
1.11744 -0.322629 2.89436
0.136758 1.27562 2.32274
-0.962377 -1.12543 3.36832
0.823925 1.18109 2.45992
-1.22517 -0.302613 3.1612
-0.223725 -1.09416 3.41285
-0.0434865 0.434148 2.94775
-0.290218 -0.0220302 1.49888
-0.398413 0.771284 1.92177
1.56711 -2.255 4.00304
-0.211159 0.96907 2.89987
1.32435 -2.34625 3.98905
0.469472 -0.543054 3.15619
0.289446 -1.557 3.74514
-0.156129 0.253457 2.94738
0.0454907 0.539182 1.34517
1.4972 -0.462976 2.83654
0.322168 0.946083 3.02496
0.51702 -0.185312 0.369579
0.994739 -1.52342 3.77692
-0.801109 0.231671 2.98481
0.793871 -0.440062 3.05002
0.00894515 0.572697 1.30083
-0.360596 0.740499 2.01194
2.28627 0.13815 2.97532
0.977184 -1.39568 3.55451
1.16285 -1.63463 3.54602
0.136123 0.298745 2.87438
1.14938 -0.390317 2.86157
-1.2529 -0.354956 3.93368
0.904832 0.930142 2.8032
-0.0752298 0.637225 3.02315
0.401718 -1.30026 3.47943
1.81263 0.27603 2.7715
2.06649 0.600486 2.65346
1.28598 -1.59784 3.64039
2.00933 0.37252 2.76192
1.5168 0.146963 2.86714
0.589259 -1.53205 3.66863
1.09015 -1.76356 3.79159
1.39603 0.777215 2.6277
-0.00872842 -0.662571 3.2403
1.05834 -1.57542 3.56655
-0.327233 -1.09386 3.49564
0.607168 0.0909792 2.86346
-1.27778 -0.64144 3.31891
1.42112 -1.92032 3.77468
0.0447607 0.82403 3.05165
0.419522 -1.48619 3.52774
1.65488 0.596806 2.64125
3.00754 -0.889059 3.17234
-1.40148 -0.603882 3.3053
1.92818 0.292885 2.84141
-0.879256 0.196622 3.03982
-0.293716 1.40985 2.92508
0.592398 -1.55557 3.64364
-0.54747 0.671654 2.15701
1.28428 -2.42418 3.48668
0.422187 -1.60848 3.61667
0.552895 0.160487 2.84556
2.09095 0.285446 2.75534
1.20256 0.816166 2.72293
-1.13676 -0.646782 3.28527
2.29498 -1.16712 3.27322
1.58829 0.119198 2.72737
1.26291 -1.66972 3.49696
1.20568 -1.57246 3.64435
1.18298 -1.63255 3.60116
1.23656 -0.56265 3.03354
-0.250222 0.845972 3.01881
0.357393 -1.45507 3.57002
-0.404846 0.982995 2.96066
2.0973 -1.04973 3.4015
1.69794 -0.501659 2.81355
0.77247 1.43122 2.84664
1.48997 0.193295 2.77552
-0.286993 -1.41166 3.53474
2.26263 0.24428 2.75094
0.127447 0.511817 2.74992
-0.691174 0.664553 2.0312
2.11552 -0.436065 2.79991
1.49758 0.104986 2.81827
0.864294 -2.20949 3.53925
-0.356824 0.749813 3.03875
0.131463 -0.786044 3.24189
2.40472 -1.55975 4.43938
-0.89133 0.0443609 3.07497
0.834002 0.682235 2.88527
-0.230226 -0.778211 3.33853
-0.983246 -1.10319 3.40953
1.10803 -0.0129838 2.79943
0.749115 -1.79729 3.57372
0.530642 -0.710215 3.24462
0.0823764 0.813256 3.04571
2.34284 -1.26674 3.25013
-0.867735 -0.309055 3.11476
1.45728 0.0954426 2.93153
-0.899855 0.775997 2.67336
0.922914 -2.66998 3.72706
-0.45976 0.793836 3.09151
1.54598 -0.605953 2.86763
-0.84806 -0.315926 3.11038
1.79607 0.071234 2.8296
0.0319647 -1.65139 3.61087
1.92365 -0.0423821 2.63519
-0.427199 0.24509 2.94746
-0.215713 -0.941868 3.41773
-0.164915 0.910843 1.95835
-0.0299107 -0.109186 2.99578
-0.00891873 0.827615 3.736
-0.708851 0.552018 3.04097
0.244394 0.578917 2.93087
2.53217 -0.350081 3.32435
-0.327558 -0.868031 3.39744
1.39933 -0.0686528 2.83153
-0.888242 0.0210821 3.47337
0.379098 -0.829655 3.31912
1.76801 1.04687 2.55561
-0.911227 -0.0279815 3.1016
1.81825 -0.749772 3.03851
1.80052 0.892385 2.53769
1.00902 1.59809 2.95885
1.50832 -2.21175 3.4738
0.804528 0.642343 2.90422
1.15865 -0.244031 2.86299
-0.763078 -0.666088 3.26942
1.44293 0.791187 2.55459
-0.732385 0.687928 1.97572
-0.422863 -1.16719 3.59446
1.47352 0.460599 2.76545
-0.688166 0.757374 1.8391
0.388971 -0.213993 3.04696
-1.03732 -1.02005 3.26772
-0.566217 0.476633 3.05196
-0.859754 -0.45716 3.17901
0.886956 -2.07588 3.67903
-0.703945 0.594591 3.18995
-0.651965 -0.190479 3.11562
1.03451 1.14902 2.52085
-0.873048 0.225118 3.04006
1.44771 1.15463 2.59903
0.993702 -2.24999 3.43903
0.501699 -1.00625 3.38046
0.244473 -0.998336 3.51709
-0.467409 0.83472 1.89963
0.824809 -0.142478 2.94326
0.763616 0.503317 2.94548
0.315758 -1.68569 3.59004
0.764039 -1.63589 3.74938
2.08392 0.206368 2.87175
0.0882216 -0.066888 2.94977
-1.2583 -0.839177 3.17731
0.948763 0.640528 2.90678
1.47812 -0.743904 2.89739
-0.986417 0.235092 2.99431
0.320205 -1.9119 3.61061
1.89074 0.776404 2.9598
-0.946124 -0.0285783 3.08275
0.145375 -1.65167 3.59862
1.69297 0.577801 2.67202
-1.07126 0.04377 3.01083
-0.488793 0.714141 1.98687
-0.943131 -0.790824 3.35021
2.54874 -0.389738 2.95493
0.196161 0.756816 3.06726
-1.01782 0.365174 3.02774
0.500547 0.00318893 2.94273
-1.4064 -0.757761 3.2587
-0.0979728 0.950685 2.03509
0.29843 0.724293 3.03473
1.67875 0.773233 2.67993
-0.946581 -0.0718949 3.09866
-0.106224 -1.41982 3.54996
0.0113534 1.22462 2.80178
-0.054861 0.519659 2.98951
0.74959 -1.60278 2.1883
0.859248 -0.182778 2.98133
-0.767779 0.158477 3.05743
-1.49506 -0.99237 3.26894
1.72522 0.758463 2.58501
-0.892453 0.197821 3.62211
1.04767 -0.152394 2.85326
-0.190165 -0.956244 3.38051
0.359182 0.574369 2.99091
1.10038 1.0895 2.50824
1.92643 -0.549537 2.91657
-0.118488 -0.123724 3.06823
1.72428 0.508951 2.65064
0.379108 1.21944 2.92078
0.393742 -0.899283 3.27319
0.211596 0.410416 2.89715
0.585648 -2.04801 3.5737
0.380206 -1.26411 3.5902
-0.170543 -0.351552 3.10692
1.36446 1.03385 2.61016
-0.677483 -0.101577 2.15955
0.507641 -1.70276 3.82848
-0.890572 0.403001 2.94838
-0.473656 -1.20939 3.55497
0.56577 1.37946 2.86599
1.35117 1.00572 2.60142
-0.0506154 -0.306974 3.08937
0.327296 1.48954 2.70041
-0.855197 -1.07911 3.34765
1.03577 0.467788 2.9062
1.91315 -2.61504 4.51692
0.577363 -0.277418 2.97106
-0.308641 0.798527 1.88363
-0.205559 1.13752 2.95333
-0.463907 0.47386 3.03676
-1.18067 -1.01658 3.30085
1.41456 0.717137 2.6119
-0.830122 -0.238388 3.14412
0.396098 1.13101 2.8665
-0.798872 0.691624 1.95947
-2.09127 -0.767686 4.60077
1.59647 -1.90567 4.30514
1.11245 0.256834 2.79453
0.0827789 0.76343 1.54832
-1.14981 -0.469419 3.13971
-0.533933 0.695571 2.04281
0.64381 -1.47954 3.73426
-0.00969841 -1.41917 3.69268
1.06651 0.233388 2.86399
-0.238028 -1.212 3.51964
-0.68296 -0.43312 3.25616
1.01105 -2.18245 4.10834
0.417212 1.03229 2.87553
2.43446 0.834369 2.8975
1.06766 -1.29519 3.39299
2.92416 -1.10854 3.11608
-1.33036 0.3759 3.00307
1.66891 -0.369934 2.75619
1.51156 -2.25447 4.50365
1.47741 0.932538 2.5934
2.18228 0.253013 2.86204
-1.53469 -1.23503 3.33275
2.30202 1.02914 2.98031
0.78242 0.286224 2.90501
1.81612 -1.90489 4.19571
1.08411 -0.974764 3.30447
0.957069 0.568767 2.90915
1.1904 1.2099 2.58642
-0.175317 -0.140573 3.06737
0.157734 -0.925401 3.32691
-0.487183 0.567308 3.05942
0.741759 1.37978 2.84468
-0.83943 -0.110553 3.10588
0.576069 1.26522 2.874
-0.918793 0.775648 2.79802
1.57498 0.735812 2.57404
0.226186 0.656942 3.12139
-0.785666 -0.566659 3.23781
1.47289 0.753116 2.54232
0.853871 -0.0905289 2.90723
-0.483368 0.806728 2.42395
-1.21793 -0.872987 3.3448
1.78884 -0.211255 2.75401
0.619399 1.33804 2.8647
1.3074 -0.286514 2.81184
0.491468 1.13326 2.89463
-0.869949 0.424278 3.47745
0.262529 -1.21387 3.58567
0.719296 0.455565 2.91457
0.460601 -0.107666 0.239351
0.791374 -0.264233 2.97906
-0.314733 0.784313 1.94953
-0.322947 0.430447 3.01122
-1.46691 -1.05409 3.19644
0.386849 -1.05765 3.4176
1.24864 0.487698 2.81392
1.7776 0.318784 2.79199
0.616313 -1.90523 4.51051
1.78962 -0.218062 2.76534
-0.568366 0.853002 1.88067
0.139544 1.41607 2.66845
-1.42098 -0.965616 3.21573
-0.913704 0.512405 2.96231
-1.13787 -0.00468734 3.68743
-0.492534 -0.177808 3.0875
-0.413423 0.899507 2.65593
-0.676912 -0.101997 2.15947
-1.27258 -1.25058 3.31785
1.86079 -1.8784 4.33085
-0.96134 0.0383446 3.09987
-0.81383 -0.430461 3.2235
-0.789813 -1.25765 3.46655
2.73641 -0.14136 3.74743
0.679927 0.297781 2.88455
0.244519 1.3857 2.79563
-0.400807 0.731203 1.99746
0.13675 1.08437 2.90847
1.83144 -0.361977 2.8306
2.51539 -0.942174 3.15643
0.692431 0.36749 2.88881
1.2458 -2.35107 4.28215
1.54376 0.943774 2.47698
-1.06224 -0.358512 3.23832
0.239939 -1.30207 3.55513
1.13157 0.326983 2.85192
1.66514 -1.12756 3.11728
0.445957 -0.582504 3.16974
0.87733 0.893564 2.87821
2.18929 0.345361 2.62241
0.591333 -1.46054 3.62639
-0.181056 -1.46342 3.37539
-0.413044 0.213324 3.0583
1.1039 -2.40042 3.88217
0.429167 -0.536801 3.15819
0.217286 0.864307 2.97918
-0.0960856 0.461409 1.42334
0.245567 0.732815 3.03661
1.33457 -1.50851 3.57809
0.569222 0.161628 2.8321
1.45521 -2.46541 4.00334
1.27082 -1.80068 3.79913
-0.515998 -1.46085 3.65783
0.30092 0.267852 2.88912
1.38463 -2.0549 3.50006
2.1507 0.262254 2.64257
1.54442 0.905618 2.60096
-0.484171 -0.488011 3.14845
-0.804516 -1.32339 3.43592
0.93112 0.244682 2.86809
2.12295 -0.193731 2.93409
0.349069 -0.457818 3.07994
0.413767 0.972609 2.96768
2.30874 0.544626 2.68843
2.26877 -1.11355 3.29646
1.05688 -1.30165 3.50732
-0.479851 0.384149 3.01174
1.35713 -0.364839 2.85678
-0.483812 0.751168 1.93168
-0.329123 -1.23863 3.49743
-0.929901 0.362805 2.94105
2.49291 -0.154348 3.5633
0.696813 1.02639 2.84285
0.170639 -0.348177 3.04325
0.116839 1.44739 2.67305
-0.710766 0.726115 1.81526
-0.955603 0.0294125 3.09134
1.41141 -1.09531 3.17637
-0.538562 -0.31448 3.13372
0.876217 1.13764 2.46379
-0.591703 -0.971825 3.46357
-0.41535 0.427288 3.02391
2.69672 -0.170906 3.73525
0.0144912 0.958699 2.96188
0.81532 -0.522617 3.08215
1.29816 -2.45086 3.99334
2.00021 -0.0527263 2.95542
-1.30299 0.281076 3.02212
-0.85835 -1.44419 3.52778
1.89904 0.417632 2.64712
-0.794791 -0.483731 3.0778
0.121818 0.951432 3.05054
2.67624 -2.00483 3.65051
-1.2536 -1.33489 3.37454
1.58865 -1.8034 4.29041
-1.20164 0.232711 2.97583
3.09689 -0.998464 3.11211
-0.712252 -0.475282 3.26078
1.73275 0.280321 2.74941
2.10699 -0.14504 2.93811
-1.22386 -1.29099 3.36285
-0.617105 0.695417 1.95001
1.95637 0.0604292 3.01518
-0.231641 0.554703 2.99358
1.04399 -2.22855 3.86599
-0.578082 -1.29314 3.43615
-1.03526 0.305048 3.00146
-0.27901 0.749125 2.11718
1.94617 0.491737 2.63572
0.95326 -0.406741 3.00902
1.24262 -1.657 3.56793
1.30231 0.121703 2.78515
1.16958 -1.57608 3.54953
-0.134112 -0.663561 3.27454
-0.690388 -1.55283 3.25848
0.582503 0.836034 2.93631
1.71484 -1.8861 3.62757
0.777087 0.0918295 2.88652
-0.929195 -1.50556 3.40404
1.03808 -1.7612 3.56941
1.071 -0.599094 3.0337
0.352026 0.808167 2.99528
2.02935 0.473667 2.61956
-0.634492 1.13515 2.85884
1.50396 0.79567 2.58911
3.18978 -1.11124 3.23499
2.17253 -0.034206 2.91851
-0.621411 0.171051 3.04063
-0.316993 1.41548 2.94107
-1.39685 -0.591242 3.20202
0.56582 -1.43781 3.58717
-2.30699 -2.44226 5.48962
-0.352461 -0.853292 3.3478
0.590181 -0.0412956 2.90496
-0.337918 0.770355 3.19209
0.0212326 -1.36174 3.54184
-1.02366 0.107335 3.06342
-1.34986 -0.809769 3.19532
-0.724389 0.00846236 3.05903
0.521734 -2.0723 3.57414
2.14383 1.00579 3.04584
-1.00256 0.681248 2.9059
1.99765 0.384126 2.8585
0.105838 0.595366 2.98476
0.514197 -0.782347 3.23016
-0.582692 -0.920903 3.35924
0.351784 0.0693444 2.91551
-0.414385 -0.182891 2.99528
0.237051 -0.742225 3.27546
0.693952 0.761692 2.93859
0.0454329 1.32001 2.85232
0.450199 -1.85457 3.58414
1.19752 0.00941193 2.78943
0.856747 0.722796 2.9092
0.831775 -0.681074 3.1512
-0.233683 1.00447 2.74478
-0.314431 0.723018 3.0066
1.80199 -0.564705 2.84847
0.106157 -1.51207 3.57509
0.0989504 -0.789328 3.27766
0.340508 0.0138194 2.94051
-0.279432 0.568599 1.83388
2.15912 0.22182 2.99336
0.405448 0.706139 3.02834
-1.11805 -1.03136 3.33893
1.2671 -2.57863 3.61436
1.03699 -0.727362 3.09576
1.69131 -0.0173148 3.10692
-0.0532549 -0.695708 3.28294
1.00785 0.0711094 2.81139
-1.10335 -0.103897 3.14015
1.92963 -0.17248 2.88841
2.43339 -1.89203 3.32841
0.166704 0.80151 3.01141
1.37875 0.194669 2.01439
1.55541 0.694801 2.61812
-0.844097 -1.59814 3.44969
0.471187 -1.53135 3.58923
1.85861 -0.283234 2.72602
0.877704 0.0471278 2.88845
-0.99668 -0.685964 3.31314
0.0702809 0.199115 2.76492
1.48076 0.569674 2.66168
0.714859 -0.916295 3.27989
0.605457 -0.123769 2.952
2.64844 -0.319927 2.93199
0.575185 -1.77194 3.72997
-0.940773 -0.886402 3.36133
1.3989 0.524791 2.69104
-0.995265 0.262812 3.054
-0.581955 -0.0832805 3.09298
1.76888 -1.05341 2.99298
1.20424 1.24161 2.72863
-0.926184 0.0142993 3.61757
0.0964562 0.654726 2.99121
0.257664 1.63302 2.79039
-0.420148 0.706684 3.6495
1.26895 -0.0613779 2.79334
-0.97316 -1.35311 3.41087
0.568829 -0.843698 3.32588
-0.0551108 0.00663549 0.839365
-0.0500468 -0.251536 3.0619
-0.56364 0.777648 1.84839
1.22478 1.07896 2.57585
0.691309 -1.12156 3.42691
-0.819362 0.521573 3.05848
0.590476 -1.75224 3.65196
-0.664903 -0.23946 3.14353
0.299289 1.14858 2.93385
0.849196 -2.14323 3.44354
0.643583 0.440922 2.8946
1.24325 -1.01576 3.20146
1.88884 -1.8662 3.41727
-0.914603 0.624577 3.23344
0.936444 -1.86226 4.35801
-0.194256 -0.192891 3.05781
1.27913 1.20423 2.69268
0.912967 -1.79039 4.20075
-0.855185 -1.0302 3.42976
-0.0142969 -0.0959905 0.798338
0.460484 -0.988514 3.42365
0.918264 0.507575 2.87987
1.44652 -0.155574 2.77168
0.000739425 1.23032 2.72951
-0.178555 1.14972 2.96055
-1.16069 -1.1756 3.26927
0.985517 -1.90857 3.94047
-1.00723 0.395383 2.91775
-1.3304 -0.39815 3.1872
0.0576879 1.0947 2.93104
0.439811 -1.24492 3.53387
0.585205 -1.68756 4.16835
-1.38763 0.370538 3.00213
-1.1045 -0.216036 3.12058
-0.54373 0.734232 1.95064
0.289065 -0.359162 3.07421
0.890013 1.05183 2.74857
0.0716967 0.615939 1.32756
0.896185 0.407657 2.90113
0.994135 1.03879 2.47621
-1.35598 -0.326762 3.16853
0.0337631 1.13528 2.41431
-0.0412679 -1.19382 3.46966
1.33687 -0.22355 2.80718
-0.483744 0.824693 1.89043
1.89362 0.297343 2.82022
1.62171 0.670459 2.56797
1.15471 -1.05925 3.32587
-0.331578 0.529705 3.05562
-0.0299106 -0.194561 3.05689
0.726129 1.1403 2.81683
1.14993 1.24295 2.72779
0.820558 -0.996019 3.25579
1.257 0.45594 2.82564
0.79107 0.146644 2.86737
1.35827 0.879221 2.59601
0.630566 -0.153794 2.96091
0.340555 1.39996 2.85324
1.75892 -0.898849 3.02171
-0.0440549 0.660722 3.21301
-0.908507 0.251085 3.40227
-0.439437 -0.106664 3.05353
0.486464 1.28136 2.88457
0.58045 -1.50605 3.61163
-1.4067 -0.903221 3.23041
1.47492 0.498589 2.69183
0.803582 -2.24732 3.58263
-1.50475 -1.18762 3.29819
-0.80847 0.438791 3.01068
-0.0740264 -0.0340229 1.01377
1.0448 -0.34433 2.9182
1.04394 -1.95318 3.8162
-0.472112 0.747648 1.89724
0.0194724 -1.16361 3.42904
1.61743 0.330806 2.66748
0.644343 1.06873 2.89977
0.190894 -0.319802 3.04271
0.0664792 1.39647 2.49519
0.41295 -1.16677 3.56202
1.82523 -2.43607 4.14922
1.03317 -0.260043 2.87537
-0.499542 0.448601 2.98826
0.10044 1.31632 2.64882
0.133845 1.12206 2.88132
1.45813 -1.49608 3.72048
0.3767 0.995743 2.99397
0.250642 -0.492594 3.11411
-1.51718 -0.232451 4.42751
1.33237 0.240573 2.78815
1.01173 -1.41632 3.46098
-1.12169 -0.616011 3.31003
0.0149559 0.610138 1.52841
1.29897 -0.444098 2.88202
1.01073 0.913494 2.77853
1.07924 -1.36314 3.4869
0.111677 0.24019 2.88867
-1.21528 0.0664761 3.52293
-1.18319 -0.438917 3.20612
0.858763 0.325413 2.89661
2.06499 0.304426 3.18364
0.705911 1.15361 2.83878
0.530972 -1.34935 3.58275
0.0115855 1.05201 2.91467
2.09501 0.451336 2.63018
3.12403 -1.04778 3.10724
1.19715 -1.88573 4.08
-0.996521 -1.26538 3.48144
0.699316 0.978889 2.84528
1.79053 -1.87941 3.94002
2.18574 -0.123323 3.17577
1.60716 -0.363836 2.75398
-1.37809 0.325444 2.95922
1.72243 0.163525 2.74575
-1.27042 -1.42184 3.16121
-0.589675 0.320931 3.15027
1.4715 0.786262 2.60278
0.069847 -0.626536 3.19178
-0.486912 -1.49098 3.47915
1.52509 -1.90026 3.45365
-1.17535 0.145745 2.95695
1.68888 -0.538903 2.78708
2.13229 0.209407 2.89431
0.156603 0.833135 2.98847
1.25597 -1.57879 3.74576
0.706744 -1.44305 3.58197
-0.0837136 0.926191 3.03331
-0.0258111 -0.5453 3.16815
1.94058 -0.216114 2.88477
0.642153 -1.60246 3.68325
1.73175 0.202174 2.74677
2.10397 0.336225 2.64591
2.66714 -0.767434 3.09536
-0.324894 -1.04327 3.47911
1.47873 0.409882 2.69585
0.321172 1.33213 2.90479
1.05009 -2.34794 3.31521
0.991457 -0.31328 2.9188
-0.638768 0.757717 1.86741
1.53877 -1.13703 3.25271
0.228038 -1.12835 3.50949
-0.20215 0.785191 1.96111
1.00074 -1.4844 3.68946
0.902508 -0.258985 2.97993
1.74264 0.453195 2.70006
-1.03093 0.454822 3.04756
-0.256894 -1.05919 3.35604
2.04594 0.0664119 3.14349
-0.883192 0.563884 3.08191
1.37296 -0.22359 2.81888
0.0974073 1.36034 2.62329
-0.567785 0.835244 1.87882
-0.525952 0.486432 3.018
-0.0837154 -0.0325549 1.02671
-0.489941 -1.08907 3.56818
1.07695 1.13435 2.69648
0.630207 -0.109858 0.374258
1.74857 -0.213445 2.80431
-0.354539 -1.31898 3.49879
0.245648 1.03749 2.98828
1.44672 -3.07228 4.67086
1.41942 -0.395998 2.83747
0.070856 0.610833 1.40337
-0.205607 0.30821 2.98059
2.73779 -0.474606 3.85059
0.196786 1.48422 2.64501
1.23266 1.05099 2.7373
0.0311129 -0.371494 3.09637
0.946656 1.19516 2.57204
1.46225 0.379147 2.91882
0.268501 -1.29173 3.53889
1.40732 0.979301 2.62125
1.23378 -0.34812 2.84858
2.23159 -1.79667 4.35443
0.057259 0.933164 1.87593
-0.986813 0.36266 2.96189
-0.866822 -1.1946 3.40977
-0.9402 -0.577934 3.15033
2.07576 0.4231 2.63677
-0.0979479 0.199284 2.9368
3.02115 -1.24351 3.09495
-1.00141 -1.42265 3.30924
1.24476 -2.35493 3.92434
1.2623 0.875032 2.7456
-0.307066 0.904221 3.0656
1.0125 -1.58471 3.746
2.44059 1.08278 2.91808
1.72982 0.146394 2.7332
-0.178559 0.594945 3.0181
0.331049 -0.528512 3.14573
-1.22024 0.339857 3.68178
-0.601513 -1.63086 3.42236
-0.154135 0.276829 2.94568
0.918573 -1.55558 3.82795
2.43923 1.10903 2.8632
1.19641 -1.79391 3.53658
1.03337 -0.464905 2.93476
-0.0701095 1.00647 2.99885
2.32817 0.619669 2.75649
0.534061 -1.46367 3.73852
-0.317259 0.25201 2.99924
0.970477 -1.66482 3.69995
2.32457 -0.218847 2.92455
-0.208536 -0.460377 3.16414
-0.728359 0.676287 1.98476
1.26999 -2.19354 3.74821
-0.00303123 0.761473 2.99727
0.277283 -2.01415 3.59885
-0.671642 0.0672246 3.05244
-0.985403 -0.573509 3.30399
2.79347 -0.797098 3.13573
-0.667539 -0.733017 3.40544
-0.410613 -0.928145 3.39969
-0.112716 1.35311 2.90413
1.22865 1.27969 2.71465
-0.822781 0.668905 2.25702
0.445471 -0.648953 3.14481
-0.554006 0.12971 2.99382
0.405599 -1.60749 3.55743
-0.899337 -0.668075 3.40298
2.43284 -1.88942 3.43093
1.32005 0.732975 2.68602
-0.402817 -0.958024 3.4284
-0.508302 -1.55867 3.50559
0.458627 0.0865388 2.86807
1.19472 0.892669 2.74525
-1.34141 -0.561384 3.2301
2.18857 0.964096 3.04347
1.91759 -0.490977 2.797
-1.75037 -1.50448 3.52941
1.47378 0.235038 2.84678
2.41976 -1.28319 3.7773
2.02461 0.241751 2.90079
0.473302 -0.512586 3.14128
-0.413754 0.684936 2.10552
0.0875241 0.695948 1.45821
2.95603 -1.16973 3.1066
2.54574 -0.791726 3.70768
-2.22352 -1.91726 4.62604
-1.12509 0.233411 3.05333
-0.836245 0.320761 2.96648
2.3831 -1.3015 3.2578
-0.998941 -1.37561 3.46272
0.363933 1.04238 2.98562
2.32476 0.964036 2.93273
1.58341 -0.440683 2.86597
1.87618 -1.95629 4.10809
-0.755642 -1.31873 3.50478
-1.32937 0.309546 3.01652
-0.707714 0.69414 1.97161
1.09217 -2.2021 3.70496
-0.0298531 -0.431329 3.16744
2.1022 0.356075 2.62912
0.876392 -1.69812 3.68166
1.03435 -1.5272 3.54375
2.09364 -0.155785 2.91654
1.24229 -0.627361 2.9799
0.563045 -1.4386 3.59248
0.787993 -1.69121 3.64394
-1.37872 0.118659 3.08407
1.27243 -2.48142 3.47806
-0.566742 0.821726 2.95681
2.77479 -0.703531 3.14404
2.21513 0.273475 2.63975
1.28314 1.02835 2.7134
1.29686 -0.572448 2.85243
-0.665245 0.643281 2.07408
2.10822 -0.010638 2.9244
1.18228 -1.7197 3.78445
-0.201992 0.186135 2.97786
0.493613 -0.593188 3.20881
1.0602 0.796587 2.80655
1.27944 1.23499 2.62759
1.6747 0.113932 2.76198
-0.0800245 -1.56893 3.63691
-0.0611742 0.677411 2.98007
1.97673 -2.25078 3.5901
1.14544 -0.0450524 2.79898
0.0867054 1.28038 2.76926
-0.546253 0.000752693 3.06851
-0.371419 -1.37915 3.52906
1.39758 -0.748212 2.92722
-0.915681 0.674446 2.93904
2.26489 0.937399 3.2062
0.903597 -2.65656 3.72869
-0.552777 0.594554 3.0555
0.875229 -0.767278 3.15282
1.42836 0.0457252 2.87249
-0.54747 -0.769532 3.30272
-0.867252 -0.562938 3.17998
-1.05582 0.408364 4.04579
-0.314026 0.786338 3.03612
0.805292 -1.52357 3.72519
-0.925233 0.0377364 3.08
2.78528 -0.507755 2.89683
-1.10725 0.230313 3.03184
-1.00851 0.775297 2.99947
0.0445632 -0.700947 3.23813
0.177862 -1.7498 3.59394
1.8382 -0.168316 2.87222
-0.0867757 -0.951112 3.38314
0.314537 -1.72296 3.62573
-0.195772 -0.142817 3.04636
0.0701305 1.2372 2.78096
1.39749 1.03888 2.62908
0.95225 0.536208 2.88925
-1.02215 0.369487 3.03135
0.251666 1.30438 2.91584
1.82176 0.885538 2.54455
-0.548962 0.728403 3.71008
-1.16353 -0.109106 3.12657
-0.495696 0.63709 3.07105
1.49324 -0.82324 2.84436
-0.279306 -1.0761 3.48743
-0.273876 -0.0811586 3.04958
-0.307297 0.495759 3.29046
1.64877 -0.793256 2.89342
1.20048 0.537156 2.80458
-1.25618 -0.910625 3.26698
-0.00555211 -0.0489876 0.66401
-1.30012 -0.111687 3.1075
1.78808 0.497042 2.65051
0.620883 -1.39606 3.55267
0.198543 0.559964 2.92245
-0.801463 0.4177 3.0484
-0.650363 0.703271 2.20442
1.44457 1.03191 2.66542
0.579906 -0.0796227 2.9222
0.503002 1.2583 2.89336
-0.593238 0.67998 3.09169
0.26541 -0.886577 3.32113
2.03643 0.205668 2.82102
-1.26544 -0.0421404 3.08051
1.1321 1.22964 2.60243
1.03111 -0.840075 3.27888
0.592147 0.608463 2.96637
0.718796 -2.42968 3.61176
-1.28927 -0.287711 3.19929
-0.745702 0.752392 1.79274
-0.720501 -1.11883 3.42454
-0.277824 0.488575 2.99252
0.51986 -1.7419 3.62786
-0.210512 -0.229155 3.09302
0.430344 1.13781 2.90979
1.56918 -2.05835 3.43491
-3.40985 1.10839 7.05097
0.602003 -1.07534 3.3921
-0.774323 -1.05643 3.48412
-0.832949 0.751186 4.00005
0.966847 -1.44917 3.52416
0.98455 0.528565 2.90049
0.649573 -0.199229 2.94321
1.09834 -2.27107 3.78571
-0.854701 0.227351 3.03533
-0.32226 0.800773 2.09879
0.0542807 0.513945 2.95116
1.14745 -0.973583 3.29023
0.507676 1.35348 2.88988
-0.30506 0.898205 1.93697
-0.730589 -0.156718 3.12266
0.851313 -1.34814 3.66822
1.0572 -2.0059 3.75214
-0.985182 -0.392723 3.15349
-0.268641 -1.12416 3.49381
-0.0693393 0.339414 2.94515
0.0471884 1.35724 2.64194
2.09656 -0.991536 3.61182
-0.762932 0.706307 1.89747
1.75078 -0.3511 2.72933
1.61288 1.00729 2.53237
2.50311 0.700273 2.7952
1.55482 0.366956 2.51135
2.2893 -1.2634 3.56472
-1.06231 -1.09054 3.10158
-0.671716 0.733013 1.92055
0.388128 -0.312459 3.07301
-0.254113 0.362741 2.948
0.492851 -1.28691 3.68499
0.147711 -0.547395 3.14558
2.33395 -0.15269 3.02282
-0.236294 0.235646 2.96456
1.10774 -1.61084 3.63732
-0.736645 -1.45796 3.52486
-0.551327 -1.55977 4.82543
1.67921 0.853867 2.54614
1.36219 0.821217 2.63364
2.55072 -0.603482 3.08562
-0.92822 -1.39539 3.48539
0.28287 1.37746 2.90642
-0.0510766 0.207884 2.92534
0.872916 -0.505108 3.03002
1.55258 -1.7556 4.08444
0.976874 -1.37663 3.50528
-0.685478 -1.35064 3.46463
-0.794763 0.32562 3.00606
2.36075 -0.214039 2.89817
1.1263 -0.429929 2.8845
0.670401 0.989467 2.85656
2.28079 0.630687 2.7609
-0.129002 -1.33755 3.57168
0.085044 0.258385 2.87539
2.38332 0.898159 2.93454
0.689027 -2.44585 4.00814
-0.722109 -0.434487 3.1676
0.610108 0.972221 2.88671
1.0585 -1.78031 3.73071
-1.3923 -1.14101 3.16723
0.0607242 0.405104 2.90751
1.14879 -0.351134 2.86951
-0.784899 0.730852 1.8483
0.597335 -1.2147 3.52713
1.36039 -1.99384 3.99015
0.262631 0.345222 2.88407
-1.06981 -0.130854 2.95957
-0.827717 0.716452 1.85854
1.06376 -0.314424 2.86558
0.189265 1.15614 2.95261
0.0795434 1.31176 2.44144
1.3458 0.419453 2.79576
1.04541 1.00304 2.47256
-0.455898 -0.300651 3.10943
-0.996196 -0.0125981 3.10599
-0.652718 -1.11454 3.39485
0.299065 -1.85886 3.63939
0.387788 -1.42494 3.54455
1.32778 -0.469174 2.84787
-0.491105 0.701573 2.02319
1.21681 0.26181 2.83519
1.0528 -1.6082 3.72878
0.548389 -1.50087 3.6621
-1.38019 -0.494313 3.24437
0.619129 0.950994 2.91659
0.0596662 0.941967 1.95725
0.74929 1.1654 2.8057
1.64888 -2.62496 4.05814
-0.952135 -1.38858 3.56705
0.644861 0.215775 2.89175
-0.598652 0.337331 2.99247
1.58711 -1.90642 3.42363
1.40101 -1.30292 3.36409
0.0586549 1.04649 2.91937
2.3384 0.24636 2.74557
-0.623934 -0.447893 3.18989
0.61285 0.272357 2.89582
2.82328 -1.40609 3.10755
0.459233 -1.27826 3.49246
1.22211 -1.73073 4.01705
-0.79603 0.684459 1.88429
0.558031 -0.387606 3.04391
1.11423 -1.65831 3.61872
-0.0694101 -1.58 3.53295
-0.523046 0.159251 2.9913
-0.279952 -1.08179 3.48392
0.847835 -2.33597 3.69645
-1.44068 -0.614741 3.04716
0.772276 0.846829 2.86229
1.11157 -1.64172 3.58945
0.84859 0.10887 2.87379
-0.80886 -1.44977 3.35503
1.59788 -2.13089 3.4377
1.47336 -2.26675 3.84012
0.374582 -1.74562 3.63813
-0.544012 -0.575043 3.10464
0.346213 0.836737 2.96932
2.01232 -0.780738 3.25957
0.668542 -1.62601 3.61994
-0.45206 0.678813 2.10565
1.93489 -0.962278 3.25252
1.30136 0.187154 2.79061
1.81605 0.302617 2.81406
1.25798 -0.528812 2.9227
0.774617 -2.07734 3.65986
0.78132 -1.71833 4.0414
1.31189 0.6544 2.71867
2.20344 -0.0912957 3.02394
2.22704 -0.192347 3.58975
-0.276848 0.0252996 3.02543
0.415404 -0.809649 3.31511
-0.230133 0.721319 3.10562
-0.578261 -0.602274 3.31053
-0.0769246 1.09075 2.9607
0.534016 -2.32561 3.71599
0.702586 -0.0133089 2.91082
-0.796976 -0.798116 3.44644
1.92671 -0.813656 3.1111
-1.05035 0.222208 3.06046
0.894815 0.0918237 2.87473
1.67685 -0.768059 2.55868
2.61376 -1.00093 3.13618
1.0362 -0.667093 3.05299
-0.0936415 0.811653 3.07431
0.00558359 -1.36538 3.36231
-0.253261 0.0563783 3.04239
-0.807357 -1.60305 3.44705
1.84011 -0.511731 2.75392
1.64299 0.698164 2.66214
-0.912791 -0.690918 3.31697
-0.196368 0.768722 2.10857
2.51027 -0.420368 2.98967
1.71459 -2.20595 4.67541
-0.550033 0.310423 3.05655
-0.935795 0.0182341 3.08657
1.43825 -1.74919 3.9786
0.460533 -0.419936 3.06019
0.102176 1.24749 2.43893
-1.05064 -1.25213 3.29652
1.125 -1.88382 4.09671
0.964914 -0.374038 2.98859
-0.346634 0.766223 1.98102
1.04805 -1.56258 3.61932
1.34598 -1.21091 3.26276
0.570419 0.359987 2.91501
1.31213 -2.44385 4.04579
0.696158 -0.358813 3.01549
1.44445 0.975505 2.63061
1.49466 -1.21076 3.36353
0.496699 0.317732 2.83396
2.50831 0.310539 2.64993
2.74103 -1.0437 3.12039
0.78843 -1.71313 3.91551
1.15864 0.192203 2.78923
2.24595 0.154206 2.98367
0.163984 -0.584677 3.17221
-0.362012 0.918267 2.7804
-0.0680336 -1.93194 4.27724
-0.177478 -1.50669 3.62968
0.935224 0.144044 2.81716
2.34331 -0.0922589 2.9845
1.57555 -0.485364 2.76644
1.06314 0.827357 2.81495
1.41567 -1.4119 3.38965
1.39188 0.26896 2.78678
1.23854 -1.48103 3.50929
2.17494 0.288167 2.6412
1.21758 -1.56278 3.48502
0.647046 -0.502201 3.11703
0.592168 -1.55778 3.65385
-0.33161 0.726409 2.06491
-1.45773 -1.23005 3.06677
-1.37964 0.282463 3.08954
-0.012607 1.32289 2.89441
1.44336 -2.30594 3.8579
-0.730122 -0.47648 3.20599
0.375475 0.956048 2.97745
1.76781 -2.05673 3.40258
0.636236 1.58357 2.86109
0.133938 0.76879 3.02755
-2.48476 -1.26761 5.22427
-0.100307 1.32773 2.89586
0.433315 0.0444875 2.8886
0.846855 -1.85373 3.61309
1.38713 -1.87021 3.6784
-0.513952 0.767913 3.03684
-0.288603 -0.709198 3.24842
-0.672379 -0.992737 3.56958
-0.166789 0.0214189 3.00248
1.19414 1.2525 2.7165
1.05043 -0.641781 3.03711
-0.499786 0.799854 2.76914
0.125519 -1.73693 3.59048
-0.0872168 -1.69275 3.63665
1.72983 0.10979 2.73255
1.84214 -0.313365 2.70834
1.15828 -2.77988 3.55433
1.55125 -0.58105 2.84848
-0.501827 0.819167 3.00729
0.635182 -1.55851 3.58796
-0.445131 0.0855487 3.02568
0.695348 -1.74145 3.88721
0.714929 -1.58855 3.76076
2.61052 -1.18205 3.1044
0.401078 -0.860712 3.26526
-0.998346 0.78664 2.84642
-0.829224 0.704887 3.05935
-0.827102 -0.0677327 3.11335
-0.126238 -1.51499 3.57105
0.0414042 -0.821722 3.28976
0.550805 0.605427 2.92975
2.04502 -0.348009 3.0545
-0.5606 -0.0431745 3.08157
1.26821 -1.79193 3.70402
1.83072 -0.168526 2.85822
-2.15819 -1.1022 4.39083
-0.283758 0.883733 2.43393
-0.00602701 -0.0492949 0.664786
-0.30451 0.952959 2.74774
0.127285 -0.0122407 2.92248
-0.86007 0.239095 3.26685
-0.870859 0.30036 3.0398
-1.13198 0.724386 2.94486
-3.14285 -3.24878 6.92852
0.73215 1.46757 2.8484
1.06482 0.742482 2.78746
1.4538 -0.616891 2.91998
-1.18518 0.119018 3.13882
-0.101769 -1.69848 3.5255
0.61983 -1.46852 3.57314
1.72673 -1.98478 3.61216
1.24234 -1.8127 3.52781
2.18235 0.319718 2.63301
1.11771 -2.26049 3.83612
1.21124 0.784863 2.70097
-0.177557 -0.630288 3.2736
2.06251 0.536099 3.0699
-0.0730988 0.16942 2.94926
-0.879473 -1.52634 3.42641
1.19889 -0.575082 3.00603
1.41166 0.754577 2.60912
2.117 -0.0462009 2.92641
0.204174 -1.51905 3.52846
-0.229762 0.125278 2.99352
-0.216828 1.15673 2.95841
1.38254 -2.63784 3.56092
0.282352 -0.0378887 2.94344
-0.232294 -0.00882768 3.05015
0.0123476 1.16675 2.86829
-1.20274 0.113137 3.09134
1.4379 -0.765578 2.90282
0.132311 0.69765 3.02417
2.30734 -1.52498 4.21169
1.15025 -0.760791 3.11138
-1.16223 0.670174 2.89067
2.59402 -0.794581 3.18843
1.84745 -0.578217 2.84046
0.318774 -0.77508 3.30886
1.78332 0.0594246 2.76887
-0.24391 -0.844926 3.33506
2.75293 -0.867521 3.00319
-1.00428 0.79265 2.91933
1.53139 -1.47457 3.4343
1.64143 -0.827721 2.7296
1.61119 0.0261582 2.67378
-1.33561 -0.718932 3.27628
2.64014 -0.290656 2.97541
1.71726 0.700536 2.71444
-0.301477 -1.51188 3.53861
0.233306 1.24302 2.93896
-0.946423 -0.193822 3.10838
-1.19936 0.534979 2.76319
1.19285 1.25161 2.71353
1.27267 1.14238 2.67673
-0.0511227 0.00206129 0.836382
-1.01839 -0.158023 3.15434
0.282253 -0.983194 3.39857
1.86285 0.998359 2.54569
1.0569 1.18115 2.41435
-0.065456 -0.110246 3.02492
0.203903 -0.909467 3.29421
1.18272 1.04572 2.54846
-0.711208 0.636835 2.99344
-0.888911 -0.00586057 3.07757
-1.20111 -0.0739962 3.10071
-1.07136 0.590061 2.90579
1.30949 -0.829122 3.03701
-0.917876 0.466833 2.96074
1.57944 -2.29856 3.42786
0.348057 1.44933 2.79095
-0.738232 -1.16403 3.41774
1.6031 -0.297401 2.73645
0.808372 1.08414 2.77474
1.46869 0.372246 2.71714
-1.04235 -1.07057 3.32585
1.19942 -2.28245 3.17318
-0.30114 -0.272195 3.07615
-0.0924804 0.832476 2.11994
1.23553 -1.85029 3.56435
-0.141712 1.17389 2.84552
0.00385874 -1.05596 3.41071
-1.09348 0.532945 2.93606
0.573316 -1.74831 4.27721
-0.501626 -0.24207 3.10155
-0.458283 0.873202 1.89729
-1.15525 -0.248218 2.96859
0.179013 -1.07923 3.62403
-1.71161 0.622165 3.63977
1.30335 -2.72176 4.02371
-1.04449 -0.197159 3.11275
-0.136412 0.84262 2.00492
0.384003 0.46199 2.9116
-0.491747 0.690012 3.53249
1.24654 -0.270623 2.85751
1.33391 -1.71218 3.52712
-0.156334 0.839289 1.99258
-1.11054 -1.09282 3.32988
-1.31312 -1.03599 3.25759
-0.85818 -0.345321 3.60078
0.737261 1.0962 2.81586
1.54833 -0.240466 2.84319
1.37711 -1.60659 3.44478
-1.10344 0.460743 2.92463
0.799338 -1.05042 3.42209
-0.954982 0.557577 2.95485
1.13403 -2.24415 3.61793
-1.35381 -0.207174 3.08635
-0.607946 0.841751 1.87088
0.356026 -0.0667735 0.179623
1.36377 0.483915 2.80085
0.611463 1.45113 2.87734
1.17484 -0.939262 3.222
0.651489 -1.55056 3.90512
-0.86314 -0.175305 3.15018
0.920156 0.989973 2.78092
0.132179 1.33031 2.88447
0.701102 1.31357 2.44146
1.03164 0.324808 2.84823
-0.0172135 1.07931 2.36594
-1.05577 -0.40638 3.16848
1.57449 -1.49688 3.62978
0.63168 -1.28101 3.49089
1.96253 0.508662 2.64209
-1.35572 -0.38201 3.17953
0.294356 1.14775 2.99225
-1.37073 -1.16416 3.25189
1.77532 0.391638 2.78447
-0.267649 0.775308 2.01052
0.497737 -0.322128 3.03269
2.13683 -2.4671 4.17222
2.64931 0.641449 2.72403
0.390754 -1.21162 3.52826
1.48451 0.32363 2.73388
-0.00771569 -1.51845 3.64619
-0.778755 0.254787 3.04455
2.14676 -1.08802 3.52573
1.53486 0.0441414 2.83168
1.5042 -0.491184 2.72483
-0.694507 0.66973 2.04262
1.29859 -2.15184 3.82809
0.7904 -1.71231 4.13595
-0.745326 0.214735 2.96657
1.31578 -1.7209 3.72193
0.75507 -0.512171 3.06621
-0.769362 0.64648 2.0337
-0.327146 0.300514 2.98709
1.40923 -1.67936 3.55657
1.41316 -1.5045 3.73761
2.04834 0.279572 2.77289
1.16016 -1.69291 3.52194
0.907305 -0.454605 3.02829
-1.05306 0.137261 3.32683
-0.00723289 1.0152 2.92692
0.439485 -1.38245 3.62726
0.828059 0.260094 2.84999
1.8782 0.675516 2.64674
1.07622 -1.53961 3.49792
-1.0288 -0.438146 3.17518
1.57779 -2.03414 3.43596
1.66535 0.873305 2.5619
-0.187665 0.583902 3.00977
1.5985 -0.0494628 2.77745
1.72066 -0.161928 2.8269
1.63741 0.737251 2.67028
1.00661 -1.57 3.62348
0.0378549 0.100075 2.9526
2.00548 -1.35011 3.51701
-1.4031 -0.674426 3.15296
2.05751 -1.03961 3.23133
0.482019 0.60696 2.93001
2.60344 -0.657889 3.45956
0.561913 0.857097 2.92918
0.136503 -0.629142 3.21153
0.618827 0.142292 2.84015
-0.502393 -0.793193 3.32526
2.42105 -1.97629 3.56492
-1.04761 -1.5518 3.44299
1.26323 -1.98904 4.11623
0.968286 -0.574464 3.04126
0.715069 0.809213 2.89836
1.89281 -0.0672713 2.90121
0.466993 -1.60792 3.75796
-0.736127 0.132724 3.00699
-0.278682 0.971916 2.38086
1.99233 0.366884 2.86048
0.286262 -0.519846 3.10446
-0.0767301 0.481252 1.47176
0.159544 0.25642 2.89895
-0.186052 -1.4502 3.58013
0.869992 0.943575 2.84915
1.26274 -2.39439 3.98403
-1.34522 -0.497317 3.22934
-0.198105 0.962321 2.9926
2.66214 0.871705 2.8345
0.803043 -1.46613 3.58751
0.116638 -1.36689 3.49336
-1.38794 0.255317 3.01369
1.91709 -2.19305 3.79354
0.153998 0.889455 3.03967
-0.508721 0.340007 3.04463
-0.328476 -1.34882 3.5488
-0.434071 0.644034 3.06802
-1.43299 -0.458204 3.19718
-0.342576 0.746526 2.00972
2.08496 0.49554 2.60383
-0.457155 -1.31141 3.56059
