ply
format ascii 1.0
element vertex 1844
property float x
property float y
property float z
end_header
0.940953 -1.58418 3.49335
-0.451032 0.775919 1.86275
-0.689619 0.453051 3.09526
0.115938 -1.13538 3.54853
0.000273956 0.844452 2.09144
0.459512 -0.253206 2.97533
0.631491 -1.59253 3.57474
1.88923 -2.32234 3.81972
1.58703 -0.987128 3.11667
0.323831 -1.6093 3.75475
1.65276 -0.208059 2.71553
0.599231 0.487482 2.91361
-0.469521 -1.03282 3.44182
-0.691954 0.71162 1.91368
1.32182 -0.40739 2.74585
0.937219 0.977359 2.78727
0.943769 -1.94858 3.86903
1.29638 -1.3447 3.427
1.38462 0.301791 2.78525
-0.0477358 0.943565 2.15424
-0.250299 -0.40634 3.17404
0.506642 0.990113 2.91636
-0.246052 -0.223231 1.32496
0.343846 -1.29309 3.47872
0.23952 0.287379 2.90584
-1.14178 0.110745 3.65529
1.53223 0.3575 2.63939
2.49103 -0.664284 3.61758
1.2567 -0.360417 2.85629
0.705516 -1.26338 3.49059
1.16268 1.03801 2.71615
-0.0243912 0.504992 1.3187
-0.613632 -1.19125 3.45441
1.80322 -0.341201 2.80421
1.33809 1.0087 2.6743
2.26994 0.30012 2.51302
1.20597 0.341192 2.8452
2.25508 0.10325 3.52899
0.784047 -0.883908 3.20416
1.45767 0.142003 2.81629
1.00722 0.801826 2.84831
1.54106 -0.101668 2.83477
1.93199 0.000323432 2.73698
-0.549198 -1.13783 3.49331
0.0973952 0.650096 3.12961
1.03394 -1.75566 3.67616
1.39212 0.145242 2.82181
1.23092 -0.0722609 2.76654
1.65201 1.14291 2.56437
0.359911 0.688342 3.02805
-0.443776 -0.870884 3.36705
0.610172 -1.47874 3.57779
-0.643831 0.231231 3.09672
0.767601 -0.0315915 2.89227
-1.2318 0.657128 2.88305
0.237816 -0.814208 3.30602
1.20945 1.13677 2.60596
1.30039 0.479529 2.85208
1.22754 -0.238827 2.77288
-0.262005 0.878341 1.97248
-1.22837 -1.05677 3.3061
-1.27342 -1.01478 3.30419
-0.383125 0.779096 2.02934
0.806546 1.1253 2.79982
1.59235 -1.87972 3.42131
1.52737 -0.212417 2.86621
-0.587933 -0.60679 3.29145
-0.43721 0.483394 3.01931
0.903042 -2.41627 3.59761
-0.646774 -1.02339 3.41148
0.993611 -2.23983 3.62532
-0.898634 0.596521 2.99914
0.0603803 -0.159506 3.01964
1.73446 -2.24716 3.32942
0.264227 0.524464 2.93604
0.336041 -1.79405 3.58034
-0.267301 -0.944248 3.36157
-0.607955 0.872411 1.88271
-1.11333 0.0727901 3.68859
0.495935 -0.131803 2.9301
0.871282 1.02232 2.78203
-0.0694609 0.637562 3.02894
-0.62603 0.362989 3.03761
-0.0742107 1.11425 2.8009
-1.00594 -0.371999 3.14344
2.06031 -2.29203 4.7383
-1.15787 -1.21301 3.34447
-0.965067 0.0902719 3.08787
1.59244 -0.307924 2.82982
-0.474812 0.756778 1.87749
1.13333 -1.19536 3.41239
0.579513 0.423098 2.91242
-0.76635 0.7273 1.85147
-0.482272 -0.29495 3.11979
1.30407 -2.96526 4.38311
0.785708 0.389953 2.91731
1.00598 -1.17759 3.49766
-0.887458 0.161725 3.05646
1.45416 -0.472057 2.79971
-0.0470314 0.623768 1.34467
-0.568113 0.271725 3.00968
-0.443523 -1.43816 3.52562
1.05539 0.91738 2.76282
2.19931 -1.2526 3.83876
1.35071 0.878429 2.69711
0.945355 -1.5148 3.76929
-0.31377 0.23541 3.02265
-0.0315225 0.573543 1.30044
-1.17367 0.106318 3.75746
1.23894 -0.467018 2.9332
-1.41191 -1.22748 3.1667
-1.09426 0.348625 2.94983
1.60535 -2.11018 3.41687
0.396707 -0.434897 3.08906
-0.695664 0.720306 1.93799
2.29116 0.0308726 2.96295
-0.173589 -1.32678 3.58473
0.980512 0.268759 2.90571
-0.00829934 0.543384 1.289
1.03835 -0.386854 2.90902
-1.19694 -0.316167 3.8827
0.178872 0.99622 2.92821
0.748946 -1.1494 3.26868
1.51034 -2.17326 4.56574
0.970146 0.428756 2.88652
-0.895096 0.181569 3.05485
0.0290998 -0.327459 3.07568
0.334193 -1.8562 3.72863
-0.511095 0.405898 3.01954
0.382891 -1.17418 3.53224
0.323376 1.53414 2.81703
0.98929 1.05008 2.77236
-0.994195 -0.292343 3.13421
0.207159 1.18511 2.89995
-0.067436 -0.139358 0.845426
-0.842414 0.499781 3.0222
1.17956 0.963104 2.59106
-1.3126 -0.258394 3.14438
1.55116 1.02826 2.54164
-0.956675 -1.02368 3.1619
2.59366 0.936353 2.86923
-0.231473 -0.479236 3.19979
1.34358 0.944466 2.68907
0.579243 0.282029 2.87779
-0.869439 -1.40572 3.53442
-1.20144 -0.0801229 3.69438
-1.30651 -0.452151 3.15984
-0.0404019 1.00821 2.282
1.46774 0.878399 2.57004
0.411215 -1.35585 3.54008
0.850864 0.247928 2.85444
2.45114 0.107344 3.52692
1.66086 0.33156 2.66856
2.21673 -0.354782 3.26368
0.897132 -1.30776 3.47477
-0.185149 0.790448 2.06965
-0.0174167 0.533292 1.24476
0.232473 -0.390943 3.08794
-1.07447 0.352164 3.02482
1.26068 -1.22203 3.33676
1.62483 -1.77749 4.38026
1.09298 0.973735 2.74531
1.58117 -0.355263 2.81994
0.651741 -0.456962 0.857854
1.46513 -1.86039 3.45939
-0.967213 -1.48667 3.41114
-1.33858 -0.644854 3.37301
2.25598 0.219235 2.75805
0.381898 0.15862 2.90836
1.94351 -1.40562 3.29665
-0.395345 0.893965 3.02512
-0.478522 -1.60469 3.41447
2.2468 0.509373 2.64531
-0.50522 1.40404 2.96384
-1.44955 -0.579636 3.18469
-0.852529 0.668017 2.01882
0.837795 -1.5058 3.55208
-0.827997 0.235476 2.99207
1.31416 -1.92592 3.49061
-1.00049 -0.544175 3.21812
1.66574 0.805869 2.55097
0.811957 -1.54667 3.76991
1.21393 0.173871 2.79265
-0.037501 0.0430433 2.95385
-0.229832 1.06848 2.45275
0.972281 0.741436 2.89819
1.66877 -0.70658 2.85075
0.770542 -1.92512 3.56417
0.974353 -0.722026 3.14261
0.0306981 0.724549 3.06208
2.00484 1.07237 2.6972
0.665969 0.0101692 2.89745
0.712877 -1.76282 3.56861
0.74396 0.109954 2.84371
0.415542 -1.79134 3.59078
0.677464 -2.49802 3.70815
-0.298996 0.874403 3.02937
1.82284 0.715667 2.57448
0.86958 -0.667661 3.12194
0.608082 -1.7764 3.9082
0.261977 0.0816441 2.95384
1.04483 -0.627386 3.06288
2.47049 0.0205978 3.75595
2.50656 -0.414851 3.16516
0.750972 0.782518 2.92778
0.700256 -0.720975 3.161
1.15968 0.718779 2.7612
-0.879815 -0.380228 3.12756
-0.053072 1.09447 2.90532
1.0545 0.0701297 2.77929
0.561598 -1.45619 3.57342
1.36381 0.656736 2.66804
1.47063 -0.625861 2.84776
-0.272864 -1.08564 3.43337
1.11727 0.0228218 2.83675
1.28984 -2.35694 3.46885
-0.590899 0.627264 3.06154
-0.607975 -1.57219 3.46118
-0.661646 0.14185 3.01785
2.06529 1.16269 2.80725
-1.37156 -0.647619 3.16487
-0.103536 0.889051 3.11281
2.05647 -0.734401 3.05713
-0.251974 0.111599 3.00793
-0.678103 -1.54497 3.51879
2.11356 1.06307 2.76681
1.8951 -2.39657 3.5809
0.239196 -0.621764 3.20967
1.63188 0.741733 2.61461
1.11605 -0.79882 3.06109
0.0984603 0.575902 2.99792
0.772984 -0.0696865 2.88117
0.577244 -1.78183 3.71953
-0.812243 0.158609 3.47184
-0.717608 -0.575227 3.23729
-0.257703 0.679178 3.18086
1.91314 0.641975 2.61488
2.8085 -0.987012 3.01079
-1.4296 -0.0233483 3.08517
-0.904012 -1.61898 3.41758
0.105633 0.715056 3.05482
1.91833 -0.164655 2.72025
0.803535 -0.792316 3.17663
2.14442 0.0894871 3.02728
1.23183 0.00616909 2.75686
2.63046 -0.236997 2.97738
0.333181 0.68842 3.03587
-0.387161 -0.780826 3.32216
-0.283825 0.572648 3.06385
1.25747 0.503424 2.83253
0.172235 -0.227869 3.00329
-0.278069 0.909576 1.96615
0.0612051 -1.04438 3.39648
-0.874187 -0.253023 3.10299
-0.621361 -1.01015 3.40918
-0.447503 0.756806 2.22485
-0.684305 0.801805 1.86578
-0.999586 0.0939876 3.71904
0.281692 0.781667 3.04352
0.981632 -0.170626 2.92459
0.813811 0.486444 2.97551
-0.548847 -0.956776 3.32685
-1.05036 0.89946 4.69424
1.03116 0.581293 2.9049
-0.383572 -0.139263 3.10938
1.53618 -2.48907 3.49215
0.434572 0.541216 2.91179
1.21638 -0.877804 3.14471
0.643891 1.2178 2.84546
0.579473 -1.80285 4.42697
-0.409337 -0.929578 3.39625
0.394198 -0.096487 2.95019
-1.02841 -1.2102 3.50716
1.22065 -1.59603 3.48811
-0.593566 -0.942542 3.42529
1.34409 -1.82478 3.24204
-0.368531 -0.344942 3.14275
-1.31516 0.420547 2.95399
-0.393525 0.7593 1.94391
1.64663 -0.29034 2.61367
0.289217 1.45553 2.81713
0.0589575 -0.222159 0.902777
1.15434 1.11464 2.70729
0.296161 -1.19041 3.53432
0.345138 0.447186 2.87859
1.1201 -0.257319 2.80828
0.385567 1.11835 2.88344
1.82147 -1.95942 4.49487
-0.569951 0.439315 3.00169
0.45348 -1.14228 3.51587
1.24542 -0.172056 2.77174
-0.422397 0.723903 1.96896
0.290565 1.28981 2.91909
0.245791 -1.46647 3.60156
-0.934778 -0.983624 3.37952
-0.682545 -0.302803 3.11821
1.10366 0.544498 2.85428
-0.685026 0.856499 1.8654
2.60413 -0.038732 2.99574
-0.77781 -0.150614 3.11754
-0.522277 0.540775 3.09756
1.83187 0.658213 2.59839
-0.751386 -0.957721 3.36782
-1.3205 0.0223714 3.10077
-0.549674 -0.104161 3.12542
2.16759 0.0474517 2.9325
0.622287 -2.30402 3.63071
-0.866891 -0.904667 3.30068
-0.1179 0.694551 3.12167
-0.189581 -0.892219 3.40524
1.76579 -1.96275 3.424
0.638326 -2.3473 3.59191
-0.323371 -0.0526182 3.06105
1.36832 0.542751 2.7599
-1.42953 -1.08678 3.20487
0.0351949 0.470041 3.00137
0.804467 -0.302009 2.97528
0.603842 1.17241 2.89761
1.11678 -2.24965 3.80758
1.40131 0.393508 2.77649
-0.395839 -1.18639 3.69163
0.595656 -1.55353 3.6118
-0.332141 -0.259187 3.12329
1.42155 1.05539 2.63417
-0.369231 0.850351 2.41277
1.83778 -2.48109 3.8333
-0.189559 1.17203 2.95582
0.0892693 0.490385 2.9651
1.10484 -1.90007 4.00048
1.27443 -0.208821 2.8042
0.0989269 1.34049 2.84566
0.692947 -1.08254 3.39579
-0.906564 -0.462125 3.20296
0.101796 1.18688 2.15406
0.794556 1.00907 2.8436
0.206349 -1.40459 3.63049
-1.045 0.259909 3.57782
1.64141 0.279844 2.73817
-0.300156 -0.410108 3.18944
-0.251903 -0.0312492 1.42534
1.10066 0.959261 2.78345
0.70116 -1.34799 3.60927
0.894899 0.279093 2.84362
1.67468 0.433444 2.60595
1.50226 0.349592 2.69768
1.68606 -2.5499 4.01221
1.65044 -1.19761 3.20468
1.53187 0.987237 2.52426
0.0625903 0.539621 1.29819
1.21014 -0.371502 2.91762
0.00389331 0.350542 2.95054
1.67248 -1.10337 3.06596
2.38427 -0.721667 3.53693
-0.808091 0.706946 1.87053
-0.694647 -0.358666 3.13475
2.47637 0.933195 2.90135
-0.730823 -1.47699 3.49445
1.48719 -1.81558 3.46189
1.0791 -0.533644 2.90876
2.08543 0.524066 2.60089
-1.36514 -1.29866 3.10457
-0.262854 0.17941 2.99074
1.17558 -2.37211 3.79115
1.63467 -0.50012 2.82385
-0.659709 0.644836 2.08339
0.12673 0.596058 1.33913
2.01322 0.45637 2.62512
0.727427 0.943038 2.88996
0.243067 0.26308 2.9266
1.27107 -2.21178 3.47717
-0.0282109 -0.495968 3.18683
0.944191 0.908998 2.86899
-0.585545 -1.395 3.49305
1.50111 0.189712 2.70906
1.10917 -1.09397 3.35152
-0.477189 0.511774 3.05453
-1.07479 0.211049 3.83137
-0.0758821 -0.243336 3.0867
-0.317597 0.863958 1.94197
-0.507583 -0.999195 3.41907
1.17372 0.438404 2.8332
-0.738012 -1.06217 3.45737
0.897724 1.29325 2.44345
-1.13586 -0.220573 3.16095
1.55199 1.03375 2.47217
1.69969 -1.74607 3.36958
0.272627 1.44877 2.81991
-1.51935 -0.956563 3.17289
1.63885 0.54422 2.77531
0.579591 -1.67543 4.15742
1.2458 1.16457 2.69695
-0.23844 -0.171195 3.09001
0.771666 1.17146 2.8148
-1.02312 0.159036 3.53993
-1.12992 -0.915115 3.20844
-0.026079 0.53852 3.03244
0.302759 -0.13566 2.95709
-0.515678 0.853849 1.88441
0.852606 1.03721 2.82837
2.60482 -0.60888 3.76055
-1.101 0.378381 2.99407
-0.159617 -0.0848432 1.11407
1.14785 0.95977 2.71215
-0.465586 -0.373032 3.11044
1.54857 0.649962 2.73064
0.956803 0.318137 2.89479
-0.0600989 1.23059 2.84696
0.0826847 -1.30297 3.62434
1.84936 -0.714069 3.11147
-1.13705 -0.361335 3.26694
1.54825 1.00426 2.49317
2.64484 0.925798 2.85866
-1.25913 -1.15913 3.33459
0.729729 0.440154 2.89952
0.854927 1.15603 2.47059
0.245324 1.10242 2.97394
0.436165 -0.27993 3.00141
0.1423 1.26 2.3709
1.30547 0.374108 2.79424
-0.605225 -1.17757 3.50872
-1.21071 -1.32634 3.24308
1.53109 0.238857 2.59003
0.525778 -0.304431 0.580315
1.29713 0.9275 2.74236
1.28727 -0.501165 2.90285
0.93903 -1.90532 4.2184
-0.67524 -1.39184 3.51354
-0.600234 0.21428 2.96911
0.980365 -0.480871 3.00114
-0.46678 0.687049 2.08122
1.86076 -1.87778 3.61824
0.72412 -1.37776 3.54456
1.48937 -1.98249 3.44901
0.685591 -0.44401 3.08556
-0.0139899 -1.3216 3.56156
0.766426 -1.81142 3.81853
1.4867 0.269324 2.75951
0.0409081 0.59611 1.30592
-0.194394 -0.403956 3.14249
-0.0842609 -0.284689 2.91757
-0.545804 0.699421 2.00116
-1.46123 -0.69239 3.19233
-0.641878 0.852603 2.98504
1.31873 -1.98713 3.4975
-0.501492 1.35557 2.96346
-0.127001 0.131004 3.0014
0.0676943 0.795298 3.04594
-0.702648 -0.683263 3.39668
2.27624 0.6755 2.76214
1.08461 -1.77908 3.5441
-0.993491 0.10572 3.22786
0.0806102 -1.58342 3.48001
0.736164 -0.603379 3.10126
0.184902 0.899732 3.04142
0.792226 1.31647 2.82562
0.635602 -1.65807 3.72866
1.5212 0.178701 2.80237
-0.178626 1.11824 2.87394
-0.715142 -0.573082 3.19741
1.58478 0.761733 2.57965
0.635568 -1.90057 3.57419
-1.34595 -1.40376 3.32542
-1.03971 0.167355 3.00203
0.746715 -1.63719 3.62319
0.990943 -0.459352 2.93302
-0.0294643 0.588081 1.53196
1.05205 0.278286 2.87853
-0.69272 0.706165 1.97822
1.06797 -1.36208 3.33641
-0.688551 -0.666994 3.65717
-1.08548 -1.27427 3.3397
1.2205 0.241923 2.8096
1.51342 0.876826 2.60022
0.0306028 0.847401 1.81288
0.0764487 -0.43294 3.12078
1.75903 -2.49732 4.3078
-1.48341 -1.23678 3.29133
1.05698 0.339888 2.86238
1.16028 -1.96961 3.40239
-1.3311 -0.431946 3.24046
-0.231642 0.776785 2.03586
0.0279747 0.550356 1.32358
-0.918322 -1.23047 3.44299
-1.36019 0.343717 2.99125
-0.0225437 0.5224 1.45055
-0.532839 -1.49183 4.7958
1.47149 -0.358587 2.81538
-0.42152 0.736629 1.99578
1.10842 -1.85586 3.55193
1.20004 0.802869 2.7559
2.26959 0.733599 2.841
-0.400242 0.150102 3.01461
-0.741146 -0.626922 3.27889
2.3818 -1.05212 3.21447
0.117156 -1.63903 3.68956
2.22414 0.52121 2.64665
-0.709643 0.662478 2.00633
1.45067 -0.551011 3.00567
-0.350468 0.233092 3.07681
-0.182243 -1.53107 3.61491
2.34786 -0.972378 3.19842
-0.41725 -0.532586 3.25185
1.34124 0.83503 2.71153
0.243947 -1.45074 3.54102
-0.878253 0.198794 2.98819
-0.215433 1.34467 2.92538
-0.247113 1.01584 2.23591
0.478986 0.0397823 2.89586
1.76269 -0.722627 2.91648
-1.08595 -0.788754 3.40039
-0.611246 0.760512 2.95351
-0.550901 -1.03693 3.58377
-1.07296 0.748982 2.97518
2.02295 -0.122831 2.91068
-1.41462 0.0209041 3.16808
1.38317 -0.69042 2.98159
0.375673 0.114291 2.92209
1.4676 0.330083 2.1891
1.38118 0.731291 2.67596
0.552875 0.797965 2.94399
-0.86417 -0.699766 3.23477
0.135154 -1.57767 3.47372
-0.802697 0.0795266 3.08185
1.90617 1.12678 2.94506
-0.230479 -1.49358 3.54321
-1.06975 0.787777 2.8377
0.182178 -0.64536 3.20058
0.785163 -1.99668 3.55835
2.60751 -0.617257 3.32253
0.248987 -0.260922 3.05892
2.8517 -1.08786 3.0191
1.25842 0.556618 2.78856
1.84249 0.320645 2.68443
-0.349211 -0.0940527 3.08951
-1.00778 0.200747 3.05301
0.0146493 -1.7142 3.68333
-0.979695 -0.898246 3.35091
1.67293 -1.06705 2.94595
0.23998 -1.45757 3.59715
-0.630623 -0.0764832 3.10502
1.748 0.659895 2.80701
1.46881 -0.797376 2.93713
-0.682692 0.227287 3.09947
-0.750123 -0.318159 3.11601
-0.658656 -0.0354074 3.12247
-1.05359 0.661263 2.97496
-1.20345 0.238155 3.00156
-1.18662 -0.794738 3.20053
0.0177677 0.716998 3.24393
-0.934031 -0.302944 3.12308
1.40541 1.18139 2.7591
0.0351453 1.26545 2.85567
-0.451075 -0.0665414 3.09907
0.235598 -1.80195 3.59523
-0.386022 0.866366 2.36069
0.123444 -0.859404 3.33403
2.96421 -0.960015 2.95651
-1.45425 -0.0286193 3.08773
-1.2 0.729524 2.91628
-1.23605 -0.789088 3.15122
1.41341 -0.00335882 2.78101
2.41652 -0.219489 3.21281
-1.13547 -0.268028 3.13892
-0.692451 0.698128 3.02572
1.76118 0.93223 2.53133
-0.0927839 -0.77512 3.32088
1.71159 0.48358 2.64246
1.15836 1.1011 2.44629
0.331338 -0.220695 3.03441
-0.377161 0.846988 1.91256
1.70331 -1.0999 3.23834
-0.964632 -1.05092 3.41319
1.30191 -0.938253 3.08844
0.442171 0.469641 2.87307
-0.135685 0.992415 2.64358
-0.765474 0.319968 3.2801
1.12955 -0.170524 2.7609
-0.354958 0.869008 2.45738
-0.156113 -1.14981 3.48259
-0.139704 -0.198452 3.07235
1.84576 -0.861109 2.91416
-1.02252 0.611674 2.97352
-0.533076 0.784365 3.72659
0.971524 -0.146373 2.89394
-0.758999 -1.0156 3.6301
0.36266 0.533945 2.93472
0.730617 -2.31506 3.69415
0.456036 -0.112757 2.92154
0.914308 1.23657 2.76603
-0.553087 0.745637 1.90837
1.68817 0.371559 2.71909
0.653617 -1.51866 3.80213
0.896785 0.376792 2.917
-1.15976 -0.223313 3.13143
0.46212 -0.326016 3.05014
1.07371 -2.27126 3.67058
-0.6712 -0.0937124 2.15304
1.22305 -1.16015 3.28318
1.56377 -0.296208 2.95113
1.65141 1.04779 2.53525
1.11378 -1.18044 3.46042
1.09014 0.449787 2.86157
1.31879 1.05092 2.63333
-1.39189 0.095704 3.9057
-1.42535 -0.270369 3.11291
-0.245548 0.437869 3.01052
0.606958 -1.09204 3.36383
-0.250982 -0.0318208 1.42345
0.414678 -1.40576 3.53137
1.15664 0.25596 2.7979
0.0668075 1.01228 1.96242
-0.799785 0.692975 1.96871
1.17581 -0.459371 2.86455
2.42189 -0.628438 3.60338
-0.19994 -1.38213 3.58117
-0.660519 0.249309 3.03769
-0.366517 0.720926 2.09565
0.0996569 1.1924 2.25617
0.729053 -0.443413 3.00963
1.8061 -2.23828 3.89833
-0.0124228 1.35421 2.88957
0.0771868 -1.33983 3.5613
0.434515 0.329954 2.87637
-0.705504 -0.968929 4.0671
0.69006 -0.402057 3.03961
-0.4521 0.741319 1.95256
-0.0599112 -1.24742 3.48076
0.0935625 0.567184 1.35337
-0.969687 0.328258 2.96013
-0.224705 -0.378712 3.15406
1.64201 -0.0265414 2.99349
1.49904 0.932207 2.57428
-0.8952 0.0188756 3.47121
0.871831 -1.15847 3.37087
-0.861337 0.232314 3.0317
-1.50975 -0.321261 3.22292
-0.760144 0.0726951 3.31835
0.434637 0.412926 2.88112
0.598613 -1.48155 3.61541
-0.294192 0.781421 1.96586
1.06706 -0.252511 2.82482
-0.696444 0.684897 1.9361
-0.140752 1.18311 2.83379
-1.35136 -1.06488 3.2319
-0.414746 0.514723 3.01093
2.64952 -0.0865941 3.4252
-0.723065 -0.222349 3.10171
1.08171 1.09252 2.69299
0.895892 0.442672 2.93258
0.425293 -1.05143 3.39933
1.49477 -0.42403 2.80968
1.13888 0.281534 2.80867
-0.939593 0.0805527 3.07589
-0.599709 0.697547 1.94523
-0.432809 -1.35123 3.50055
0.985235 1.07722 2.54356
-0.883432 -1.27527 3.42718
-0.0415065 0.283138 2.91202
-0.660605 0.693995 1.95878
0.197332 1.37468 2.73201
-0.570437 -0.426467 3.25943
1.21357 -2.16983 3.78811
-0.73031 -1.25291 3.47492
-0.92874 0.407329 2.95729
2.29569 -1.17523 3.79724
-1.09574 -0.37046 3.02538
0.384054 1.07517 2.88749
0.0779516 0.555337 1.35788
-1.06255 -1.18445 3.34904
1.66094 0.305168 2.70367
0.0529072 0.702491 1.39889
-0.610361 0.723529 1.91001
-0.75167 -0.368354 3.18865
2.16809 -0.300188 3.18081
0.881842 -1.50675 3.46435
2.25426 -1.17306 3.28303
0.871152 -0.559761 3.04672
2.45898 0.73057 2.85844
0.279658 0.1751 2.92349
1.03122 -2.18488 4.03614
0.27787 0.898169 3.04181
1.87912 -0.214691 2.78323
0.801444 0.944949 2.88546
1.01397 -0.51181 2.98638
0.199122 -1.69552 3.59895
-1.53939 -1.38462 3.31474
1.11874 0.234429 2.80694
1.15194 -1.78232 3.53239
-0.169671 -0.489241 3.19185
1.07691 0.855515 2.76226
0.0502593 -1.44017 3.5499
0.336827 0.19509 2.87452
0.925004 -0.712834 3.11028
1.52212 0.0693087 2.95915
-0.458653 1.05522 2.85706
2.02909 0.52006 2.61187
-0.520589 0.801678 3.00664
1.51276 -1.44205 3.32906
1.34026 0.660694 2.68198
-0.141342 1.38762 2.9068
0.265601 0.0358499 2.94309
1.08927 -0.658421 3.017
2.01241 -1.00922 3.24271
0.184658 0.13889 2.96092
0.945186 1.21495 2.77176
-0.566744 -1.56219 3.4349
1.3962 -1.35324 3.24235
0.9518 0.821044 2.89391
-1.35197 -0.665363 3.21196
-0.213605 -1.58514 3.58894
0.223922 0.114058 2.95923
-1.23651 -0.650299 3.34766
2.26224 1.06865 3.01923
-0.387695 0.846337 3.0811
0.939146 -1.52361 3.53873
2.09467 0.32852 2.83145
0.453681 1.03464 2.88274
-1.24393 -0.418707 3.1647
1.17523 1.00476 2.59097
1.46297 0.327212 2.86371
0.957995 -1.50298 3.92714
-0.160615 -0.0882845 1.12193
-0.225691 0.764304 2.06991
0.16961 -0.369662 3.06413
0.378821 1.49373 2.73916
0.859714 0.30705 2.88142
2.09073 -2.01169 4.43552
0.914344 -1.31676 3.56116
-0.0160326 0.430951 2.96201
2.13688 -0.433118 3.17983
1.33295 -0.325017 2.76422
-0.391026 -1.24022 3.54525
0.456614 1.10305 2.87717
0.135163 1.38305 2.82756
-0.384803 -1.1833 3.52962
1.09245 1.01728 2.67928
-1.12973 -0.303664 3.18932
2.32481 -1.41472 4.08215
0.735194 0.387156 2.91455
0.198381 1.43777 2.58273
-0.0836406 0.254495 2.94202
0.879453 -1.4819 3.58083
-1.16299 -0.562089 3.34225
0.429831 0.960381 2.94453
-0.805568 -1.39003 3.47951
1.88724 -2.30505 4.47147
0.214207 0.220451 2.92019
0.0338585 0.522646 1.31094
-1.16686 -0.513 3.24705
0.370001 0.919588 2.96528
-0.401082 -1.36658 3.55193
2.30768 0.46142 2.60452
0.650434 -0.449503 3.06466
1.64372 -2.08041 3.41266
-1.35385 0.304563 2.95481
0.0336594 0.557763 1.23163
1.46688 0.904268 2.57657
1.21953 -2.00089 3.42935
0.382639 0.799855 2.98804
0.132551 -0.689877 3.22969
0.972003 0.094699 2.83729
-0.00360776 1.36779 2.88465
1.91995 -1.19466 3.20061
0.548234 -0.648359 3.21355
0.430855 0.779752 2.95586
1.15 -1.73802 3.7658
1.86648 -0.661338 2.99826
2.182 -0.759946 3.12087
-0.462885 0.0729426 2.99755
-0.438701 -0.631996 3.31579
-0.257081 -0.768533 3.29427
1.13194 0.168077 2.77188
-1.21103 -1.42293 3.22923
1.73851 0.078729 3.3052
0.865067 0.879466 2.92309
1.68857 0.779969 2.63119
-0.79775 0.198159 3.00348
-1.11351 -1.41868 3.32504
-0.25613 0.14908 2.96824
-0.666724 0.790878 2.97337
-0.467222 -0.588462 3.31967
-1.24765 0.0180588 3.12593
-0.331736 -0.833183 3.39
0.882902 0.686789 2.90873
1.70021 -0.0423154 2.71746
1.98153 0.368936 2.90485
-1.41879 -0.77238 3.19803
1.80178 -0.245826 2.80856
-0.53636 0.709533 3.07461
-0.785016 -1.26193 4.36702
1.54789 0.0507781 2.37198
1.73136 0.92427 2.91124
0.586978 0.754701 3.00901
-0.798766 0.290563 3.01793
-0.597672 0.0484859 3.07498
1.09135 -1.6713 3.51218
0.0442899 1.20452 2.85895
-0.0842165 -0.735806 3.25544
2.8808 -1.03455 2.99535
-0.358161 -1.31716 3.53057
-0.574065 0.823939 2.73082
2.1679 -1.18346 3.29856
2.09255 0.264007 2.64979
1.10812 0.122529 2.79305
-0.498194 -0.622042 3.2982
0.247332 0.831469 3.07052
2.37077 -1.09092 3.23257
-0.804274 -1.55566 3.52023
-0.940098 -1.62989 3.44006
1.66607 0.0781979 2.76079
0.5472 -0.57775 3.17762
-0.564111 0.68391 2.09054
2.23326 0.564305 2.69785
0.298904 -1.53275 3.62301
-1.00371 0.239867 3.01805
1.92679 -0.127051 2.88144
-0.159446 1.05623 2.97736
-1.22206 -0.560087 3.29915
1.17649 0.823358 2.75138
1.24273 -1.73737 3.47556
-0.0802747 -1.47771 3.6043
-1.42676 0.199966 3.08526
-0.349772 1.29917 2.94866
2.13884 1.06557 2.93458
0.197501 -0.772428 3.28985
1.62393 0.0194572 2.70364
1.77823 -1.08657 3.17121
-1.13093 0.781941 2.96833
-0.589065 0.012195 3.09151
-0.691887 0.725765 2.9626
-1.18682 -0.725379 3.18959
1.64261 -2.62171 3.73829
-0.358847 0.982415 2.70355
1.61329 -0.657344 2.91737
-0.24072 -1.46921 3.54532
1.54077 0.0672601 2.71107
0.680229 -1.83931 4.0069
1.95457 0.107745 2.62068
1.66432 0.954517 2.85618
-1.25399 -0.678596 3.31223
0.0752916 0.776434 3.02165
0.883842 -2.12927 3.53917
-1.0266 -0.207718 3.12865
1.59282 -0.154811 2.78541
2.43904 -0.540314 3.44104
1.42791 -0.859802 2.91464
1.05607 0.574139 2.88795
1.92581 0.548653 2.63096
1.12661 -0.0984994 2.74968
0.381731 1.28157 2.92468
-1.282 0.0186858 3.10329
-0.053272 -0.90165 3.33543
-0.647599 0.592873 3.10085
1.88528 -1.03488 2.90156
2.64907 -0.400019 2.91909
1.60291 0.620822 2.6531
-0.819219 -0.593356 3.23851
-0.706077 -0.0674507 3.10115
1.52662 -0.775826 2.9439
0.852649 0.615319 2.9158
2.54923 0.0208717 3.00918
-1.38956 -0.022546 3.11351
0.169394 -1.25458 3.52013
1.51235 -0.737133 2.91398
1.19518 -1.27236 3.37219
-0.830751 0.183876 3.33291
-2.54676 -1.9648 5.52484
0.632496 0.482105 2.90634
0.606186 -0.262184 2.94182
1.24469 -1.85708 3.59252
-0.790044 0.735677 2.37372
-0.099829 0.469873 2.97021
0.483523 -1.07826 3.4411
0.115888 0.0926443 2.76893
-0.411878 0.772542 1.87237
0.475866 -0.211246 2.97403
-0.0283207 -0.0719222 0.832015
0.925258 -2.25898 3.62037
1.4767 -0.886608 2.87416
0.08865 -0.178542 3.01271
-1.28686 0.532451 2.87086
1.70084 -0.436259 2.74215
0.85691 -1.96618 3.56152
0.157228 1.27766 2.89569
-1.09533 -1.01986 3.2439
0.437747 0.49727 2.89116
-0.294638 -0.220995 3.12679
-0.5806 -0.718494 3.31847
-0.611645 0.896036 1.86309
-0.113543 -1.00836 3.4536
1.11626 0.465303 2.88179
0.810358 -1.6463 3.77737
0.918748 -0.195706 2.91013
-0.232859 0.814696 1.92897
0.122524 1.30199 2.75433
0.92319 1.39856 2.6622
-0.0237775 -0.967597 3.35293
1.79809 -0.151574 2.80707
-1.33571 0.566818 2.89898
1.18469 -2.50578 3.54185
1.91553 -0.593793 2.95204
1.0609 1.23179 2.73701
-0.756424 0.7275 1.87359
1.08835 -0.35065 2.88623
1.93593 -2.65719 4.09439
-0.753038 0.40207 2.98004
-0.383191 -1.3004 3.54263
0.609815 1.04836 2.89451
0.0890861 -0.341842 3.08327
-0.188083 1.19395 2.95824
-0.652621 -0.0676904 2.1562
-1.23118 0.374537 2.99753
2.02237 -2.21552 4.12557
0.517028 -1.26379 3.60276
2.13865 -1.8837 4.49601
0.910181 -0.279662 2.95183
1.36608 1.07383 2.61392
-0.936468 0.0353734 3.08412
-1.03941 -1.12605 3.35592
-0.89464 0.478543 2.95742
2.68501 -0.32952 3.65305
0.824494 -0.276831 2.99002
1.63044 1.00126 2.49048
-0.299991 1.03031 2.8438
0.266508 0.413575 2.89539
0.0451537 -1.10904 3.42414
1.63132 0.259212 2.63582
1.35248 -1.41568 3.43461
-0.0513549 0.543199 1.31693
-1.24316 -0.51912 3.25903
-0.483358 0.708318 2.00791
2.39517 -0.628664 3.54495
0.368016 -1.29369 3.35578
1.29397 0.235136 2.81055
-1.03961 -0.456131 3.10287
-0.512979 0.695874 2.03742
-1.1226 -1.25301 3.33821
2.16462 0.425644 2.61888
0.788339 -0.421188 3.01437
1.94394 -0.174422 3.07197
2.40538 1.01723 2.9253
1.43235 0.27932 2.77752
-0.386385 -1.33453 4.16
1.59319 0.93996 2.58217
0.0400699 0.8582 3.06853
-1.4203 -0.653552 3.11978
1.3249 -2.04882 3.46728
0.329475 0.145469 2.94366
0.0923901 1.35125 2.87597
1.14733 -1.66788 3.58538
2.23163 0.605834 2.72297
0.317804 0.819088 3.02781
-0.480791 -0.636088 3.34249
1.56615 0.422378 2.69013
0.176619 0.104849 2.92535
1.49051 -1.61079 3.54077
1.515 -0.517636 2.78525
2.09202 0.00177115 2.84916
-1.32521 0.24053 3.06117
1.30384 -1.55045 3.59727
0.0470405 1.30302 2.88093
0.295511 0.942765 3.02025
1.41246 0.793031 2.66396
0.925959 -1.53649 3.62243
0.80499 -1.71411 3.57167
0.989187 0.152654 2.81033
-0.362595 1.41212 2.93686
0.354367 -0.527481 3.14755
1.53892 -0.439117 2.85772
0.0827982 0.300786 2.89601
-0.0209377 0.930456 2.26333
1.29064 -1.39445 3.50974
0.412096 1.0107 2.91306
2.53002 -0.0890263 3.26035
-0.188448 1.05495 2.77586
0.567994 -1.33153 3.52557
1.22949 0.945594 2.73179
0.18902 0.27504 2.90628
-1.32449 -0.426874 3.16585
1.01231 1.01247 2.46147
2.21035 -0.795123 3.32436
1.04153 -1.1838 3.22734
1.64313 0.35965 2.68127
1.1262 -1.73606 3.92035
0.608655 -0.368758 3.02983
0.0337146 1.06967 2.87578
-0.0961607 -1.34307 3.7919
2.17262 0.89064 2.92686
0.221945 0.343247 2.92679
1.21029 -2.14986 3.82403
0.151071 1.05602 2.94651
-1.18231 -0.352828 3.12717
-0.0197542 0.631281 3.04028
-0.0598471 0.886101 3.03012
1.6523 0.596957 2.64055
-0.956475 0.187284 3.05116
0.811177 -0.56071 3.10154
-1.44933 0.0988766 4.04271
0.846731 -1.5071 3.45877
2.19883 0.383804 2.61704
-0.600288 0.665586 1.9832
0.95024 -0.529562 2.99804
0.133328 0.256714 2.91695
0.125714 -1.52381 3.68945
1.11268 -0.458752 2.91731
1.51269 0.844553 2.61094
1.51288 -2.2547 3.41378
1.47828 -1.39052 3.35076
1.38781 0.190322 2.8357
2.37618 0.182557 2.86366
-1.38691 -0.786558 3.32934
-0.237162 1.31917 2.93399
-1.46054 0.0835233 3.20479
0.543886 -1.46401 3.56752
0.292093 0.750531 2.92569
-0.0742749 1.34839 2.89815
-0.957952 0.0432359 3.04365
-0.496649 0.784308 3.0749
0.256664 -0.705072 3.27449
0.806627 -1.71377 3.74355
0.978154 0.112745 2.81947
1.0295 -1.52061 3.51103
-0.560171 0.914472 2.86524
1.14162 -0.614494 2.94286
-0.445489 0.856851 3.01553
-1.25294 0.0726855 3.08816
0.689059 0.0947116 2.8646
0.169164 -1.57452 3.59923
-0.160817 0.527174 1.46593
2.50514 -1.08326 3.14791
1.45811 -0.570251 2.8113
-0.836321 0.845511 2.93985
0.96935 -1.41204 3.47391
-1.03388 -0.0371786 3.10461
1.10961 -0.107738 2.77027
-0.198873 0.628938 3.00034
1.1879 -1.67601 3.65293
1.23757 -0.879411 3.12188
1.22702 1.28607 2.97301
0.362147 -0.0610324 2.92826
-0.247488 -1.64085 3.56192
-1.02443 -0.873367 3.34811
0.455598 0.568377 2.93604
1.53444 0.262272 2.30669
-0.717998 0.156358 3.1763
0.576687 0.703706 2.99677
-1.07993 -0.392527 3.14548
-0.72114 -0.0533415 3.13222
1.26213 -1.68377 3.53199
0.531754 0.00599686 2.93445
1.77136 0.79508 2.58066
-0.943948 -0.987872 3.80054
1.25079 0.624726 2.78636
1.48673 1.04172 2.74157
-1.0156 0.365925 3.02973
-0.549391 -0.844706 3.48615
1.75851 0.907162 2.54349
0.0491457 -1.4792 3.63675
-0.274597 0.254358 2.9916
1.19253 1.21226 2.59064
0.236234 0.973066 3.0214
0.883798 -0.53008 3.03252
-1.19915 -1.35146 3.4139
-0.869336 0.229103 3.01951
-1.08231 0.288181 3.52947
-0.660486 -0.506212 3.25966
0.685445 0.918958 2.92101
0.626101 -0.401086 0.777847
0.0622167 0.990132 2.93589
2.22508 0.185612 2.87218
2.30909 -1.10542 3.2654
-0.96651 0.304425 3.01314
0.126516 -1.71044 3.62312
-0.0605007 -0.472981 3.18884
2.27922 0.802996 2.88092
-1.03966 -1.29573 3.38423
1.14476 -0.665518 2.986
0.689355 0.801842 2.96563
0.708511 -1.60786 3.87887
-1.01016 -0.690226 3.33343
1.18121 -1.92917 3.53278
-0.890371 0.119776 3.04553
-0.843293 0.829985 3.05153
0.904473 -0.650174 3.15342
2.39149 0.743055 2.85826
0.499946 0.0771452 2.87839
1.21501 -1.59853 3.48868
2.18052 -0.899557 3.1888
2.02169 -0.0010209 2.86075
1.01229 -1.61143 3.60846
0.0314096 0.164622 2.91983
2.23447 1.03488 3.07859
1.53712 -0.570264 2.76196
-0.378241 0.900267 2.98419
2.00476 -0.831781 3.08511
-0.899308 0.151441 2.98334
-0.352644 -1.4632 3.42671
0.0625861 1.32381 2.8847
-1.14762 -0.597559 3.34151
0.167472 0.85225 3.02257
0.425074 -0.823485 3.28708
-0.429341 -1.30057 3.52938
1.02007 -0.0377765 2.87308
1.59427 0.0463106 2.41192
0.792256 -2.59688 3.67279
0.245307 -1.63573 3.57592
0.882039 0.644227 2.89001
-0.518315 0.916026 2.87685
1.23917 1.26573 2.61399
-0.0485927 1.11677 2.43854
-0.877039 0.768556 2.95347
-1.35356 -0.795949 3.30382
-0.929909 -0.294295 3.12303
-0.111946 0.0510576 2.9916
2.5233 -0.425033 2.94987
0.473929 0.693501 2.98649
0.565167 -0.739402 3.22065
-0.191603 0.00937385 3.04708
-0.524134 -0.258933 3.3439
-0.318966 0.66182 1.67571
0.488557 -0.169899 2.97479
1.52609 1.09894 2.5637
0.252676 -1.02968 3.48369
-0.150932 0.536195 2.86316
1.72415 0.920038 2.53333
-0.932602 -0.423604 3.14521
-0.293179 -0.142048 3.03419
-0.167099 0.878306 2.01452
-1.06562 0.225597 3.05005
-0.885029 0.194762 3.5912
-1.29082 -0.936824 3.25934
1.61611 0.490424 2.80327
0.546606 -0.909664 3.30246
2.47131 0.0548565 2.90983
1.42937 0.946299 2.65324
1.39313 -0.117181 2.70763
-1.30289 0.618041 2.80575
-0.669704 -0.915773 3.45078
1.56466 0.514228 2.64355
1.29645 -1.60285 3.46374
1.25281 -0.076326 2.74104
1.04065 -2.4396 3.21389
0.288813 -0.788402 3.35006
0.020588 0.0394101 2.9359
0.436576 0.718315 2.95883
0.913421 -0.726252 3.15449
1.746 0.000938911 2.74405
1.77708 -0.991865 3.10378
0.987938 0.688924 2.89172
2.32085 1.01318 3.15279
1.7202 -2.56102 3.63709
1.512 -0.0325874 2.21669
0.689697 -0.680392 3.16963
0.54669 -1.98779 3.57462
-0.930103 0.0788641 2.97526
1.95444 -0.0121937 2.62742
1.52288 0.974497 2.85408
0.0450674 -1.52004 3.49634
-0.492705 0.804614 3.0314
-1.13307 -0.148107 3.1015
0.169857 -1.56406 3.56531
2.54438 -0.466077 2.98083
0.762857 -0.956022 3.28963
1.70609 0.914772 2.5432
0.406346 0.566023 2.78793
0.730278 1.20836 2.83735
1.54835 -0.881175 2.80403
-1.47177 -0.104986 3.20357
-2.80831 1.13414 5.80529
-1.09438 -0.00545494 3.93571
-0.852832 -1.64652 3.45334
0.122942 -0.916195 3.33489
-0.587247 -0.711606 3.316
-0.909192 -0.0592617 3.0917
-0.902768 0.0828997 3.0463
1.03893 1.4407 2.67313
0.986027 -0.873387 3.2836
1.23751 0.63633 2.81415
-0.131001 1.22856 2.90966
-1.99913 -1.05163 4.04714
0.0532653 0.711404 3.21791
-0.347034 0.906233 2.60468
-0.300797 -0.0324799 3.07599
0.980338 -2.41888 3.07609
1.07899 -1.12341 3.41579
1.70026 0.457083 2.64536
-0.156263 -0.252626 3.06544
-0.370783 0.760643 2.17196
1.09727 -2.78789 3.80987
0.454918 0.437936 2.88226
-0.144005 -1.05509 3.46167
1.86655 -0.865224 3.1497
0.995219 -0.223904 2.88846
-0.190871 0.8113 1.96998
-0.61316 0.878672 1.86664
0.730772 -2.55008 3.95053
-0.681671 -0.106061 2.16375
1.19712 0.482024 2.8028
1.36703 -2.09106 3.64072
0.428868 -0.173636 2.995
0.164764 -1.59613 3.57468
1.48171 -0.968567 3.2064
0.233981 1.40566 2.65687
1.29848 -0.380967 2.78349
1.47214 0.985833 2.6338
1.98673 -1.79214 4.35984
-0.268654 -1.32303 3.48688
0.681392 0.337144 2.91095
-1.00142 0.0128766 3.1031
1.37912 -0.347993 2.82403
-0.532851 0.713465 1.95112
1.13173 -1.76309 4.04915
1.45991 -1.25611 3.35922
0.175795 0.300623 2.9219
-0.50521 0.431255 2.96779
1.66466 -0.324851 2.69731
-0.192746 -1.20257 3.48802
-0.362835 0.77134 1.91824
0.0560785 0.68346 1.41155
1.47948 -2.38833 3.80418
-0.102721 -1.1609 3.46307
0.317001 0.372226 2.89602
2.08389 -2.22993 4.0758
-0.187045 0.792989 2.0354
-0.616379 -0.305644 3.09789
2.52451 -1.75569 3.54503
1.69622 -0.369007 2.67054
0.708747 1.05103 2.86104
2.04186 -2.09225 4.82347
-1.32993 -1.215 3.30863
-1.34219 0.39804 2.93293
0.0830743 1.36106 2.62549
0.540321 1.04287 2.91745
-0.444737 -0.3496 3.22868
-0.0893188 -0.0276025 1.04241
0.760479 -1.09025 1.45344
-0.0891207 -1.31372 3.71825
1.71434 0.327839 2.71842
1.36563 0.42065 2.79764
1.74189 -2.22214 4.70214
0.572121 -0.321223 2.9937
-1.15063 -1.12829 3.27064
0.264936 1.17297 2.96285
-0.0217702 0.963539 2.29977
0.586648 -1.15482 3.50898
0.0586072 1.09101 2.84351
2.643 -1.03726 3.87957
-0.187433 -0.254412 3.07868
-1.0465 0.424016 2.8659
1.06225 -1.39318 3.4346
1.76292 0.26228 2.7784
-1.22649 -0.379259 3.19348
0.456313 -0.519969 3.18728
1.57472 0.895392 2.56463
-1.3385 -1.28067 3.27191
0.50756 0.233492 2.78404
1.96514 -2.44384 4.12847
1.43516 -0.443051 2.79923
1.57674 0.847479 2.53267
-1.14198 -0.591481 3.31255
-0.15244 0.901821 2.4534
2.51429 1.02088 2.85914
-1.33553 0.338641 3.03043
1.11682 -1.92822 4.05343
-0.132615 -0.431512 3.14631
1.98347 -0.495515 2.78412
-0.81805 -1.27034 3.36777
0.622322 0.844749 2.9691
-0.069419 -1.70414 3.60473
2.1222 0.0752003 3.28945
0.611889 -0.661054 3.17487
-0.643994 0.140294 2.99018
2.04832 0.583864 2.662
1.52088 0.0447529 2.82471
-0.0445689 -1.67795 3.66283
1.23496 -0.603658 3.00013
2.0282 0.264721 2.68262
-0.867396 0.824219 2.87292
0.86958 -1.73536 3.82648
1.69337 -2.11204 3.41233
-1.47654 0.124126 3.22625
1.95562 -0.855205 3.09465
-1.41107 0.228334 2.98102
-0.4155 -1.47666 3.42654
-1.18711 -0.613309 3.3322
1.29422 0.862227 2.68817
-0.376637 1.06704 2.87906
1.53409 -1.52489 3.3473
1.751 -1.5723 3.68547
-1.29576 0.188305 3.04769
0.749049 -1.5816 3.62345
0.745733 -0.535116 3.09434
-0.777618 0.670276 2.17089
1.48308 0.0180487 2.87341
0.31359 -0.802783 3.34555
1.51473 0.668646 2.61083
-1.42728 0.00016425 3.07337
-0.913754 -0.77377 3.32641
-0.581157 0.557237 3.05168
1.52743 0.641122 2.65411
-0.348055 0.696871 2.19072
1.51696 -1.44559 3.34261
2.46602 -1.99436 3.41001
1.67135 0.704958 2.63033
1.87803 -0.38349 2.72965
1.26046 0.044226 2.77906
1.8801 -0.291631 2.72115
0.0176143 -0.714087 3.22195
-0.738893 0.169635 3.0988
0.154972 -1.76946 3.58754
-0.923591 -0.641573 3.207
1.113 0.817338 2.75252
1.62926 -2.00156 3.42061
1.09542 -1.60887 3.60619
1.68458 0.14123 2.76068
2.07823 0.207456 2.874
2.27602 0.846421 2.91158
0.321744 -0.565292 3.15385
-0.047926 0.861851 3.08502
1.05461 -2.18993 3.95563
-1.34151 0.154134 3.06427
-0.616568 -1.48724 3.4722
0.750177 0.921774 2.8688
-0.635435 -0.577266 3.33306
1.22451 -1.46231 3.43912
1.16921 -1.5877 3.74753
-0.0438035 0.251545 2.9347
1.79927 -1.89119 3.95516
0.734846 -0.497996 3.09984
0.761633 0.895373 2.90211
0.706708 -1.5077 3.56986
1.36382 -2.0838 3.46155
-1.24142 -1.3056 3.23616
1.44963 0.200142 2.81418
2.34281 0.766567 2.87409
-0.0171566 -0.74328 3.26087
0.716745 0.0573758 2.88513
0.239161 0.623044 2.99907
1.15173 0.719074 2.7866
0.862083 -1.74062 3.58751
-0.0893397 0.0313589 2.96326
0.767881 -0.686687 3.17655
-0.172387 0.731838 3.04679
1.35715 -1.69859 3.62953
1.92152 -0.325363 2.72267
1.14523 -0.635442 2.99487
0.465422 -1.53994 3.579
-0.183462 0.11184 3.01039
0.252604 0.782365 3.57391
0.829586 -2.60963 3.66541
-0.162157 0.815185 3.09286
-0.455105 -0.967702 3.42699
-0.191484 -0.0995945 3.05803
-0.887219 -0.385068 3.14547
1.28149 1.26288 2.86355
0.409742 -0.913081 3.31303
1.62752 0.229144 2.7245
1.11758 0.598781 2.89146
1.72916 -0.506211 2.76148
1.18767 -0.0955686 2.75687
1.13694 0.560773 2.8308
-0.122712 -0.363937 3.10764
0.599681 -0.882809 3.28682
-0.0195684 0.631167 3.03878
0.739204 -0.0366482 2.88562
0.757165 -0.00933522 2.90721
1.70061 -0.724586 2.92023
-0.73048 0.0700135 3.22552
0.258567 -0.834767 3.28677
-0.507391 0.705804 3.08213
-0.0154778 0.656109 3.05948
-0.343698 -0.813461 3.41458
0.0619895 0.730719 3.14408
-0.13089 -0.0135899 1.01609
1.5365 1.14723 2.56485
0.258642 0.964764 3.63004
1.16379 -1.0204 3.21351
0.870678 0.50748 2.90361
-1.02914 -0.236158 3.16062
-0.647712 0.830512 1.85623
-1.06112 0.167983 3.74686
1.6885 0.461081 2.75835
0.934637 -0.99036 3.22396
-0.0776281 0.634405 3.02666
1.05241 1.12883 2.72201
-1.18417 -0.194534 3.10732
-0.381037 0.762095 2.06359
0.672537 0.505409 1.10624
-0.362543 -0.984886 3.42861
0.410262 1.47028 2.81831
1.65129 0.522022 2.73865
0.687302 -0.14741 2.95595
1.16572 -2.28203 3.20335
-0.782761 -0.800138 3.28582
1.22282 -0.647964 2.94628
-1.23187 0.113213 3.02226
-0.298814 1.03096 2.96473
2.09517 -0.786586 3.05027
0.840218 0.795756 2.94287
-0.131386 0.771927 2.97465
-1.12987 -1.56156 3.3845
1.98058 0.731688 2.73244
1.67339 0.0455503 2.69476
-1.33902 -0.684826 3.28819
-0.332452 -1.08143 3.48211
1.98619 -0.75792 3.07542
1.70288 0.133243 2.72246
-0.533737 -1.55085 3.49246
1.26717 -2.0082 4.32766
0.00717192 0.919672 3.12952
-0.91141 -0.633164 3.29398
-1.51587 -1.3737 3.1454
-1.09134 0.152967 3.03802
1.03273 -0.554244 2.95691
0.981352 -1.39015 3.52467
-1.15179 0.822378 2.76707
2.01957 -1.13077 3.25702
1.32764 -0.74435 2.91102
-0.39907 0.687052 3.08992
0.337068 -2.03271 3.6024
1.34171 0.873311 2.68654
1.38368 -0.0495369 2.8004
-0.676783 0.719221 2.25802
0.209003 -1.72478 3.59036
1.63306 -0.906715 2.91308
-0.668851 0.277055 3.12465
-0.595409 0.760351 2.99765
0.997906 0.0210407 2.84902
1.83081 -0.718928 2.86724
2.60011 -0.325391 2.97797
1.13669 -1.97061 4.10953
0.334711 0.719726 3.04577
2.12143 0.128758 3.04288
-0.121092 0.951232 2.03463
-1.42642 -0.730469 3.12907
0.209293 -0.00326428 2.99331
1.09091 0.532418 2.8868
-1.09966 -0.192273 3.13162
1.83725 -0.159423 2.7569
-0.222322 -0.921268 3.58703
1.2397 1.21603 2.72411
-0.288197 -0.98603 3.32084
0.1856 -1.00943 3.49733
1.76553 0.883561 2.55044
0.218592 1.33441 2.89277
-1.00733 -0.29644 3.11734
-0.90033 0.209445 3.48663
0.742194 -0.153508 2.94139
-0.398122 0.529951 3.07975
-0.263888 -1.67719 3.56021
-0.00547136 -0.900657 3.33373
-0.519008 -1.06474 3.46562
-0.237018 -0.932542 3.64069
-0.215415 -0.105219 3.02998
0.737328 0.611156 2.95305
0.321482 0.575179 2.98196
0.0800101 -0.866688 3.28749
0.525922 -1.80844 3.89836
2.09251 -0.224249 3.02017
1.07986 -0.0751538 2.79133
0.83345 -1.58407 3.85156
0.571139 1.11115 2.87959
-0.128696 0.415238 2.98179
-0.685564 0.119172 2.49715
0.649963 -1.6345 3.73444
-0.791553 -0.312545 3.18363
-0.844635 -1.14354 3.39904
0.505121 1.40216 2.85777
0.386912 -0.264133 3.09749
1.41843 1.0769 2.54014
-1.27084 -1.06687 3.27616
-0.207668 0.488409 2.95076
1.46891 1.04993 2.54137
2.0646 -2.39717 4.29809
-1.23332 -0.228035 3.13098
-0.954325 0.481918 2.97312
0.301858 -1.08033 3.48094
-0.193227 1.17113 2.95758
1.76884 0.857282 2.55119
-0.636544 -0.15903 3.09788
1.48907 0.124038 2.82737
-1.071 -0.953616 3.34243
0.895803 0.557217 2.93446
-1.02546 0.369241 3.03198
0.749184 -0.115993 2.90027
-0.33422 0.763739 2.0732
0.853065 -1.63758 3.79874
-0.708183 0.49691 3.70408
0.836449 -0.909463 3.25137
0.467182 0.533304 2.89774
1.63729 -2.16458 3.43374
-0.28061 -0.887961 3.38995
-0.83136 0.136891 3.03538
-0.407892 -0.0730552 3.03231
0.782466 -0.939484 2.1317
0.444414 0.639453 2.97511
0.999557 -0.836043 3.26896
-1.26646 0.625776 2.87128
-0.933081 -0.45469 3.18594
-0.190749 -0.0412677 3.04026
0.800732 1.2045 2.80147
1.31012 0.987793 2.59652
-0.0890987 -1.11639 3.45129
0.629294 0.38243 2.91503
0.146065 -0.263155 3.01953
0.731871 -2.42008 3.61883
-0.317201 0.465854 3.04012
-0.317212 -1.20582 3.51651
0.973196 1.07324 2.71948
0.621602 -2.1357 3.68363
0.283794 -0.211956 3.01836
-0.635246 0.852292 1.86649
-0.0287197 -0.0968538 0.797301
-0.568703 -1.06317 3.38753
1.65225 0.51621 2.80705
-0.208461 0.487655 2.97801
1.40083 -0.190091 2.7044
0.628206 1.1528 2.85698
1.5208 -0.944444 3.02917
-0.574188 0.507432 3.04088
0.0725842 1.22106 2.38482
1.08836 -0.404342 2.92009
-0.39067 0.744753 1.99181
-0.214745 -0.915079 3.55345
-0.619226 -1.28202 3.40956
-1.25765 0.369735 2.97885
-1.21094 -0.397319 3.21537
1.23449 0.993941 2.72315
-0.987968 -0.00630516 3.10059
-0.0759481 -1.28266 3.52515
-0.380534 0.302744 3.01011
1.36352 -1.67195 3.87441
0.932062 0.404012 2.91403
0.918154 -1.25029 3.45999
0.893351 -0.337354 2.98187
0.817629 -1.55796 3.7609
-0.0106972 0.58643 1.27934
-0.791739 0.724279 1.81225
-0.339335 0.372105 2.98991
1.45584 -1.1214 3.20418
0.0160173 0.979387 2.14771
0.341401 -0.324321 3.14871
1.13813 1.03893 2.70311
0.998237 -1.94692 3.92333
-1.21527 0.349843 3.65119
-0.990569 -1.41516 3.37849
0.0364592 -0.544972 3.16573
2.35796 0.859503 2.93661
-0.516425 0.21313 3.03239
1.69316 -2.56805 4.0458
-0.300159 0.885006 2.78705
1.93203 -0.520696 2.80849
-0.100453 0.996467 3.00315
0.570539 -0.504364 3.15366
2.08245 0.33061 2.75452
-0.30668 -1.38611 3.45042
-1.09983 0.297048 2.96837
1.54304 -1.96899 3.43356
-0.375214 -0.466224 3.23454
1.26491 0.92672 2.77645
-0.623735 -1.3343 3.43393
-0.516499 0.254554 3.07427
-1.15247 0.260962 3.60098
-1.27887 -1.3069 3.21711
1.37245 -0.485291 2.84884
2.39684 -0.134206 3.04161
1.59128 0.227943 2.80601
-1.14371 -0.721887 4.40597
1.41024 0.882643 2.66878
0.196881 1.34978 2.90752
0.119339 1.01568 2.95225
0.114913 -0.447197 3.09908
1.83412 -0.428961 2.71959
-1.18474 0.327168 2.98267
1.40229 -1.34184 3.32202
0.215096 1.01959 3.04102
1.19638 -1.65406 3.90547
-1.06954 -0.434863 3.15442
-0.531064 -1.30438 3.4362
-0.105387 0.274746 2.9518
-0.478298 -0.670519 3.26653
0.858805 0.831454 2.91995
-0.944875 -0.367989 3.1766
0.25096 -1.64456 3.59253
-0.97428 0.139631 3.00337
1.23905 -1.65268 3.47403
-0.259728 -0.625408 3.24228
0.802964 0.782303 2.91187
2.55245 0.117903 2.92909
1.56893 0.067374 2.73329
-1.4382 -1.4373 3.18643
1.68217 -2.00641 3.41132
1.05428 -1.55195 3.50851
-0.497905 0.205783 3.02054
-0.518926 -1.47975 3.36903
0.097163 0.942305 3.04112
1.05299 -0.560951 2.96047
-0.222756 1.10923 2.95753
-0.34089 0.167159 3.02402
-1.50522 -1.38454 3.3085
0.503901 -1.51003 3.57192
-0.670349 -0.566867 3.32899
0.977813 0.844546 2.86767
-0.17073 -1.446 3.53886
0.636198 -0.786409 3.20116
-0.324878 -1.45015 3.54337
-0.270796 0.920094 2.4051
0.791988 -0.0233891 2.8762
0.127095 0.616936 3.01429
1.60905 0.637983 2.65583
2.26913 -1.50677 4.18905
0.667471 -0.880005 3.26036
1.32847 -1.40176 3.07655
-1.27801 0.786317 2.89602
-0.978504 -0.29109 3.11913
-0.272462 -0.790255 3.32123
0.128946 0.0572173 2.9077
2.72116 -0.978028 3.05844
1.48031 0.660298 2.61341
1.4418 -0.673258 2.98726
0.438366 0.0220394 2.90433
1.27419 -1.86171 3.84678
1.72749 0.548471 2.76688
0.765086 -0.165129 2.96332
-1.04646 -0.646473 3.33748
0.623344 -0.721744 3.194
1.37052 -0.881529 3.00284
-0.362264 0.914314 2.63936
-0.251883 -0.947916 3.41379
0.525574 1.2347 2.87789
-0.146357 -0.0532875 1.07426
0.161384 1.2337 2.90487
-0.276716 -0.117153 3.02453
0.642074 0.549429 2.93597
1.37752 1.08479 2.63997
0.830817 -0.880158 3.25988
2.09736 0.129933 2.84524
-1.08854 0.215524 3.85123
-1.33177 -0.078308 3.13209
0.579954 0.653714 2.98884
1.08039 0.598964 2.87705
1.33421 1.15415 2.63935
1.23324 -0.801405 3.10686
1.27813 0.984286 2.74114
-0.970452 -0.187678 3.10777
-0.251107 -0.0542941 3.08405
-0.30386 0.0725586 3.0204
-0.890995 -0.783536 3.38398
1.47543 0.675412 2.6123
-0.784436 0.0238139 3.10125
0.696305 -1.98949 3.558
0.152281 0.750107 3.08309
0.354154 -0.714517 3.24866
-1.10897 -0.605024 3.30562
1.81744 -0.499119 2.73344
-0.206062 0.829627 3.14612
-0.475289 -0.869545 3.34242
0.573791 0.0938061 2.88731
1.82155 -2.35519 4.99907
2.55684 -1.64626 3.30587
-1.12491 -0.697337 3.34899
1.84215 -0.293048 2.80917
0.927924 -1.71992 3.70091
1.07907 -0.108589 2.82448
-0.0515423 1.13726 2.62315
2.46249 -0.762466 3.37203
1.39207 -0.847513 2.9704
-0.148969 0.646041 3.08354
1.24624 0.846067 2.73001
0.0233716 -0.067826 2.99865
1.37322 -1.55522 3.36669
1.49934 0.1035 2.81743
-0.236116 -1.37472 3.56565
0.338577 -0.87695 3.31708
-0.528369 0.596439 3.1248
0.882584 -0.811607 3.16928
-0.928125 -0.133654 3.0946
-0.765558 -0.0222487 3.13323
1.13559 1.1821 2.71905
1.1644 -0.055973 2.75316
0.803971 -1.68529 3.45602
-0.83746 0.751874 3.10987
-1.28083 -0.798533 3.29133
-0.000746578 -0.0531614 0.650221
-0.959098 0.664155 4.40201
1.17084 1.21571 2.64235
1.77802 0.98298 2.53545
0.429015 0.631438 2.96114
-0.890026 -1.07931 3.4523
-0.177023 0.531921 3.06778
1.82807 -1.91411 3.42866
1.06964 -0.226421 2.80519
-0.329225 0.894969 2.56584
1.43684 0.782021 2.49531
1.02821 -1.0176 3.31108
-1.10988 0.499104 2.93933
1.36081 -1.60423 3.4349
0.651505 -1.54941 3.5018
-1.15123 -0.199426 3.08633
-0.792549 0.747866 1.77808
0.896729 1.18532 2.7903
-0.152059 1.16691 2.95854
0.814691 0.519966 2.89986
-0.827259 -0.167786 3.16439
0.756489 -2.12757 3.52643
1.02228 -0.961184 3.23239
-1.46082 -0.407527 3.19917
-1.18699 -0.258073 3.14075
-0.711113 0.723728 1.8857
0.588362 -1.31002 3.57575
0.664063 -1.76505 4.01023
-0.84793 0.395275 3.00132
-1.06689 -0.126714 2.95932
1.58757 0.963087 2.59721
1.66952 -0.342846 2.67379
-1.1417 -1.12164 3.18288
1.21583 -2.72892 4.13396
-0.391811 0.337262 3.02707
1.62793 0.394828 2.6288
-1.28105 -1.11472 3.24187
0.28931 -0.316797 3.08492
0.631629 1.13396 2.89076
2.46503 1.01579 2.91112
1.50712 -1.72026 4.06385
0.528248 0.397825 2.92947
-0.939688 -1.05528 3.17782
0.781441 1.19239 2.40815
0.510146 -0.259907 2.98291
-0.696844 0.733035 1.8656
-0.309357 0.936619 2.71642
0.471717 -2.33988 3.57469
-1.15876 0.720471 3.12758
0.100327 1.33735 2.88583
2.59149 -1.18502 3.112
-0.247807 -1.14689 3.5106
1.09113 -0.0504696 2.79104
-0.429927 -0.820155 3.33089
0.0153759 1.18812 2.85011
2.81597 -0.894413 2.98622
-1.00982 0.755728 2.92578
1.42726 -0.724616 2.93351
-1.05255 0.0346429 3.04201
1.06418 1.11916 2.49493
1.08665 0.675095 2.86153
0.139553 1.24992 2.89215
1.33369 -0.694309 2.93978
1.58573 -0.911738 2.90462
1.03609 0.532602 2.89952
1.10855 1.23561 2.7272
-0.39792 -0.00841171 3.02308
-0.082517 -0.185443 3.06296
1.196 1.17689 2.72349
1.76379 -0.502019 2.78645
-0.747837 -0.318702 3.13153
-1.09207 0.265476 3.66761
0.566981 -0.959244 3.29339
-0.649169 0.546229 3.05967
1.80557 0.527426 2.68345
0.559512 -0.157226 2.92954
-0.240387 0.895025 1.98875
-0.0566015 0.00652152 0.84119
1.52488 0.960195 2.69529
-0.108825 0.68329 3.17867
-1.44874 -0.878135 3.11168
1.45586 0.831617 2.64472
0.039141 0.629123 3.03479
-0.726622 -0.11485 3.09191
-1.12287 -0.893063 3.37339
-0.777561 0.60293 2.98236
1.61059 0.664696 2.73136
-1.09225 -0.0730341 3.21475
2.35209 0.0201152 2.93988
1.00106 -0.346085 2.89231
1.06709 1.02634 2.66977
1.60675 -2.92486 4.35855
-0.91308 0.432026 2.94896
1.0101 -1.76674 3.75123
1.60665 -1.14338 3.10874
0.167553 1.08511 2.93283
-0.868821 -0.320781 3.12725
-1.18943 -0.289533 2.98179
-0.67475 0.385918 3.08993
-0.204008 -1.16011 3.35127
0.695293 1.30334 2.84847
1.96586 -0.0933027 3.1533
0.196331 -0.270599 3.03985
-0.019376 0.866621 2.05224
0.0201556 1.20999 2.31709
0.282761 -1.19946 3.63084
0.179265 0.47156 2.9267
2.40538 -1.22658 3.99342
1.09969 -0.225876 2.8051
1.02031 1.09958 2.73294
0.212417 1.58369 2.74579
1.2301 0.412239 2.80974
0.902852 -1.04242 3.32251
-0.524247 0.306228 3.05651
-1.28091 -1.31675 3.36496
0.0537018 0.575919 1.37399
0.37807 1.03847 2.99677
1.13603 -0.434414 2.80577
0.898453 1.11007 2.44327
-0.798186 -1.31981 3.4961
-0.610787 0.263927 2.99013
0.271447 0.996871 3.026
1.54747 -0.405503 2.8197
-1.03541 -1.25548 3.476
2.26085 -0.105104 3.20478
0.915443 -0.383631 3.05916
1.85167 -2.11785 4.49954
0.0888622 1.12166 2.34249
1.70274 0.286486 2.64581
-0.692261 0.708697 1.9142
2.27689 -0.376583 3.33139
0.63629 1.1197 2.85696
0.152053 -1.16263 3.55168
-1.20978 0.465291 2.93066
0.157028 0.20134 2.93467
1.20582 -2.34843 3.60541
-0.622794 -0.280749 3.11688
1.77323 -1.86228 3.33898
0.826162 -1.55367 3.77837
0.768841 -0.225293 2.97827
-0.514021 0.822693 1.891
-1.44091 -1.01354 3.16522
0.826491 0.504208 2.93977
-0.310587 0.795494 1.90381
1.37912 -1.69099 3.91836
1.1138 -0.190093 2.80314
1.14143 0.462364 2.82882
2.75241 -0.581305 2.86736
-0.0447096 -1.02203 3.39807
0.017652 -0.421125 3.12437
-0.0198053 0.339232 2.93669
0.221793 1.48997 2.73004
0.794215 -1.34087 3.47249
0.820541 1.0181 2.82993
0.770197 1.22336 2.43326
-1.21958 -0.291701 3.16711
0.989924 -1.30638 3.53504
0.738768 0.987222 2.82935
2.06342 -2.03894 4.65405
-0.529295 -0.39977 3.18864
-0.573794 0.297252 2.99373
