ply
format ascii 1.0
element vertex 1833
property float x
property float y
property float z
end_header
2.53322 0.210852 3.67329
0.103412 -0.835736 3.31163
-0.471259 -0.807038 3.35813
0.712543 0.0412768 2.93632
1.93581 0.2159 2.72245
1.04114 0.743592 2.83643
0.0584301 0.0168941 2.9671
1.6172 -1.07415 2.95417
-0.129172 0.730462 2.9574
0.387717 -0.748347 3.23451
-0.776674 -0.979558 3.31621
-0.802168 -0.173133 3.05422
-0.85325 -0.966923 3.41511
1.09058 0.531881 2.88961
-0.340917 0.851524 1.92855
1.78825 0.829147 2.56178
-0.530964 -0.142306 3.10319
-0.473045 0.626789 3.04757
0.0570122 -0.097184 3.00517
0.644422 1.2916 2.86252
-0.79355 -0.978288 3.57858
-0.0278416 0.608451 3.06909
0.394466 -1.64666 3.51395
-1.42506 -1.50169 3.26297
1.08354 0.141486 2.81479
0.770772 -0.653892 3.1437
1.34821 0.8041 2.69964
-0.962676 0.129683 3.06798
0.375203 -1.5827 3.59198
-0.569658 -0.62627 3.27601
-0.843541 0.669601 2.3312
1.15376 -1.62298 3.73808
-0.196386 0.236684 2.97665
-1.1774 -1.15109 3.37656
-0.915912 -0.570669 3.21322
1.56187 0.850086 2.60101
1.26389 -1.5355 3.6522
0.427367 0.18998 2.92072
-0.285459 -0.535247 3.17333
1.55126 0.81135 2.59344
-0.731751 0.740135 2.9933
2.70348 -1.28063 4.28936
-1.11724 0.0266377 3.06717
-1.11624 0.727734 3.03606
-0.179567 1.08997 2.88075
-0.590724 -0.774609 3.2734
1.59973 -0.699187 2.93671
-1.04018 0.78379 2.81556
1.13204 0.0778266 2.83615
1.56418 -0.0148295 2.7968
-0.219617 0.801472 3.05727
0.312259 -0.704561 3.22859
1.34985 0.0351107 2.75298
1.94923 0.638263 2.62339
0.357147 -0.972757 3.38789
-1.18397 0.612833 2.91705
1.87333 0.306199 2.67731
1.53619 -0.13774 2.79441
-0.381442 -0.928129 3.40665
-0.743188 0.607708 3.09218
0.176891 -0.0907168 3.02047
1.33601 1.20246 2.64947
1.66261 -0.774163 2.8472
0.133817 -0.0573664 2.98562
0.190757 -0.834766 3.31987
-0.916891 0.754175 2.58566
1.30403 0.611188 2.76847
0.255438 -0.0249562 2.98657
1.66836 -0.298751 2.92509
-0.514512 0.774606 1.85322
0.939869 -1.18502 3.44995
1.66098 0.45985 2.82326
0.442444 -0.257229 2.99802
1.65608 1.02168 2.54215
1.62705 0.396536 2.63963
-0.815787 -1.06591 3.33546
1.17811 -0.207665 2.80317
-0.563644 0.827969 1.88046
-0.126369 -1.07499 3.45573
0.351419 0.539048 2.90762
0.233356 -0.174929 3.02119
0.0751563 1.28343 2.88089
-0.18745 -1.00042 3.35849
0.438749 0.500705 2.89784
-0.323908 -0.0925959 3.03857
1.6488 -1.06698 2.94957
1.25134 -0.852917 3.02213
0.192886 0.679219 3.07485
-0.63284 0.830894 2.52371
1.24418 -0.812683 3.00924
1.31447 -0.062843 2.68636
0.879556 0.605402 2.91743
1.57074 -0.724677 2.81845
1.3314 0.00351002 2.73563
-0.837044 -0.0179927 3.07523
1.31296 0.683761 2.75433
1.80305 0.588079 2.65134
1.89326 0.270144 2.70077
0.745433 -0.773568 3.1838
0.202309 0.736216 3.12101
-0.255288 0.912715 1.9714
1.10758 0.497883 2.88501
0.720932 -0.223133 3.00982
-1.30509 -1.00151 3.2345
-0.61217 -0.177195 3.12167
0.6683 1.28838 2.85727
0.393418 -1.03238 3.44649
1.54445 0.525199 2.69277
0.118667 0.169564 2.95772
0.109831 -0.136376 2.99202
-0.729074 0.590443 3.17343
-0.424312 -0.981711 3.45119
-0.964496 -0.379223 3.20071
-0.174962 0.407774 2.93951
-0.897698 -1.22882 3.41689
0.230905 1.13714 2.93806
-1.29747 -1.10322 3.16516
-0.0516157 -0.342543 3.07863
0.39112 1.09595 2.8986
-1.13864 0.381016 2.99083
1.40014 -1.26763 3.67112
0.426086 0.475528 2.92249
-1.36744 -0.297174 3.08411
1.04727 1.13781 2.74171
0.37926 0.442751 2.92271
0.879698 -1.15834 3.5081
-1.3353 -0.265718 3.13737
0.980225 0.972786 2.84207
0.894194 1.11433 2.77685
1.40197 0.253737 2.82797
-0.643114 -0.524834 3.3405
-1.06373 -1.34244 3.40264
0.563589 -0.455812 3.09469
0.210043 1.08294 2.96815
-0.0701149 -1.39677 3.58452
-0.867773 0.339134 2.98462
-0.377934 -0.420199 3.18146
-0.584649 0.684455 1.94567
-1.37164 -1.24829 3.33704
1.2826 0.283448 2.82713
0.589434 1.01255 2.89318
0.217542 0.294948 2.92183
0.179902 -0.462037 3.10859
-0.279224 -1.38516 3.55443
0.587561 -0.419533 3.0627
-0.56778 0.730849 1.92934
0.0319444 -1.31273 3.48577
-0.316159 0.363234 2.94761
-0.815413 -0.379197 3.11578
0.549209 1.05995 2.91983
-0.198903 -1.31732 3.60687
1.26225 0.304238 2.82455
-0.701019 -0.643698 3.33698
1.42718 0.177824 2.78279
-0.193379 -1.66701 3.75201
-0.436877 0.908746 2.86614
1.33068 -1.54694 3.53024
0.565356 0.141707 2.8969
-1.41657 -0.63871 3.4619
1.56841 0.770587 2.60372
-0.923955 0.274327 2.96261
-0.783284 -1.46855 3.59958
1.84074 -0.515836 2.92446
-0.635005 0.680572 2.01382
0.14281 -1.46466 3.61909
0.780896 0.21665 2.89257
-0.0909029 -0.506077 3.15235
-0.629268 0.67028 2.03385
1.70715 0.662794 2.56028
0.637733 0.0367808 2.94356
2.18892 1.06877 2.92255
-1.48262 -0.734469 3.15152
-0.981502 -1.33448 3.43825
-0.0249559 0.863227 3.05379
1.58705 -0.666163 2.95973
1.32045 0.0988453 2.79116
1.4457 -0.633979 2.95287
-0.571906 0.796249 2.93276
-0.525819 -1.58615 3.48079
1.66671 0.0706981 3.11119
1.36869 -1.55552 3.37256
-0.627194 -0.935747 3.37207
1.91306 0.0543196 2.64831
1.0064 -0.105339 2.9052
0.701408 0.644461 2.97651
-0.966961 -1.58674 3.34174
0.331195 -0.873091 3.29599
0.700897 0.605539 2.96486
0.0172193 1.27783 2.88544
-0.395685 -0.0618579 2.99992
-0.450508 0.010722 3.00642
-0.509208 0.719331 1.96062
-1.21033 -0.842061 3.38003
-1.00499 0.724173 2.89857
0.0721183 -0.0268695 3.00189
-0.0627945 -0.791108 3.28404
1.91376 0.182605 2.74631
-0.38592 0.705731 3.0376
1.28861 -0.651519 2.87738
-0.485555 -1.04191 3.50866
0.577109 0.0739566 2.91637
-0.67789 0.807047 2.96468
2.24019 1.00568 2.98819
1.36095 -0.621133 2.88832
0.263841 0.913068 3.06582
-1.22349 -1.57321 3.42197
-0.505788 0.150081 2.97969
1.69461 -0.57784 2.83562
1.40705 0.758204 2.68533
-0.38773 0.115288 2.95774
-1.07352 -1.4722 3.33306
-0.802042 -0.0596468 3.03418
-0.915741 0.777072 2.80796
-0.03657 -0.888597 3.37185
1.21528 0.657247 2.83711
1.57138 -0.763783 2.92198
-0.810882 0.667031 3.05274
1.99373 0.0111795 2.63538
1.6869 -0.0398652 2.70539
-0.7221 -0.79482 3.33492
0.144347 0.0387325 2.96445
1.07351 0.73537 2.8336
-0.827227 -0.872958 3.35933
0.100074 1.32366 2.88292
-0.150185 -0.750988 3.26614
0.991134 0.000164722 2.87467
0.0669862 -1.67082 3.55727
1.18006 0.696666 2.8195
0.722396 -1.00861 3.31281
0.617047 -0.186227 2.99522
1.61101 0.467975 2.59417
1.76037 0.821873 2.56418
-0.714834 0.871725 1.86062
0.447101 -0.144793 2.97875
0.049768 -0.970872 3.35289
1.65135 0.542547 2.66906
-0.774044 0.699434 2.29267
-1.38208 -0.0998756 3.11506
-1.08583 -0.908726 3.34305
0.13935 0.564898 2.93501
0.802742 0.436698 2.91742
-0.203921 -0.349151 3.10842
-0.299728 -1.24522 3.54929
1.14767 1.08036 2.70568
-0.167365 -1.10515 3.26125
1.06776 1.07475 2.77222
4.66349e-05 -0.298611 3.0679
0.512315 0.396038 2.90728
-0.63201 -1.10027 3.3791
-0.0845829 0.515127 2.98019
1.39364 -0.262639 2.8442
-0.383508 0.721932 2.10708
1.06352 0.466883 2.89527
1.12905 -1.07693 3.36372
-0.894076 0.811342 1.96059
0.0892163 -0.224115 3.04664
0.819321 0.722569 2.92615
0.232904 -0.0270022 3.00961
1.80526 -2.10661 4.54277
-1.40138 -0.804898 3.20753
1.64869 0.0102607 2.77794
-0.56226 0.700581 3.00543
0.785916 -1.45982 3.41034
1.08542 -0.761948 3.08759
-1.01514 -0.762205 3.35869
-0.729324 0.0885495 3.01109
-0.947568 0.786848 2.83595
1.52809 -0.031583 2.25804
1.2896 0.722335 2.75987
-0.922717 0.748529 2.71925
-0.643751 0.0517799 3.02995
-0.826913 -0.730715 3.40041
1.4795 -0.86592 2.94899
1.91872 0.242842 2.70237
1.20288 0.583066 2.84022
-1.29193 -0.13847 3.10228
-0.323222 -1.66525 3.51527
0.306234 0.568833 2.92498
1.07767 -0.969889 3.42926
-0.40008 0.757412 2.07543
-1.33976 -0.0973123 3.22966
-0.26319 -0.877804 3.35808
-0.684493 -0.0585964 3.03693
1.7503 0.845249 2.56434
1.19148 0.622137 2.8512
-0.916327 -0.299166 3.12523
-0.388859 0.782165 1.90483
0.198302 -1.2297 3.57518
0.878498 0.469797 2.89961
1.26486 1.09609 2.72843
1.55557 -0.272205 2.94905
0.186286 0.441941 2.9223
-0.489526 -1.11928 3.44948
-1.06286 0.553962 2.99191
0.86758 -0.226704 2.99925
-0.427071 0.898959 2.65707
0.654675 -1.07445 3.38162
-1.28906 -0.949503 3.20375
-0.749792 0.676347 2.06743
1.08723 -0.178595 2.85122
1.35494 0.484622 2.8054
-1.48316 -1.2068 3.17723
-0.0554324 0.369253 2.96383
-0.743299 -0.423699 3.19555
1.0734 1.0419 2.75952
1.56882 -1.28301 3.41203
1.49123 0.30118 2.75197
0.867859 -0.373584 3.00557
-0.101527 0.957716 2.55827
1.44396 1.0082 2.59036
0.982066 0.398854 2.91695
-1.27445 -0.356132 3.1706
0.654835 -1.18664 3.3251
-0.77989 -0.255217 3.03136
-0.688678 0.687041 1.96447
0.589954 0.504589 2.95228
0.606594 -0.22427 2.95703
-0.611208 0.759243 1.86665
1.40897 0.489493 3.05439
-0.959434 -1.08025 3.49362
0.423941 1.34734 2.8888
-1.29305 -0.181898 3.12582
0.86399 -0.985375 3.23328
0.721387 0.564661 2.91827
-0.58637 -0.139262 3.07472
-0.409925 0.895206 1.91591
-1.08695 -0.98248 3.44808
0.753672 0.537602 2.94571
-0.958801 0.408416 2.94952
0.207068 -1.31138 3.56618
0.352487 1.12232 2.89508
-0.210263 -0.378534 3.10609
0.76676 0.357028 2.91762
-0.644106 -1.16953 3.34881
-0.0763404 0.916668 2.37899
1.13142 -0.338172 2.91315
-0.965988 -1.1293 3.35604
-1.22517 -0.302613 3.1612
-0.233339 -1.11007 3.39302
-0.0499332 0.451884 2.97707
-0.398413 0.771284 1.92177
-0.214611 0.97957 2.88548
0.485351 -0.547939 3.17464
0.27267 -1.55389 3.74427
-0.162858 0.270301 2.96491
1.51539 -0.473763 2.83477
0.321532 0.980124 3.0083
1.0055 -1.54272 3.76547
-0.802884 0.234118 2.98243
0.800489 -0.455056 3.05047
-0.360596 0.740499 2.01194
0.968752 -1.41433 3.55863
0.127606 0.320343 2.91402
1.17324 -0.401113 2.88242
0.944767 0.991466 2.82556
0.372366 -1.32821 3.49213
1.81263 0.27603 2.7715
1.53924 0.139271 2.86013
1.09708 -1.76601 3.80779
1.4178 0.787987 2.65098
-0.0279214 -0.670416 3.24651
1.06397 -1.59481 3.56422
0.621742 0.10913 2.92244
-1.27778 -0.64144 3.31891
0.0292459 0.857236 3.01771
0.410055 -1.52247 3.5386
1.67905 0.620217 2.63189
-1.40148 -0.603882 3.3053
-0.879256 0.196622 3.03982
-0.54747 0.671654 2.15701
0.419177 -1.61255 3.61389
0.567095 0.17376 2.90098
1.23538 0.851236 2.75848
-1.13676 -0.646782 3.28527
1.60523 0.12473 2.72584
1.26669 -1.67345 3.49627
1.21677 -1.5991 3.64933
1.25237 -0.577473 3.0388
-0.256854 0.880408 3.00196
0.352099 -1.49678 3.5737
1.69794 -0.501659 2.81355
1.50494 0.201079 2.77963
-0.279032 -1.4217 3.51879
-0.691174 0.664553 2.0312
-0.372612 0.776895 3.01113
0.128915 -0.795869 3.26001
2.40291 -1.53419 4.44556
-0.89133 0.0443609 3.07497
0.857866 0.706706 2.88144
-0.247254 -0.775644 3.3505
-0.998528 -1.10862 3.39189
1.12985 -0.00519425 2.83028
0.528888 -0.721448 3.25154
0.08974 0.856473 3.03788
1.48765 0.0972661 2.93629
-0.899855 0.775997 2.67336
-0.474521 0.827918 3.06159
1.55325 -0.619929 2.87195
1.79607 0.071234 2.8296
0.0319647 -1.65139 3.61087
1.94522 -0.0442488 2.64356
-0.235741 -0.947415 3.42678
-0.164915 0.910843 1.95835
-0.0433881 -0.105013 3.0058
-0.00891873 0.827615 3.736
0.243347 0.604303 2.94188
-0.34942 -0.889401 3.37593
1.42627 -0.072824 2.84068
0.364523 -0.844608 3.30972
1.76801 1.04687 2.55561
-0.911708 -0.0270307 3.10066
1.80168 0.891698 2.54966
0.827314 0.671004 2.90865
1.19047 -0.260855 2.87907
-0.732385 0.687928 1.97572
-0.462446 -1.17022 3.58013
1.49266 0.473332 2.77476
-0.688166 0.757374 1.8391
0.402093 -0.229495 3.05527
-1.03732 -1.02005 3.26772
-0.605388 0.487338 2.99368
-0.712078 0.61767 3.17461
-0.683064 -0.183725 3.0584
1.44771 1.15463 2.59903
0.501831 -1.02889 3.38556
0.243094 -1.02343 3.5168
-0.467409 0.83472 1.89963
0.838343 -0.148679 2.95809
0.777314 0.531592 2.93772
0.7707 -1.64308 3.74359
0.0920448 -0.067204 2.98363
-1.2583 -0.839177 3.17731
0.961473 0.668488 2.90267
1.48347 -0.762822 2.89823
-0.986417 0.235092 2.99431
-0.946124 -0.0285783 3.08275
1.69297 0.577801 2.67202
-1.07126 0.04377 3.01083
-0.488793 0.714141 1.98687
-0.953345 -0.80192 3.32579
0.201768 0.791709 3.07238
0.513945 0.00135446 2.97532
-1.4064 -0.757761 3.2587
-0.0979728 0.950685 2.03509
0.298247 0.74813 3.02918
0.0113534 1.22462 2.80178
-0.057237 0.544926 3.00036
0.873395 -0.194658 2.98828
-1.49506 -0.99237 3.26894
1.73272 0.762139 2.58515
1.0575 -0.150853 2.86007
-0.216232 -0.973871 3.37499
0.363079 0.609139 3.00287
-0.12952 -0.112027 3.08146
1.72882 0.510793 2.64974
0.388394 1.25248 2.89743
0.390316 -0.917988 3.2799
0.210585 0.432312 2.9163
0.365439 -1.29107 3.60034
-0.179615 -0.356701 3.12293
1.37113 1.04177 2.61212
-0.890572 0.403001 2.94838
-0.504878 -1.21755 3.55271
1.35635 1.01006 2.60657
-0.0687139 -0.307961 3.08075
-0.866343 -1.07899 3.33551
1.05416 0.494747 2.91139
0.588628 -0.273281 3.00081
-0.308641 0.798527 1.88363
-0.494102 0.485613 3.0101
-1.18067 -1.01658 3.30085
-0.864667 -0.226919 3.11759
0.404801 1.16252 2.84911
-0.798872 0.691624 1.95947
-2.09127 -0.767686 4.60077
1.13317 0.27367 2.82327
-1.14981 -0.469419 3.13971
-0.533933 0.695571 2.04281
-0.0141451 -1.45136 3.69836
1.08934 0.254781 2.89645
-0.709785 -0.431208 3.22246
0.435208 1.07106 2.85887
1.05866 -1.31645 3.39785
-1.33036 0.3759 3.00307
1.68624 -0.366078 2.75954
1.48799 0.939778 2.59331
-1.53469 -1.23503 3.33275
0.798532 0.314265 2.93545
1.09152 -0.982365 3.31962
0.966345 0.594259 2.90879
-0.166953 -0.147334 3.05376
0.143427 -0.936576 3.35478
-0.50367 0.589819 3.03097
-0.86837 -0.0986162 3.06848
0.595832 1.30133 2.86706
-0.918793 0.775648 2.79802
0.238549 0.678707 3.12706
0.873242 -0.0695933 2.96648
-0.483368 0.806728 2.42395
-1.21793 -0.872987 3.3448
1.32738 -0.291179 2.81463
0.515248 1.1754 2.86945
0.258976 -1.23571 3.58433
0.734249 0.472841 2.9248
0.805752 -0.271321 2.99167
-0.314733 0.784313 1.94953
-0.343187 0.448952 2.98713
-1.46691 -1.05409 3.19644
0.375827 -1.08165 3.42172
1.27398 0.509838 2.8179
1.80542 -0.222614 2.75694
-0.568366 0.853002 1.88067
-1.42098 -0.965616 3.21573
-0.913704 0.512405 2.96231
-0.51267 -0.182522 3.06398
-0.413423 0.899507 2.65593
-1.27258 -1.25058 3.31785
-0.848446 -0.425608 3.19596
-0.79737 -1.25665 3.45926
0.697116 0.31606 2.91864
-0.400807 0.731203 1.99746
0.132384 1.12284 2.90899
1.82717 -0.362106 2.84799
0.699533 0.395104 2.91718
1.54376 0.943774 2.47698
-1.06224 -0.358512 3.23832
1.16124 0.347466 2.87448
1.66514 -1.12756 3.11728
0.456698 -0.590472 3.17165
0.902957 0.936269 2.88181
-0.181056 -1.46342 3.37539
-0.423368 0.231064 3.0369
0.433716 -0.549148 3.16273
0.229309 0.914542 2.97363
1.33536 -1.51095 3.57852
0.590896 0.174415 2.89146
-0.518075 -1.46342 3.65023
0.306394 0.291129 2.93468
1.55149 0.912601 2.6022
-0.523544 -0.497939 3.12165
-0.805911 -1.32562 3.43236
0.953619 0.259574 2.90998
0.348374 -0.463223 3.09372
0.431478 1.00668 2.97049
1.04172 -1.31225 3.50953
-0.504808 0.403154 2.9765
1.37474 -0.37121 2.85447
-0.483812 0.751168 1.93168
-0.360133 -1.23423 3.47655
-0.929901 0.362805 2.94105
0.717826 1.07054 2.85099
0.170391 -0.353174 3.07063
-0.710766 0.726115 1.81526
1.40728 -1.11938 3.18676
-0.566991 -0.30672 3.08752
-0.444957 0.442905 2.97405
0.0169817 0.999194 2.96225
0.820856 -0.53943 3.07976
-1.30299 0.281076 3.02212
-0.85835 -1.44419 3.52778
-0.820166 -0.482323 3.0724
0.110921 0.985653 3.03202
-1.2536 -1.33489 3.37454
-1.20164 0.232711 2.97583
-0.733064 -0.472643 3.23596
1.74427 0.294997 2.76055
-1.22386 -1.29099 3.36285
-0.617105 0.695417 1.95001
-0.577676 -1.29587 3.43097
-1.03526 0.305048 3.00146
-0.27901 0.749125 2.11718
0.97047 -0.421028 3.01797
1.24262 -1.657 3.56793
1.32031 0.132251 2.80218
-0.159161 -0.676675 3.26166
-0.690388 -1.55283 3.25848
0.600616 0.871725 2.93883
0.798504 0.103832 2.92857
-0.929195 -1.50556 3.40404
1.07339 -0.61336 3.04166
0.364445 0.847409 3.00195
-0.634492 1.13515 2.85884
1.51768 0.798832 2.59028
-0.641493 0.187029 2.99105
-1.39685 -0.591242 3.20202
-2.30699 -2.44226 5.48962
0.609645 -0.0347705 2.94658
-0.355844 0.782141 3.17365
-1.03915 0.11226 3.04586
-1.34986 -0.809769 3.19532
-0.745142 0.00574075 3.02535
2.15764 1.00865 3.04075
-1.00256 0.681248 2.9059
0.52209 -0.79694 3.24313
0.366557 0.0752915 2.93606
0.230352 -0.761314 3.27855
0.709625 0.794124 2.93277
0.0454329 1.32001 2.85232
1.22618 0.0263744 2.80191
0.877497 0.751605 2.90443
0.833908 -0.700978 3.15664
-0.233683 1.00447 2.74478
-0.319991 0.76257 2.98008
0.0888305 -0.804843 3.28833
0.351819 0.0281161 2.9703
-0.279432 0.568599 1.83388
0.40975 0.737223 3.036
-1.12036 -1.03107 3.3363
1.04139 -0.740847 3.09739
1.71147 -0.0125584 3.1102
-0.0747214 -0.71913 3.26887
1.03579 0.0954607 2.86707
0.161226 0.844805 3.01906
1.37875 0.194669 2.01439
1.5732 0.698244 2.60313
-0.844097 -1.59814 3.44969
1.87301 -0.277832 2.71741
0.897373 0.0636821 2.91601
-1.01289 -0.684203 3.28661
1.49162 0.572936 2.66743
0.703351 -0.93308 3.28834
0.622317 -0.114495 2.99256
0.565176 -1.78199 3.7311
-0.954278 -0.88005 3.34046
1.42508 0.54428 2.69891
-0.626577 -0.0720322 3.07329
1.78258 -1.06049 3.00016
1.20424 1.24161 2.72863
0.0996103 0.687271 3.00227
1.29624 -0.0461847 2.81957
-0.97316 -1.35311 3.41087
0.559226 -0.866263 3.337
-0.0452959 -0.268877 3.05346
-0.56364 0.777648 1.84839
0.677994 -1.14663 3.42996
-0.819362 0.521573 3.05848
-0.687497 -0.232325 3.09799
0.319143 1.18582 2.92119
0.653771 0.461814 2.9232
1.2605 -1.03959 3.20888
-0.914603 0.624577 3.23344
-0.198606 -0.193291 3.05656
1.28152 1.20453 2.69332
-0.877986 -1.02433 3.41094
0.447129 -1.00758 3.42711
0.942348 0.522155 2.89222
1.46823 -0.153516 2.77943
0.000739425 1.23032 2.72951
-1.16548 -1.17765 3.26178
-1.00723 0.395383 2.91775
-1.3304 -0.39815 3.1872
0.0655381 1.12678 2.92916
0.432919 -1.27478 3.54525
-1.38763 0.370538 3.00213
-0.54373 0.734232 1.95064
0.293207 -0.364678 3.08936
0.922172 1.09908 2.7654
0.906232 0.430737 2.93559
-1.35598 -0.326762 3.16853
-0.0383211 -1.2011 3.47806
1.35539 -0.228099 2.81748
-0.483744 0.824693 1.89043
1.15412 -1.07691 3.33171
-0.338708 0.546802 3.04016
-0.0389062 -0.196519 3.0632
0.756173 1.18059 2.8179
1.14993 1.24295 2.72779
0.820571 -1.01279 3.26318
1.27573 0.480026 2.83564
0.648556 -0.157747 2.99028
1.75892 -0.898849 3.02171
-0.0440549 0.660722 3.21301
-0.451868 -0.111297 3.04335
0.504877 1.31675 2.87538
-1.4067 -0.903221 3.23041
1.50099 0.510575 2.69035
-1.50475 -1.18762 3.29819
-0.80847 0.438791 3.01068
1.05625 -0.354669 2.93376
-0.472112 0.747648 1.89724
0.00228771 -1.19189 3.44352
1.62143 0.350339 2.6824
0.655576 1.11054 2.89614
0.187378 -0.322921 3.08131
0.411301 -1.189 3.56711
1.05488 -0.271542 2.89585
-0.51304 0.46602 2.96008
0.139066 1.16758 2.88381
0.382369 1.03306 2.96942
0.252029 -0.509168 3.12947
1.35406 0.268095 2.80282
1.02364 -1.43122 3.47463
1.30799 -0.450148 2.88557
1.02446 0.940808 2.7867
1.07938 -1.39467 3.48467
0.110021 0.256262 2.92403
-1.18319 -0.438917 3.20612
0.875882 0.348207 2.91784
0.545486 -1.38351 3.58937
0.00880652 1.08423 2.91852
-1.00529 -1.26885 3.46576
0.7194 1.0286 2.85362
1.62947 -0.365587 2.75568
-1.37809 0.325444 2.95922
1.72243 0.163525 2.74575
-1.27042 -1.42184 3.16121
1.48947 0.795311 2.60128
0.0715953 -0.639368 3.21106
-0.486912 -1.49098 3.47915
-1.17535 0.145745 2.95695
1.70184 -0.541589 2.78965
0.153978 0.876626 2.98559
1.25584 -1.60111 3.74989
0.70999 -1.47482 3.57257
-0.0909127 0.969193 3.02826
-0.0408523 -0.554241 3.16979
1.73175 0.202174 2.74677
1.49012 0.427297 2.702
1.01011 -0.311745 2.94029
-0.638768 0.757717 1.86741
1.54063 -1.15566 3.26358
0.227271 -1.16019 3.50518
-0.20215 0.785191 1.96111
0.917013 -0.273782 2.98133
-1.03093 0.454822 3.04756
-0.27325 -1.05941 3.34581
-0.883192 0.563884 3.08191
1.39082 -0.226444 2.83075
-0.567785 0.835244 1.87882
-0.547029 0.511541 2.9821
-0.489941 -1.08907 3.56818
1.08806 1.14202 2.70574
1.76687 -0.191174 2.80007
-0.361225 -1.3252 3.4888
0.25726 1.0776 2.96909
1.43839 -0.404569 2.83924
-0.21632 0.323724 2.97911
1.25021 1.05439 2.72533
0.029754 -0.389112 3.09543
1.48586 0.389087 2.92445
0.247185 -1.31518 3.55084
1.41591 0.985882 2.62443
1.25577 -0.347033 2.86069
-0.986813 0.36266 2.96189
-0.879189 -1.19845 3.39208
-0.9402 -0.577934 3.15033
-0.101646 0.222948 2.97513
-1.00141 -1.42265 3.30924
1.28208 0.887693 2.74739
-0.320687 0.928674 3.0396
1.0125 -1.58471 3.746
1.74286 0.155268 2.73969
0.338179 -0.548623 3.13962
-0.601513 -1.63086 3.42236
-0.16281 0.292326 2.96856
0.934248 -1.57141 3.82016
1.04392 -0.48419 2.93385
-0.0809818 1.04447 2.9965
0.537393 -1.48788 3.7469
-0.328973 0.26523 2.9779
-0.215582 -0.469143 3.16055
-0.728359 0.676287 1.98476
-0.0146633 0.797556 2.97301
-0.691389 0.0768902 3.01123
-0.998412 -0.578794 3.28184
-0.688927 -0.737739 3.37917
-0.822781 0.668905 2.25702
0.454306 -0.664447 3.14832
-0.566474 0.144625 2.97499
0.379627 -1.64347 3.56879
-0.918182 -0.662038 3.39354
1.33972 0.761778 2.70305
-0.508302 -1.55867 3.50559
0.47815 0.101379 2.92404
1.23438 0.923014 2.74288
-1.34141 -0.561384 3.2301
2.19774 0.972117 3.04104
-1.75037 -1.50448 3.52941
1.49283 0.24727 2.85321
0.48175 -0.516325 3.15531
-0.413754 0.684936 2.10552
-2.22352 -1.91726 4.62604
-1.12509 0.233411 3.05333
-0.836245 0.320761 2.96648
-0.998941 -1.37561 3.46272
0.369643 1.0732 2.96445
1.59694 -0.45013 2.86495
-0.76201 -1.31836 3.49981
-1.32937 0.309546 3.01652
-0.707714 0.69414 1.97161
-0.0398351 -0.440734 3.16264
0.883989 -1.70843 3.68165
1.25488 -0.647145 2.99515
0.798778 -1.69169 3.64476
-1.37872 0.118659 3.08407
-0.569202 0.831623 2.95085
1.29864 1.03176 2.72183
1.31912 -0.5848 2.85977
-0.665245 0.643281 2.07408
1.18228 -1.7197 3.78445
-0.209575 0.181572 2.9797
0.494377 -0.60422 3.21614
1.08438 0.832443 2.82381
1.68621 0.123441 2.77006
-0.077362 -1.57095 3.63579
-0.0606553 0.720496 2.96075
1.16928 -0.0423045 2.84083
0.0867054 1.28038 2.76926
-0.56214 0.00330852 3.04078
1.41087 -0.77251 2.93292
-0.915681 0.674446 2.93904
2.28321 0.937523 3.20335
0.887511 -0.785182 3.16424
1.45328 0.0588949 2.87658
-0.560746 -0.765148 3.29099
-0.325365 0.811018 3.01885
0.802554 -1.55002 3.73136
-0.935249 0.041765 3.06704
-1.10954 0.229129 3.0297
-1.00851 0.775297 2.99947
0.0359013 -0.715825 3.25029
-0.101381 -0.977952 3.37213
0.314537 -1.72296 3.62573
-0.194416 -0.152297 3.04066
0.0701305 1.2372 2.78096
0.969353 0.555963 2.90044
0.264973 1.33098 2.90664
1.82347 0.883904 2.55051
-1.16353 -0.109106 3.12657
-0.51266 0.65778 3.04289
1.50543 -0.82229 2.8403
-0.286621 -0.0732456 3.04625
1.66252 -0.806245 2.9017
1.2265 0.56416 2.80179
-1.25618 -0.910625 3.26698
-1.30577 -0.114594 3.10074
1.80907 0.505968 2.65112
0.199575 0.586427 2.93405
-0.650363 0.703271 2.20442
0.589442 -0.0791693 2.9508
0.517755 1.28819 2.8782
-0.615593 0.693136 3.04694
0.266269 -0.904406 3.32866
-1.26544 -0.0421404 3.08051
1.04023 -0.863404 3.28111
0.618536 0.634595 2.99059
-1.28927 -0.287711 3.19929
-0.745702 0.752392 1.79274
-0.737116 -1.11936 3.40482
-0.292106 0.502565 2.97946
-0.215144 -0.235828 3.08221
0.437739 1.17024 2.88477
-3.40985 1.10839 7.05097
0.595693 -1.09456 3.39344
-0.785666 -1.05287 3.46316
1.00763 0.55074 2.90756
0.666884 -0.199996 2.97198
-0.32226 0.800773 2.09879
0.0579758 0.534539 2.97118
1.15034 -0.989697 3.29857
-0.30506 0.898205 1.93697
-0.765223 -0.154124 3.07205
0.868917 -1.38044 3.68556
-0.983047 -0.39475 3.15345
-0.0799872 0.35555 2.97808
-0.762932 0.706307 1.89747
1.76346 -0.348161 2.73056
1.61367 1.00425 2.53793
1.55482 0.366956 2.51135
-1.06715 -1.09421 3.0932
-0.671716 0.733013 1.92055
0.412506 -0.329675 3.08723
-0.266143 0.38408 2.93103
0.494382 -1.29327 3.69452
0.140031 -0.558396 3.16537
-0.239269 0.256437 2.98414
-0.736645 -1.45796 3.52486
1.6863 0.856135 2.55443
1.38849 0.848416 2.64465
-0.92822 -1.39539 3.48539
-0.0562568 0.217481 2.95321
0.882353 -0.510188 3.05233
-0.694753 -1.35029 3.45286
-0.794763 0.32562 3.00606
1.13502 -0.4496 2.88882
0.690009 1.03019 2.86827
-0.143239 -1.36603 3.5737
0.0843466 0.281381 2.91216
-0.758808 -0.429091 3.14047
0.625712 1.00436 2.89126
-1.3923 -1.14101 3.16723
0.0572907 0.423354 2.93675
1.16234 -0.357566 2.88958
-0.784899 0.730852 1.8483
0.587939 -1.23755 3.527
0.268479 0.376292 2.90538
-0.827717 0.716452 1.85854
1.08979 -0.319233 2.89037
0.204047 1.1875 2.94137
1.36373 0.436146 2.80547
-0.483577 -0.283738 3.08596
-0.661431 -1.11547 3.38162
1.3422 -0.483722 2.8444
-0.491105 0.701573 2.02319
1.23106 0.27193 2.86181
0.527968 -1.51361 3.68029
-1.38019 -0.494313 3.24437
0.635028 0.977878 2.91577
-0.952135 -1.38858 3.56705
0.663212 0.246212 2.93211
-0.622135 0.352111 2.95745
1.40383 -1.32528 3.36375
0.0459885 1.07892 2.91939
-0.656106 -0.437582 3.1638
0.630763 0.306569 2.92039
0.427169 -1.30397 3.49994
-0.79603 0.684459 1.88429
0.564902 -0.398318 3.0557
-0.0694101 -1.58 3.53295
-0.536334 0.177609 2.97536
-1.44068 -0.614741 3.04716
0.784616 0.875312 2.86944
0.868698 0.129022 2.91094
-0.80886 -1.44977 3.35503
0.374582 -1.74562 3.63813
-0.564359 -0.575836 3.10029
0.36019 0.871449 2.97763
0.680777 -1.63262 3.61868
-0.45206 0.678813 2.10565
1.32541 0.196873 2.79987
1.2747 -0.537035 2.93065
0.791845 -1.72119 4.03877
1.34565 0.694243 2.73272
2.25454 -0.194843 3.57684
-0.282698 0.0307416 3.01524
0.406104 -0.818221 3.31718
-0.249945 0.746645 3.09
-0.0880563 1.10312 2.94597
0.710731 -0.0157978 2.94306
-0.80905 -0.802554 3.43268
0.917543 0.0953118 2.90422
1.67685 -0.768059 2.55868
1.04011 -0.687567 3.04211
-0.112962 0.847552 3.05424
-0.262367 0.0659876 3.03341
-0.807357 -1.60305 3.44705
1.86512 -0.498021 2.74853
1.6559 0.70784 2.65177
-0.930585 -0.692311 3.29851
-0.196368 0.768722 2.10857
-0.576528 0.323447 3.01537
0.468322 -0.429803 3.06258
-1.05064 -1.25213 3.29652
0.978563 -0.390127 2.99413
-0.346634 0.766223 1.98102
1.33647 -1.23625 3.27013
0.59778 0.384349 2.9529
0.703939 -0.363051 3.0328
1.45003 0.983175 2.63643
1.49387 -1.23413 3.3581
0.514799 0.340728 2.88083
0.800986 -1.72125 3.90969
1.18711 0.203046 2.81455
0.157172 -0.598035 3.18792
-0.362012 0.918267 2.7804
-0.174246 -1.51429 3.62239
0.968684 0.162882 2.87441
1.59041 -0.502173 2.76103
1.08164 0.864058 2.82677
1.41567 -1.4119 3.38965
1.42466 0.266867 2.78374
0.657449 -0.515201 3.12474
-0.33161 0.726409 2.06491
-1.45773 -1.23005 3.06677
-1.37964 0.282463 3.08954
-0.762355 -0.472702 3.18191
0.382151 0.993441 2.96419
0.137619 0.810513 3.04043
-2.48476 -1.26761 5.22427
-0.100307 1.32773 2.89586
0.448313 0.0634794 2.9423
-0.521679 0.771263 3.02654
-0.306717 -0.713926 3.24014
-0.681761 -0.985908 3.55879
-0.17334 0.0328052 3.00033
1.06502 -0.658892 3.04441
-0.504823 0.806946 2.76587
-0.0872168 -1.69275 3.63665
1.73453 0.118877 2.74348
1.84792 -0.327564 2.72057
1.56596 -0.590354 2.85685
-0.515898 0.838052 3.004
-0.470419 0.10619 3.01379
0.711199 -1.75123 3.87771
0.734732 -1.59096 3.75266
0.408646 -0.886748 3.2702
-0.998346 0.78664 2.84642
-0.829224 0.704887 3.05935
-0.860732 -0.0672969 3.06191
0.0373681 -0.845195 3.28592
0.559386 0.63575 2.96662
-0.58157 -0.0369627 3.06794
1.26765 -1.79204 3.7155
-2.15819 -1.1022 4.39083
-0.283758 0.883733 2.43393
-0.30451 0.952959 2.74774
0.128671 -0.00651743 2.96354
-1.13198 0.724386 2.94486
-3.14285 -3.24878 6.92852
1.09477 0.780769 2.80144
1.46369 -0.638922 2.92045
-1.18674 0.118998 3.13699
-0.101769 -1.69848 3.5255
0.623115 -1.48225 3.58035
1.2471 0.828794 2.72914
-0.197609 -0.647591 3.26405
-0.0737404 0.176226 2.97096
-0.879473 -1.52634 3.42641
1.20632 -0.584899 3.02459
1.43103 0.761854 2.60843
0.183426 -1.52931 3.52748
-0.236038 0.139381 2.99542
-0.218448 1.16015 2.95622
0.292983 -0.0421153 2.96519
-0.234451 -0.00785724 3.05114
0.0157032 1.19022 2.88034
1.44046 -0.772496 2.91101
0.138794 0.733241 3.03002
2.32426 -1.52616 4.21113
1.15918 -0.779258 3.11025
-1.16223 0.670174 2.89067
0.317735 -0.786083 3.31532
1.78332 0.0594246 2.76887
-1.00428 0.79265 2.91933
1.53013 -1.50011 3.45063
1.64143 -0.827721 2.7296
1.61119 0.0261582 2.67378
-1.33561 -0.718932 3.27628
1.71726 0.700536 2.71444
0.246156 1.27066 2.91933
-1.19936 0.534979 2.76319
1.27483 1.14393 2.67739
-1.02012 -0.158169 3.15297
0.296381 -1.00156 3.40393
1.8666 0.992354 2.54819
-0.0723814 -0.113554 3.03756
0.192574 -0.934092 3.31681
-0.71714 0.637799 2.99141
-1.20111 -0.0739962 3.10071
-1.07136 0.590061 2.90579
1.32119 -0.845829 3.04178
-0.917876 0.466833 2.96074
-0.743399 -1.16695 3.40358
1.6031 -0.297401 2.73645
0.835707 1.13443 2.79351
1.49884 0.391042 2.72663
-1.05057 -1.07831 3.30819
-0.301725 -0.277471 3.06881
-0.0924804 0.832476 2.11994
-0.020034 -1.07702 3.397
-1.09348 0.532945 2.93606
-0.5192 -0.235713 3.08273
-0.458283 0.873202 1.89729
0.18964 -1.11106 3.62244
-1.71161 0.622165 3.63977
-1.04449 -0.197159 3.11275
-0.136412 0.84262 2.00492
0.390118 0.482493 2.93262
1.26708 -0.279726 2.86254
-0.156334 0.839289 1.99258
-1.11273 -1.09389 3.32829
-1.31312 -1.03599 3.25759
0.753134 1.1349 2.80858
1.56682 -0.247252 2.84784
-1.10344 0.460743 2.92463
0.804292 -1.07319 3.42249
-0.954982 0.557577 2.95485
-1.35381 -0.207174 3.08635
-0.607946 0.841751 1.87088
1.38331 0.497963 2.80643
1.18212 -0.967725 3.22313
-0.891495 -0.162475 3.1013
0.949396 1.03284 2.7959
0.132179 1.33031 2.88447
1.06433 0.339488 2.89755
-1.06383 -0.405686 3.16621
0.626311 -1.30689 3.4838
-1.35572 -0.38201 3.17953
0.310182 1.17963 2.97619
-1.37073 -1.16416 3.25189
1.79552 0.400663 2.7932
-0.267649 0.775308 2.01052
0.502959 -0.331192 3.03775
0.4027 -1.24147 3.53404
1.50342 0.345084 2.74125
-0.0126753 -1.53285 3.63902
-0.790971 0.256085 3.03238
1.51655 -0.506267 2.72904
-0.694507 0.66973 2.04262
0.807284 -1.71793 4.13181
-0.75762 0.216369 2.95215
0.762538 -0.518737 3.07416
-0.769362 0.64648 2.0337
-0.337401 0.315918 2.96788
1.40923 -1.67936 3.55657
1.41527 -1.52795 3.7362
0.917588 -0.472831 3.02377
-0.00321057 1.04904 2.93721
0.442488 -1.41038 3.63085
0.840433 0.273931 2.90156
-1.03086 -0.438148 3.17508
1.67084 0.877306 2.56268
1.64904 0.742389 2.66957
1.02097 -1.59833 3.62095
0.0393707 0.0985769 3.00256
-1.4031 -0.674426 3.15296
0.579201 0.894436 2.94501
0.131544 -0.649139 3.21806
0.635074 0.163673 2.8999
-1.04761 -1.5518 3.44299
1.26156 -2.02144 4.1162
0.988886 -0.590468 3.04679
0.738342 0.844644 2.89602
0.483925 -1.64645 3.76504
-0.745417 0.137034 2.99548
-0.278682 0.971916 2.38086
0.284213 -0.52585 3.12844
0.16422 0.277122 2.92891
-0.188571 -1.45865 3.57133
0.886541 0.978128 2.84886
-1.34522 -0.497317 3.22934
-0.197813 0.983561 2.97233
0.0998633 -1.39655 3.48888
-1.38794 0.255317 3.01369
-0.531811 0.354989 3.01113
-0.340696 -1.35684 3.53434
-1.43299 -0.458204 3.19718
-0.342576 0.746526 2.00972
-0.471569 -1.31397 3.54677
0.331186 0.304571 2.92356
-0.526718 -0.416465 3.25469
1.30701 0.979932 2.73485
-0.280476 -1.63233 3.63736
1.44588 -0.593016 2.84372
0.951566 0.123942 2.89802
-0.375564 0.890214 3.05458
-0.692726 0.958431 2.94597
0.629378 -0.60531 3.1543
0.977081 0.909506 2.85483
0.042041 -1.5392 3.53757
1.64965 0.186396 2.69678
-0.96476 -0.564779 3.15285
-0.798739 0.638245 2.10681
-0.289968 -1.48576 3.54763
-0.313312 0.172022 2.9745
1.1947 0.012699 2.78763
1.53495 -1.01654 3.28468
1.25976 -0.764984 3.01042
-0.237133 0.771134 3.05205
-1.19387 -0.768047 3.28022
-0.0230803 0.730112 3.04491
-0.276481 1.04846 2.86695
0.154911 -0.0154243 2.96382
-0.76837 0.104866 3.0338
-0.723058 0.822406 2.95751
1.00802 -1.74559 3.68269
-0.473609 -0.737043 3.28151
1.62329 0.601115 2.54735
-1.19012 0.0685395 2.97234
0.493727 -0.693329 3.21401
0.401285 0.798325 2.99379
1.29749 -0.888264 3.05528
0.999745 0.582907 2.92529
-0.546798 -1.61757 3.44876
-0.462809 0.717303 1.93727
1.4318 -0.129158 2.75112
1.92182 0.43831 2.64331
1.18766 -0.0822297 2.77053
0.853676 0.657817 2.90623
0.975299 -0.920543 3.32294
-0.0409621 -0.0495326 3.0216
-0.678109 0.629294 2.98325
0.436217 1.30063 2.8828
1.74223 -0.735056 2.76298
0.254766 0.210286 2.96213
1.05381 -1.57433 3.56978
0.615669 0.940201 2.94429
-1.39357 -0.632391 3.33365
-1.20995 -1.41337 3.36826
-0.408308 -1.59065 3.42856
1.41791 0.157656 2.83342
-0.144598 -0.557798 3.14644
-0.458815 0.888231 2.89539
-1.08899 -1.32682 3.30135
0.896759 -1.78335 3.64982
-0.908719 -0.507664 3.14703
-0.0117213 0.246342 2.94946
-0.309023 0.744246 2.19631
1.23506 0.74054 2.76661
1.41047 -0.728231 2.97879
0.804543 0.0563754 2.89414
-0.16303 0.950562 3.02313
-0.731759 -0.734182 3.29528
1.15714 0.720529 2.83037
0.658543 -1.47181 3.55343
-0.83581 0.0344174 3.07229
-1.22277 -0.714807 3.39058
1.75708 0.111809 2.7349
-1.2191 0.831896 2.82223
-0.272711 0.83972 3.02213
1.82927 -0.533561 2.79117
-1.18534 -1.561 3.4518
-0.308292 0.10194 2.95961
1.00115 -0.621571 3.02665
1.13685 -2.12186 4.83619
-0.54836 -0.948254 3.52869
-0.0289598 -0.0754552 3.01089
-0.503953 0.699872 3.08559
-0.331869 0.653779 3.08123
1.20092 -0.827754 3.11825
-1.17994 0.0101946 3.09088
1.07826 -0.0511881 2.87579
1.7496 0.984432 2.54076
-1.60794 -0.83297 3.34436
1.29934 0.664476 2.76967
-1.04972 -0.00816858 3.05202
1.8709 0.515366 2.63787
-0.385885 -0.240465 3.06029
-0.0155579 1.22639 2.64658
-1.34772 -1.00967 3.16885
0.69578 0.523877 2.94841
0.981411 1.15724 2.76685
0.00519128 -0.202674 3.04959
1.03173 1.22786 2.75272
0.145923 0.488189 2.92016
-1.286 -1.05581 3.40002
-0.59068 0.630065 3.11681
1.1206 -0.157857 2.82959
0.976685 -0.97717 3.26228
-0.147143 -0.950926 3.40317
0.312211 1.26572 2.9055
0.907378 -0.122707 2.93706
0.0179941 0.580206 3.04232
1.87633 -0.548329 2.75963
-0.386503 -0.863846 3.358
0.452915 -0.0175991 2.97729
-1.04965 -0.0402972 3.11146
-0.749517 0.719222 3.00594
-0.150428 -0.812947 3.32109
1.09664 0.654898 2.89043
-0.774656 0.07138 3.06329
1.89559 0.142146 2.74216
-1.13768 -0.787706 3.34771
-0.77722 0.799162 3.00818
-0.342795 0.027135 2.97543
-1.01899 0.783415 2.83075
0.951289 0.730031 2.87215
1.11915 -0.695596 3.01482
-0.602991 -0.204209 3.10712
-0.654658 0.793302 1.86477
-1.82991 -1.1823 3.78325
0.192721 0.547048 2.91262
0.908312 1.20453 2.77607
1.5381 -0.163663 2.80791
-0.595437 0.827256 1.87271
-0.991027 -0.974201 3.35144
0.886436 0.241923 1.36439
-1.0417 0.789633 2.85292
-0.417726 -0.116999 3.01793
-0.584809 0.642435 3.04234
0.276316 -0.965067 3.39853
-2.66445 -0.26506 5.76574
1.39645 -0.800544 2.86855
-1.21517 0.590349 2.90006
0.13551 0.456096 2.92897
1.49797 -1.1612 3.2436
-0.848312 -0.337779 3.18128
-0.661927 0.745041 1.84559
1.40673 -1.15882 3.3857
-0.0990838 0.428239 2.97246
0.814347 1.1111 2.82244
-1.07366 -0.285375 3.14982
-0.563695 -1.14115 3.58236
1.40694 -0.231878 2.7486
1.69393 0.471504 2.85783
0.354742 1.21283 2.90192
0.991689 0.99718 2.7753
-0.998786 -0.462707 3.09405
-0.148276 0.315549 2.97647
-0.541772 -1.36515 3.46168
0.837273 0.977408 2.83256
-0.466763 -0.449336 3.24846
1.13335 -1.33791 3.39706
-0.898196 0.290462 3.00438
0.363949 -0.406863 3.11942
0.676871 1.09949 2.88725
-1.15188 -1.22592 3.34708
0.468568 0.371498 2.88842
-0.650034 0.719997 1.92824
0.368236 -0.3759 3.13247
0.113559 -1.28211 3.5638
1.56105 0.306177 2.67949
0.166833 1.08131 2.94981
0.976127 -0.443632 3.00989
-1.14966 0.352317 2.99076
0.702082 -1.40994 3.60648
-0.479905 0.715394 1.98404
1.50311 -0.382546 2.781
0.513689 -1.36526 3.62412
-0.424454 0.309229 2.95501
0.647043 -0.364947 2.96336
-0.361401 0.764057 1.94932
0.0944405 -1.29328 3.5689
-1.2358 0.430225 2.99415
1.57473 0.983655 2.55912
-0.270818 -0.336051 3.11846
1.36522 -1.19784 3.33566
0.182393 0.370236 2.91935
1.07567 0.232863 2.89414
-1.04141 -1.38258 3.27542
-0.377589 0.708805 2.11913
1.51471 -0.538998 2.87456
0.615238 -1.53471 3.71416
0.643094 0.200332 2.90478
-0.592214 -0.531814 3.21294
-0.588185 0.654605 2.05026
1.24828 -1.49062 3.65672
1.57091 -0.448977 2.75325
1.00637 0.269291 2.909
-0.250898 0.906655 2.58451
1.29505 -0.679453 2.90353
1.39464 0.74933 2.71185
0.563709 -1.47273 3.58639
1.71207 0.0889262 2.76223
-1.1771 0.737237 2.73776
1.35974 -0.659783 2.98249
1.65502 0.0431483 2.80927
0.740001 -0.646389 3.12635
1.06534 0.154606 2.84272
1.43724 -1.66761 3.62669
-0.829811 0.632459 2.08632
0.676961 0.857793 2.95778
1.35361 -0.571475 2.89308
2.40405 -0.966361 3.83097
-0.595262 0.131485 3.00428
1.21813 -1.69783 3.82887
-0.277238 1.08585 2.45641
0.874808 -0.856162 3.22993
-1.16591 -0.0155882 3.0874
0.521642 -1.47011 3.57401
-0.0771509 -0.0517003 3.02233
1.34971 0.646918 2.71562
-0.200301 -0.806313 3.28934
1.47246 0.611973 2.73594
0.74098 -1.88569 3.97005
1.00069 -0.786896 3.239
1.9038 0.375675 2.67774
1.59887 -1.4847 3.39636
1.64076 0.00920897 2.75502
0.0480839 0.762465 3.03771
-0.760495 0.626127 2.15697
-0.21021 -1.68183 3.60839
-1.3247 0.139514 3.08831
1.64741 -0.606645 2.84553
0.206087 -1.68065 3.70555
-0.478482 0.679734 2.12436
-0.227539 -0.613719 3.20361
-1.05933 0.217397 3.02874
1.1434 -1.49493 3.36526
0.933573 -0.559328 3.01993
-1.1393 0.745894 2.45969
-1.16404 -1.40434 3.32469
-0.721745 0.172997 2.95275
1.8658 0.994441 2.5504
1.09047 -0.788793 3.10738
-0.868839 -1.26637 4.48972
0.910982 0.0143976 2.90587
1.49372 -0.0294619 2.79685
1.26543 0.696139 2.77605
-0.597444 -0.755675 3.20511
-0.251984 1.08073 2.45388
1.14667 0.67921 2.84055
0.0104553 0.0929326 2.97547
1.56844 -1.37761 3.19725
0.79459 -0.731745 3.17157
1.12118 0.77537 2.80652
0.958417 0.0483687 2.89989
-0.525982 0.78032 2.26796
0.497541 0.773771 2.91965
1.66365 -0.63325 2.82059
-0.38465 0.604313 3.04846
1.82676 1.03905 2.55017
1.36179 -0.127443 2.70729
-0.0471997 1.07 2.40805
1.37309 -0.904752 3.08793
1.89181 0.082845 2.71543
-0.320004 0.685076 3.06136
-0.542825 -0.0861558 3.07147
1.40976 -0.850597 3.01343
1.7372 -0.0567762 2.77601
-0.0870977 -0.87489 3.33358
1.46087 0.561019 2.68248
1.0292 -1.13046 3.30789
0.567767 0.479859 2.93615
0.502372 1.25859 2.87796
0.735676 -0.28994 3.03278
1.00711 1.14411 2.74787
1.47363 0.425933 2.79514
-1.14957 -1.0425 3.29034
-0.722055 -0.243119 3.05067
0.721334 1.15302 2.86195
-0.59408 -1.11147 3.60463
1.32601 0.516777 2.78638
-0.787741 -0.204708 3.06247
-0.159906 -0.99236 3.37024
-0.767718 0.533781 3.04236
-1.43871 -0.171181 3.088
-0.443713 0.899866 1.87767
-0.114235 0.791994 2.98874
-0.360981 0.843172 1.92765
1.30527 -0.729599 2.97559
1.09507 0.0498821 2.8235
-0.588586 0.765373 3.04158
-1.35773 -0.725996 3.21653
0.52063 -1.4729 3.58216
-0.0459785 0.0229741 2.96081
-1.41057 0.136623 3.05333
1.95188 0.708433 2.57803
-0.734762 -0.687577 3.26868
-0.66917 0.857397 2.89341
-1.1116 0.112698 3.12218
-0.443625 -1.60905 3.56746
0.270646 -0.0857754 0.144047
0.636661 -0.653215 3.18785
1.50409 0.727773 2.62881
1.10884 -0.858213 3.08687
-0.184395 0.670522 2.95548
1.87005 0.106745 2.7231
0.972074 -0.081416 2.91193
-1.28941 -0.824192 3.18784
0.782013 0.61575 2.93088
-1.47618 -1.58449 3.36436
1.48281 -0.0572053 2.84045
1.5268 0.377351 2.27681
1.79359 0.956052 2.53836
-0.861552 0.713455 2.97693
-1.00502 -0.00448218 3.07337
1.18222 -0.775904 3.07133
-1.09396 -0.249879 3.14157
-0.548552 0.819918 1.88862
0.785957 -1.09211 3.35349
1.68339 0.452589 2.60105
0.974127 -0.208872 2.92826
-0.716879 0.781934 1.86342
-0.125541 0.684598 1.64051
-0.573961 -1.0524 3.41859
-0.393159 0.49448 2.97634
-0.488524 -0.995533 3.36422
0.0875044 0.602519 3.00354
-1.46778 -0.167418 3.0931
-0.995437 -0.920071 3.29302
0.512191 0.535703 2.8968
-0.678583 -0.124107 3.05274
-0.653145 0.857668 1.86069
1.3777 -1.22813 3.32236
0.330751 -0.374072 3.09469
1.28432 0.362024 2.84159
-0.540035 0.74827 1.9445
0.0485179 -0.331141 3.06564
-0.315016 0.790245 1.968
-0.55774 0.463485 2.98039
-1.52238 -1.14864 3.26503
1.0041 1.11908 2.8442
0.117324 -0.287181 3.06214
1.82371 0.394189 2.78362
0.538415 -1.19135 3.53273
-0.252031 -0.210913 3.08505
-0.262611 0.869326 1.95665
0.444605 -1.07123 3.43502
0.372781 1.34301 2.88623
-0.858306 0.594701 3.16789
-0.283234 0.921988 1.9355
1.76154 0.730655 2.59246
-0.439531 -0.168114 3.083
0.276607 0.514986 2.9335
0.2073 -1.05297 3.54803
-0.198522 0.652593 3.08657
-0.554717 -0.131236 3.07898
-1.3227 -0.922027 3.26124
-0.490263 -0.95432 3.51577
-0.072555 -0.0831493 3.02548
-0.128986 0.601517 2.99662
0.726464 -1.23203 3.48106
1.73151 0.420771 2.696
0.966571 -0.324551 2.90713
1.48352 1.02877 2.52998
0.483331 0.408908 2.91082
1.35986 -1.15044 3.34012
1.13026 -0.279601 2.85109
0.103925 1.1323 2.90278
1.19534 1.12561 2.69228
1.541 0.436114 2.69823
0.985213 -0.2495 2.93337
0.199137 -1.11662 3.46249
0.882494 -0.485021 3.06698
-0.0582753 1.06789 2.98653
1.54356 0.276502 2.71036
-1.07499 -1.30943 3.3488
-0.95899 -0.462345 3.25674
-0.0424982 1.02326 2.97071
-1.44797 -1.19888 3.08482
1.72103 0.252223 2.6809
-1.12941 -0.421153 3.25361
0.0769006 0.374159 2.91554
1.52713 -1.31647 3.42529
0.279359 1.13323 2.975
1.6187 -1.19317 3.21404
-1.48035 -0.385226 3.21888
-0.758138 0.70642 1.89606
0.179375 0.341069 2.92555
0.56589 -1.57629 3.61384
-1.2695 0.222942 3.02592
-1.4303 -0.605547 3.1667
1.57739 0.82114 2.59221
0.515424 -1.59127 3.74534
-1.1059 0.171329 2.92567
1.51167 -0.568809 3.05365
1.41 0.811642 2.69507
0.985797 0.945688 2.85406
0.596827 0.236949 2.90675
0.0511604 -0.531556 3.1774
-1.35806 -1.32646 3.25689
0.632041 0.23063 2.92698
-1.18207 -1.36405 3.22739
0.184507 0.980097 2.99289
0.677228 -0.576099 3.12406
-0.409742 -1.47538 3.58376
-0.817738 0.206167 2.97199
-1.27442 -0.541749 3.25634
-0.268835 0.950481 3.02847
0.114267 1.01064 2.96167
-1.03163 -1.62978 3.45937
0.435187 0.268996 2.90421
-1.06118 -0.485758 3.09076
0.308377 -1.47174 3.64971
-1.12888 0.77059 2.76615
-1.08073 -0.765955 3.33729
-0.231843 0.0924256 3.02281
0.056574 1.31679 2.88024
-0.0459773 -0.701248 3.25017
-0.043238 0.782544 2.9839
-0.724281 0.0638098 3.02528
0.372366 -0.649682 3.15649
-0.115955 0.165339 3.01139
-0.33942 -1.59384 3.52051
-0.177256 0.896794 3.02245
0.0909424 0.70446 3.3444
-0.743605 0.861899 2.93904
-1.03317 -1.46144 3.30643
1.41644 0.110032 2.86424
1.44687 -0.586063 2.94046
-0.298409 0.858929 1.9311
-0.853836 -0.993291 3.77667
-0.958014 0.699852 2.944
-0.153871 -0.0518988 3.0176
1.51094 -0.681115 2.66972
-0.97405 0.728643 3.25019
0.305605 -0.0202789 2.97123
-0.212204 1.01318 2.76517
1.81871 0.350491 2.67185
0.706436 0.737863 2.95482
-1.20406 0.0249272 3.09143
1.51559 0.406715 2.27159
1.46139 -0.724958 2.9346
0.433971 -0.21267 2.99927
-0.129502 0.942663 2.14989
0.351519 1.27926 2.89973
-0.452362 -1.08948 3.4937
-0.987684 0.55402 2.96334
1.33349 -0.171058 2.8024
-0.633037 0.807645 1.86557
1.69799 1.11181 2.56109
-1.10889 -0.967978 3.26557
-0.358607 0.522762 2.98629
-0.592558 -0.983396 3.43431
-1.12846 0.606026 2.8669
-1.03534 -0.132677 3.16647
1.7134 -0.794403 2.8063
1.56907 0.528274 2.69268
-0.745458 -0.0846881 3.02155
0.686019 -0.80738 3.1854
1.05159 0.0104962 2.89407
2.555 0.00330093 3.78101
0.932823 -0.0269066 2.89903
-0.304869 0.769055 3.08736
0.221401 -0.786519 3.28043
1.03419 0.685254 2.88267
1.85746 -1.40646 3.26873
-1.38592 -0.723442 3.14278
-0.869566 0.766737 2.65009
-0.363616 0.0502346 2.97686
1.35053 0.711044 2.72129
-1.38726 -0.173111 3.08305
1.35606 -0.938768 3.06717
-0.398881 0.586256 2.98749
1.90085 0.589538 2.62909
1.55135 -0.138001 2.75317
-0.547124 0.855084 1.88399
1.88423 0.36638 2.66411
-1.43748 -0.910697 3.17817
0.615385 0.543233 2.93378
0.870176 -0.0949254 2.96742
1.39619 0.596823 2.71169
-0.104158 -0.913831 3.3348
0.782632 1.27292 2.82718
0.641818 -0.0607624 2.95066
-1.40452 -0.824811 3.13209
1.74176 0.561476 2.71063
1.15646 -1.16418 3.38203
1.74932 0.449847 2.74466
0.0740073 -0.293364 3.0675
-0.451032 0.775919 1.86275
-0.702715 0.472651 3.06737
0.0998646 -1.15288 3.55211
0.000273956 0.844452 2.09144
0.471955 -0.259115 2.98285
1.59718 -1.00298 3.12998
1.66594 -0.207514 2.72913
0.620229 0.508153 2.93298
-0.691954 0.71162 1.91368
1.33288 -0.416523 2.75412
0.972672 1.02298 2.78616
1.30482 -1.37268 3.4436
1.40553 0.31401 2.8005
-0.257766 -0.417475 3.16072
0.525898 1.032 2.91796
0.333828 -1.31875 3.49738
0.244992 0.300952 2.93172
1.55544 0.364881 2.64421
1.28092 -0.365502 2.86789
0.700482 -1.28772 3.50317
1.19253 1.06719 2.72819
-0.619774 -1.19614 3.43928
1.8185 -0.337843 2.82296
1.34401 1.01606 2.67647
1.23334 0.356415 2.8609
0.773791 -0.898096 3.22359
1.56 -0.0949389 2.84761
1.93199 0.000323432 2.73698
0.0817771 0.657701 3.12697
1.04777 -1.75125 3.69024
1.26194 -0.0580385 2.79414
1.65201 1.14291 2.56437
0.368788 0.721775 3.02648
-0.485308 -0.871113 3.35108
0.782804 -0.0230306 2.92596
-1.2318 0.657128 2.88305
0.228399 -0.830683 3.31304
1.32719 0.499489 2.85606
1.24647 -0.243706 2.78856
-0.262005 0.878341 1.97248
-1.22837 -1.05677 3.3061
-1.27342 -1.01478 3.30419
-0.383125 0.779096 2.02934
0.841698 1.16703 2.80296
1.55929 -0.216241 2.87653
-0.46781 0.495864 3.00731
-0.676068 -1.00137 3.41221
-0.898634 0.596521 2.99914
0.0581065 -0.16851 3.03568
0.273948 0.548963 2.93396
-0.292435 -0.946493 3.34446
-0.607955 0.872411 1.88271
0.509244 -0.133447 2.96163
0.905326 1.06257 2.78711
-0.64813 0.382895 3.00145
-1.00594 -0.371999 3.14344
-1.15787 -1.21301 3.34447
1.61381 -0.327258 2.84697
-0.474812 0.756778 1.87749
1.12948 -1.2182 3.4211
0.599267 0.448959 2.92341
-0.76635 0.7273 1.85147
-0.512537 -0.290646 3.08517
0.804797 0.410399 2.92991
1.00944 -1.20314 3.50883
1.47231 -0.488826 2.8097
-0.586789 0.281792 2.98291
-0.444319 -1.43968 3.52168
1.08364 0.95231 2.77345
1.3655 0.888482 2.69601
0.969965 -1.53348 3.77391
-0.320626 0.244524 2.99714
1.26309 -0.479415 2.94627
-1.41191 -1.22748 3.1667
-1.09426 0.348625 2.94983
0.398213 -0.447098 3.09213
-0.695664 0.720306 1.93799
-0.176948 -1.3326 3.57858
1.00314 0.294434 2.93212
1.06277 -0.396082 2.92939
0.172467 1.03443 2.91706
0.741394 -1.16611 3.27746
0.991765 0.444685 2.91509
0.0223539 -0.338294 3.07929
-0.529988 0.421277 2.99463
0.378978 -1.20277 3.5429
1.01884 1.08835 2.77873
-0.994195 -0.292343 3.13421
0.216688 1.20768 2.89131
-0.842414 0.499781 3.0222
-1.3126 -0.258394 3.14438
1.55077 1.02623 2.54779
-0.956675 -1.02368 3.1619
-0.244742 -0.496359 3.16621
1.35462 0.955058 2.6891
0.595868 0.295599 2.90616
-0.869439 -1.40572 3.53442
-1.30651 -0.452151 3.15984
1.47232 0.88216 2.5744
0.40333 -1.38599 3.55482
0.871187 0.265074 2.88969
1.66153 0.334752 2.67061
0.908222 -1.32512 3.49142
-0.185149 0.790448 2.06965
0.233817 -0.409246 3.10018
-1.07447 0.352164 3.02482
1.26337 -1.248 3.35789
1.11799 1.01306 2.75582
1.59716 -0.361513 2.82777
-0.967213 -1.48667 3.41114
-1.33858 -0.644854 3.37301
0.393353 0.159959 2.92257
-0.400688 0.902791 3.01593
-0.478522 -1.60469 3.41447
-1.44955 -0.579636 3.18469
-0.852529 0.668017 2.01882
0.821351 -1.5316 3.57347
-0.827997 0.235476 2.99207
-1.00049 -0.544175 3.21812
1.67469 0.80612 2.54965
0.808945 -1.57353 3.78663
1.24379 0.187333 2.80178
-0.0383641 0.0526641 2.96047
-0.229832 1.06848 2.45275
0.993658 0.763036 2.88981
1.68448 -0.712941 2.86027
0.984604 -0.73652 3.15402
0.0256902 0.756923 3.03428
2.00057 1.07639 2.69894
0.682096 0.0146749 2.9238
0.761169 0.117858 2.88325
-0.298996 0.874403 3.02937
1.82772 0.722141 2.58205
0.872695 -0.686807 3.13683
0.627326 -1.79174 3.90245
0.273301 0.0873528 2.9642
1.05743 -0.641113 3.07569
2.50566 0.02321 3.75725
0.764339 0.807631 2.90993
0.711195 -0.739057 3.16918
1.19815 0.760571 2.77849
-0.0429748 1.13919 2.93172
1.06731 0.0759702 2.8207
1.39621 0.69504 2.67127
1.47706 -0.640581 2.85582
1.14477 0.0349209 2.85818
-0.607975 -1.57219 3.46118
-0.680136 0.158008 2.9662
2.06529 1.16269 2.80725
-1.37156 -0.647619 3.16487
-0.115833 0.922877 3.09745
-0.267087 0.120455 2.99182
-0.678103 -1.54497 3.51879
2.12132 1.06181 2.7698
0.227767 -0.628764 3.22399
1.64679 0.741055 2.60909
1.11624 -0.82347 3.07176
0.7905 -0.06255 2.92017
0.589174 -1.79793 3.73864
-0.275864 0.696322 3.15774
1.9203 0.641574 2.62851
-1.4296 -0.0233483 3.08517
-0.904012 -1.61898 3.41758
0.112718 0.752192 3.04075
1.91633 -0.166426 2.7261
0.812237 -0.814978 3.18803
1.25746 0.00598825 2.78255
0.336886 0.715236 3.02948
-0.414522 -0.789445 3.31015
1.29679 0.518097 2.81975
0.16409 -0.222784 3.05187
-0.278069 0.909576 1.96615
0.0491201 -1.06761 3.41198
-0.645395 -1.00232 3.38775
-0.447503 0.756806 2.22485
-0.684305 0.801805 1.86578
0.993127 -0.182965 2.94179
0.826271 0.51341 2.97515
-0.548847 -0.956776 3.32685
1.05056 0.600031 2.89612
-0.396108 -0.141928 3.09092
0.434757 0.568386 2.91164
1.22138 -0.893568 3.15969
0.675415 1.25601 2.85361
0.410507 -0.0995539 2.97848
-1.03149 -1.21925 3.49457
-0.379347 -0.347581 3.11669
-1.31516 0.420547 2.95399
-0.393525 0.7593 1.94391
1.66232 -0.275555 2.62485
1.16944 1.12387 2.70932
0.298437 -1.2115 3.54967
0.357078 0.469635 2.88486
1.14119 -0.254865 2.84839
0.396788 1.14569 2.86599
-0.590658 0.454584 2.97139
0.447864 -1.15601 3.53254
1.26774 -0.175741 2.78699
-0.422397 0.723903 1.96896
0.306149 1.31901 2.90203
-0.946383 -0.985145 3.36679
1.13206 0.556672 2.85388
-0.685026 0.856499 1.8654
-0.813108 -0.136087 3.07203
-0.562382 0.55888 3.029
1.83541 0.661457 2.60388
-0.776089 -0.947786 3.34593
-0.580528 -0.0964796 3.08608
-0.886552 -0.892239 3.28593
-0.1179 0.694551 3.12167
-0.195621 -0.895202 3.42384
-0.328422 -0.059781 3.05133
