ply
format ascii 1.0
element vertex 1836
property float x
property float y
property float z
end_header
0.626534 0.103124 2.89129
-1.27778 -0.64144 3.31891
0.0389828 0.845745 3.02532
0.406864 -1.5141 3.53032
1.6616 0.6156 2.6424
-1.40148 -0.603882 3.3053
-0.879256 0.196622 3.03982
-0.293716 1.40985 2.92508
-0.54747 0.671654 2.15701
0.422187 -1.60848 3.61667
0.570363 0.17384 2.87829
2.09668 0.296625 2.75568
1.21663 0.843778 2.74363
-1.13676 -0.646782 3.28527
1.58713 0.131426 2.74149
1.26291 -1.66972 3.49696
1.19061 -1.58721 3.6474
1.25138 -0.567948 3.0401
-0.251081 0.859466 3.00498
0.34934 -1.48821 3.56957
-0.404846 0.982995 2.96066
1.69794 -0.501659 2.81355
1.49851 0.199634 2.78384
-0.286993 -1.41166 3.53474
2.26263 0.24428 2.75094
-0.691174 0.664553 2.0312
-0.366643 0.756695 3.02192
0.135487 -0.798613 3.24408
2.40378 -1.53945 4.44683
-0.89133 0.0443609 3.07497
0.846036 0.702747 2.88864
-0.234873 -0.779322 3.3391
-0.983246 -1.10319 3.40953
1.12383 -0.00366666 2.81749
0.542768 -0.717702 3.24848
0.0868781 0.840097 3.04058
1.47446 0.100247 2.94181
-0.899855 0.775997 2.67336
-0.465364 0.805954 3.07224
1.54702 -0.610211 2.87734
1.79607 0.071234 2.8296
0.0319647 -1.65139 3.61087
1.92553 -0.0453747 2.64944
-0.221843 -0.945073 3.41915
-0.164915 0.910843 1.95835
-0.0194237 -0.106013 2.99811
-0.00891873 0.827615 3.736
0.253127 0.599303 2.94148
-0.340998 -0.885107 3.38569
1.41562 -0.0646726 2.84252
0.38081 -0.839667 3.31216
1.76801 1.04687 2.55561
-0.911227 -0.0279815 3.1016
1.81804 -0.749138 3.04951
1.80052 0.892385 2.53769
0.817777 0.663525 2.91106
1.18036 -0.243794 2.87551
-0.764501 -0.668772 3.27036
-0.732385 0.687928 1.97572
-0.440388 -1.18152 3.57826
1.47518 0.476589 2.77616
-0.688166 0.757374 1.8391
0.41073 -0.218175 3.05366
-1.03732 -1.02005 3.26772
-0.59255 0.485572 2.98928
-0.872856 -0.460924 3.16189
-0.704265 0.600928 3.18652
-0.656695 -0.189101 3.07028
-0.873048 0.225118 3.04006
1.44771 1.15463 2.59903
0.503649 -1.02328 3.37617
0.256425 -1.01921 3.51172
-0.467409 0.83472 1.89963
0.840109 -0.147912 2.94251
0.776995 0.523793 2.94483
0.304801 -1.69755 3.59803
0.764039 -1.63589 3.74938
0.103547 -0.0639768 2.96368
-1.2583 -0.839177 3.17731
0.957801 0.660329 2.90664
1.47865 -0.752898 2.90184
-0.986417 0.235092 2.99431
-0.946124 -0.0285783 3.08275
1.69297 0.577801 2.67202
-1.07126 0.04377 3.01083
-0.488793 0.714141 1.98687
-0.943131 -0.790824 3.35021
0.204468 0.779135 3.077
0.522026 0.00762361 2.96316
-1.4064 -0.757761 3.2587
-0.0979728 0.950685 2.03509
0.301363 0.744042 3.03439
-0.110326 -1.42268 3.55213
0.0113534 1.22462 2.80178
-0.0433238 0.538571 2.9977
0.873381 -0.186656 2.9868
-0.784132 0.169296 3.01982
-1.49506 -0.99237 3.26894
1.72522 0.758463 2.58501
1.0584 -0.146384 2.8588
-0.203305 -0.970662 3.36684
0.375526 0.595031 3.00212
1.92078 -0.550586 2.93079
-0.107226 -0.119254 3.06959
1.72604 0.511203 2.65194
0.389348 1.24063 2.90474
0.39377 -0.913515 3.2709
0.225337 0.426864 2.91396
0.371071 -1.28734 3.58789
-0.159913 -0.357631 3.10519
1.36446 1.03385 2.61016
-0.677483 -0.101577 2.15955
-0.890572 0.403001 2.94838
-0.488583 -1.22457 3.55058
0.576843 1.39854 2.85972
1.35117 1.00572 2.60142
-0.0410867 -0.307576 3.08591
0.327296 1.48954 2.70041
-0.855197 -1.07911 3.34765
1.04442 0.488588 2.91263
0.595301 -0.276369 2.98805
-0.308641 0.798527 1.88363
-0.208882 1.13433 2.95319
-0.473131 0.482261 3.00678
-1.18067 -1.01658 3.30085
-0.841307 -0.237775 3.12048
0.401988 1.15352 2.85482
-0.798872 0.691624 1.95947
-2.09127 -0.767686 4.60077
1.12271 0.270907 2.81259
0.0827789 0.76343 1.54832
-1.14981 -0.469419 3.13971
-0.533933 0.695571 2.04281
-0.0140248 -1.44313 3.69613
1.08021 0.246815 2.88589
-0.25341 -1.224 3.50663
-0.692948 -0.437456 3.22194
0.425927 1.05874 2.86153
2.43446 0.834369 2.8975
1.05524 -1.31053 3.39231
-1.33036 0.3759 3.00307
1.67248 -0.367485 2.77058
1.47741 0.932538 2.5934
-1.53469 -1.23503 3.33275
2.30202 1.02914 2.98031
0.79694 0.30287 2.92678
1.09147 -0.980427 3.31316
0.963459 0.587893 2.90993
-0.159427 -0.141308 3.05673
0.155619 -0.942008 3.33279
-0.504428 0.574657 3.03608
-0.851901 -0.108979 3.07101
0.589234 1.28717 2.86295
-0.918793 0.775648 2.79802
0.24267 0.670625 3.12944
-0.79505 -0.570174 3.22004
0.870961 -0.0890374 2.9342
-0.483368 0.806728 2.42395
-1.21793 -0.872987 3.3448
1.78696 -0.206203 2.76641
0.63771 1.36168 2.85603
1.32289 -0.281519 2.81781
0.500689 1.15712 2.88376
0.260741 -1.23409 3.57535
0.731153 0.471488 2.92272
0.811112 -0.262486 2.98994
-0.314733 0.784313 1.94953
-0.32289 0.44177 2.98338
-1.46691 -1.05409 3.19644
0.379015 -1.0804 3.41168
1.25712 0.506288 2.81576
1.77315 0.334707 2.80563
1.78956 -0.216226 2.76648
-0.568366 0.853002 1.88067
0.139544 1.41607 2.66845
-1.42098 -0.965616 3.21573
-0.913704 0.512405 2.96231
-0.494392 -0.177752 3.05297
-0.413423 0.899507 2.65593
-0.676912 -0.101997 2.15947
-1.27258 -1.25058 3.31785
-0.96134 0.0383446 3.09987
-0.827668 -0.433638 3.18519
-0.789813 -1.25765 3.46655
0.697534 0.305899 2.90715
0.244519 1.3857 2.79563
-0.400807 0.731203 1.99746
0.137126 1.1044 2.90064
1.82717 -0.362106 2.84799
2.51539 -0.942174 3.15643
0.702495 0.382621 2.90812
1.54376 0.943774 2.47698
-1.06224 -0.358512 3.23832
1.14624 0.343308 2.86864
1.66514 -1.12756 3.11728
0.463454 -0.58877 3.1698
0.889745 0.918833 2.88254
2.18929 0.345361 2.62241
-0.181056 -1.46342 3.37539
-0.406458 0.223869 3.03511
0.445654 -0.544288 3.15835
0.225203 0.895501 2.97689
-0.0960856 0.461409 1.42334
1.33457 -1.50851 3.57809
0.587606 0.174257 2.86546
-0.515998 -1.46085 3.65783
0.319465 0.28701 2.91233
2.15312 0.265378 2.64451
1.54442 0.905618 2.60096
-0.500785 -0.495683 3.12184
-0.804516 -1.32339 3.43592
0.943459 0.259125 2.89308
0.361859 -0.462076 3.0849
0.427483 1.00163 2.97046
2.30874 0.544626 2.68843
1.04417 -1.31298 3.50489
-0.49117 0.395105 2.97729
1.3698 -0.361789 2.86171
-0.483812 0.751168 1.93168
-0.329123 -1.23863 3.49743
-0.929901 0.362805 2.94105
0.709215 1.05562 2.8444
0.186586 -0.352044 3.05613
0.116839 1.44739 2.67305
-0.710766 0.726115 1.81526
-0.955603 0.0294125 3.09134
1.40101 -1.10985 3.18412
-0.543608 -0.31634 3.0935
-0.598898 -0.980745 3.46081
-0.423579 0.441353 2.973
0.0162886 0.972784 2.95321
0.830651 -0.527572 3.08821
-1.30299 0.281076 3.02212
-0.85835 -1.44419 3.52778
1.89904 0.417632 2.64712
-0.79945 -0.485229 3.07896
0.125663 0.974284 3.03082
2.67567 -2.00378 3.66098
-1.2536 -1.33489 3.37454
-1.20164 0.232711 2.97583
-0.718914 -0.480244 3.23063
1.73268 0.292616 2.76057
-1.22386 -1.29099 3.36285
-0.617105 0.695417 1.95001
1.95973 0.0657979 3.02105
-0.578082 -1.29314 3.43615
-1.03526 0.305048 3.00146
-0.27901 0.749125 2.11718
1.94639 0.493153 2.6396
0.969997 -0.41146 3.01677
1.24262 -1.657 3.56793
1.31346 0.131964 2.80026
-0.132634 -0.675867 3.25777
-0.690388 -1.55283 3.25848
0.592396 0.859558 2.94226
0.793907 0.100486 2.91249
-0.929195 -1.50556 3.40404
1.07871 -0.604831 3.04
0.360971 0.833799 3.00413
2.02935 0.473667 2.61956
-0.634492 1.13515 2.85884
1.50396 0.79567 2.58911
-0.618906 0.179269 2.99994
-0.316993 1.41548 2.94107
-1.39685 -0.591242 3.20202
-2.30699 -2.44226 5.48962
0.611442 -0.0332206 2.93212
-0.339095 0.773312 3.18238
-1.03924 0.111264 3.04406
-1.34986 -0.809769 3.19532
-0.729024 0.00593463 3.0428
2.14383 1.00579 3.04584
-1.00256 0.681248 2.9059
0.522801 -0.793277 3.23352
0.377405 0.0780813 2.92949
0.242538 -0.756352 3.27595
0.703818 0.782082 2.93558
0.0454329 1.32001 2.85232
1.21591 0.0207599 2.7999
0.869142 0.744645 2.91114
0.841266 -0.691244 3.15686
-0.233683 1.00447 2.74478
-0.319519 0.739473 2.98825
0.100351 -0.803693 3.27748
0.359424 0.0284429 2.95949
-0.279432 0.568599 1.83388
0.410433 0.726636 3.03775
-1.11805 -1.03136 3.33893
1.04185 -0.734055 3.09748
1.69949 -0.00667424 3.11557
-0.0524066 -0.710984 3.26967
1.02733 0.0873235 2.8419
0.166443 0.825521 3.02119
1.37875 0.194669 2.01439
1.55541 0.694801 2.61812
-0.844097 -1.59814 3.44969
1.85886 -0.279596 2.73323
0.894599 0.0579351 2.90598
-0.99668 -0.685964 3.31314
1.48068 0.570656 2.66158
0.712964 -0.929964 3.27921
0.628193 -0.116799 2.97597
0.568794 -1.77249 3.73333
-0.940773 -0.886402 3.36133
1.40064 0.544159 2.69756
-0.595535 -0.0782395 3.05512
1.76975 -1.05583 2.99638
1.20424 1.24161 2.72863
0.100912 0.677907 2.99996
0.257664 1.63302 2.79039
1.28809 -0.0478488 2.80966
-0.97316 -1.35311 3.41087
0.57291 -0.858579 3.32767
-0.0338772 -0.257424 3.05807
-0.56364 0.777648 1.84839
0.685907 -1.13816 3.42367
-0.819362 0.521573 3.05848
0.585382 -1.75318 3.65483
-0.664533 -0.240066 3.09822
0.308633 1.17236 2.92222
0.654724 0.460186 2.9087
1.24817 -1.02945 3.2086
1.89157 -1.8595 3.41975
-0.914603 0.624577 3.23344
-0.182444 -0.194708 3.04655
1.27913 1.20423 2.69268
-0.855185 -1.0302 3.42976
-0.0142969 -0.0959905 0.798338
0.462311 -1.00527 3.41993
0.928388 0.525161 2.88544
1.45585 -0.149042 2.7838
0.000739425 1.23032 2.72951
-0.178555 1.14972 2.96055
-1.16069 -1.1756 3.26927
-1.00723 0.395383 2.91775
-1.3304 -0.39815 3.1872
0.0583602 1.11054 2.92232
0.432411 -1.26957 3.53381
-1.38763 0.370538 3.00213
-1.1045 -0.216036 3.12058
-0.54373 0.734232 1.95064
0.304293 -0.36383 3.0777
0.906898 1.08644 2.76096
0.0716967 0.615939 1.32756
0.906712 0.425414 2.92176
-1.35598 -0.326762 3.16853
0.0337631 1.13528 2.41431
-0.0412679 -1.19382 3.46966
1.35067 -0.218442 2.81847
-0.483744 0.824693 1.89043
1.90082 0.302141 2.82067
1.15718 -1.0713 3.32954
-0.326383 0.539547 3.03925
-0.0204443 -0.192535 3.05535
0.742984 1.16942 2.80905
1.14993 1.24295 2.72779
0.820123 -1.00864 3.25779
1.26524 0.468534 2.82781
0.808821 0.154375 2.89006
0.652646 -0.151948 2.97904
0.342213 1.40665 2.84522
1.75892 -0.898849 3.02171
-0.0440549 0.660722 3.21301
-0.442323 -0.10639 3.02657
0.494612 1.30211 2.87328
0.574893 -1.53125 3.61093
-1.4067 -0.903221 3.23041
1.47785 0.51493 2.69938
-1.50475 -1.18762 3.29819
-0.80847 0.438791 3.01068
-0.0740264 -0.0340229 1.01377
1.06067 -0.344301 2.93073
-0.472112 0.747648 1.89724
0.00812037 -1.18707 3.43205
1.6087 0.350188 2.68015
0.655392 1.09528 2.8972
0.205148 -0.321084 3.05895
0.0664792 1.39647 2.49519
0.412131 -1.18416 3.55462
1.05244 -0.259337 2.89171
-0.500397 0.462338 2.95779
0.10044 1.31632 2.64882
0.13707 1.14264 2.87536
0.383916 1.021 2.97938
0.265979 -0.502273 3.12131
1.33931 0.259852 2.79853
1.01282 -1.42198 3.47017
-1.12169 -0.616011 3.31003
0.0149559 0.610138 1.52841
1.30939 -0.4425 2.88741
1.01483 0.935021 2.78294
1.07417 -1.38484 3.48573
0.124615 0.252586 2.90914
-1.18319 -0.438917 3.20612
0.871874 0.339584 2.92068
0.53495 -1.37597 3.58118
0.0136487 1.06826 2.90871
2.09501 0.451336 2.63018
-0.996521 -1.26538 3.48144
0.709936 1.00857 2.85033
2.17848 -0.112666 3.19433
1.61541 -0.360137 2.76708
-1.37809 0.325444 2.95922
1.72243 0.163525 2.74575
-1.27042 -1.42184 3.16121
1.4715 0.786262 2.60278
0.0805419 -0.638658 3.19573
-0.486912 -1.49098 3.47915
-1.17535 0.145745 2.95695
1.68762 -0.537394 2.79763
2.14684 0.205877 2.8857
0.156963 0.859404 2.98764
1.2465 -1.59104 3.75021
0.702637 -1.46552 3.57293
-0.0866541 0.945652 3.01971
-0.0208813 -0.554328 3.16112
1.73175 0.202174 2.74677
2.10397 0.336225 2.64591
1.47854 0.430224 2.70711
0.32766 1.34628 2.8935
1.00872 -0.308473 2.93348
-0.638768 0.757717 1.86741
1.52969 -1.14782 3.26181
0.226722 -1.15144 3.50096
-0.20215 0.785191 1.96111
0.920779 -0.262116 2.98688
1.74264 0.453195 2.70006
-1.03093 0.454822 3.04756
-0.256894 -1.05919 3.35604
-0.883192 0.563884 3.08191
1.38706 -0.21782 2.83063
0.0974073 1.36034 2.62329
-0.567785 0.835244 1.87882
-0.534263 0.502218 2.98549
-0.0837154 -0.0325549 1.02671
-0.489941 -1.08907 3.56818
1.07695 1.13435 2.69648
1.74934 -0.202177 2.81586
-0.354539 -1.31898 3.49879
0.253704 1.05954 2.97203
1.43217 -0.393542 2.84698
0.070856 0.610833 1.40337
-0.198245 0.322061 2.9807
0.196786 1.48422 2.64501
1.23266 1.05099 2.7373
0.0472518 -0.379113 3.09863
1.46802 0.389118 2.9277
0.255398 -1.31235 3.54248
1.40732 0.979301 2.62125
1.2506 -0.342229 2.85843
0.057259 0.933164 1.87593
-0.986813 0.36266 2.96189
-0.866822 -1.1946 3.40977
-0.9402 -0.577934 3.15033
2.07576 0.4231 2.63677
-0.0854728 0.215479 2.95347
-1.00141 -1.42265 3.30924
1.26548 0.875517 2.74474
-0.309592 0.914234 3.05007
1.0125 -1.58471 3.746
2.44059 1.08278 2.91808
1.72426 0.160633 2.75217
0.348479 -0.54062 3.13779
-0.601513 -1.63086 3.42236
-0.145687 0.291686 2.95849
0.931876 -1.57605 3.82281
2.43923 1.10903 2.8632
1.0424 -0.471282 2.93556
-0.0711692 1.02212 2.99369
2.32817 0.619669 2.75649
0.541235 -1.48487 3.74118
-0.312013 0.263823 2.98072
-0.202376 -0.467351 3.15519
-0.728359 0.676287 1.98476
-0.0112086 0.78558 2.97382
-0.681033 0.0698169 3.02411
-0.989544 -0.576736 3.2997
-0.683472 -0.742744 3.38465
-0.112716 1.35311 2.90413
-0.822781 0.668905 2.25702
0.459207 -0.658891 3.14781
-0.548192 0.135441 2.97621
0.392837 -1.6409 3.5587
-0.902403 -0.665632 3.4081
1.32766 0.758287 2.69806
-0.508302 -1.55867 3.50559
0.479444 0.0990607 2.89638
1.20871 0.915734 2.74947
-1.34141 -0.561384 3.2301
2.18857 0.964096 3.04347
1.92279 -0.484996 2.79738
-1.75037 -1.50448 3.52941
1.47825 0.248169 2.85911
0.489501 -0.516647 3.14508
-0.413754 0.684936 2.10552
0.0875241 0.695948 1.45821
-2.22352 -1.91726 4.62604
-1.12509 0.233411 3.05333
-0.836245 0.320761 2.96648
-0.998941 -1.37561 3.46272
0.371727 1.06493 2.97114
2.32476 0.964036 2.93273
1.58914 -0.439586 2.87712
-0.755642 -1.31873 3.50478
-1.32937 0.309546 3.01652
-0.707714 0.69414 1.97161
-0.0196915 -0.436132 3.16403
2.1022 0.356075 2.62912
0.876392 -1.69812 3.68166
1.25379 -0.634575 2.99317
0.783197 -1.69041 3.65078
-1.37872 0.118659 3.08407
-0.566742 0.821726 2.95681
2.21513 0.273475 2.63975
1.28314 1.02835 2.7134
1.30745 -0.579338 2.86133
-0.665245 0.643281 2.07408
1.18228 -1.7197 3.78445
-0.194885 0.188945 2.98032
0.508568 -0.599607 3.2122
1.06956 0.822992 2.81478
1.67149 0.12614 2.77963
-0.0800245 -1.56893 3.63691
-0.058428 0.704733 2.96607
1.16378 -0.0382959 2.82583
0.0867054 1.28038 2.76926
-0.548675 0.00406354 3.03507
1.40366 -0.758009 2.93414
-0.915681 0.674446 2.93904
2.26489 0.937399 3.2062
0.886219 -0.778696 3.15858
1.43967 0.055341 2.88301
-0.54747 -0.769532 3.30272
-0.317472 0.795228 3.02448
0.796837 -1.54331 3.73221
-0.935249 0.041765 3.06704
-1.10954 0.229129 3.0297
-1.00851 0.775297 2.99947
0.0512522 -0.715472 3.23767
1.83535 -0.154856 2.87867
-0.094046 -0.970595 3.36745
0.314537 -1.72296 3.62573
-0.180777 -0.147426 3.03551
0.0701305 1.2372 2.78096
0.961538 0.553109 2.89454
0.260567 1.31745 2.90497
1.82176 0.885538 2.54455
-1.16353 -0.109106 3.12657
-0.500983 0.645056 3.05102
1.49407 -0.820482 2.84818
-0.295406 -1.0889 3.47567
-0.269111 -0.0759214 3.03871
1.64261 -0.805473 2.91047
1.20877 0.560018 2.80426
-1.25618 -0.910625 3.26698
-1.30577 -0.114594 3.10074
1.78901 0.515796 2.65449
0.210537 0.582167 2.93091
-0.650363 0.703271 2.20442
0.597567 -0.0750514 2.94582
0.512912 1.27925 2.87989
-0.6001 0.67915 3.06976
0.269671 -0.903456 3.31681
2.03412 0.215845 2.83094
-1.26544 -0.0421404 3.08051
1.04351 -0.849615 3.28057
0.602394 0.628493 2.98551
-1.28927 -0.287711 3.19929
-0.745702 0.752392 1.79274
-0.720501 -1.11883 3.42454
-0.280233 0.495084 2.9731
0.519346 -1.77336 3.62352
-0.197952 -0.232537 3.08102
0.432763 1.1578 2.89419
1.56304 -2.05482 3.44383
-3.40985 1.10839 7.05097
0.597113 -1.09361 3.38853
-0.774323 -1.05643 3.48412
0.996285 0.546043 2.90448
0.666543 -0.200465 2.96157
-0.854701 0.227351 3.03533
-0.32226 0.800773 2.09879
0.0673347 0.531542 2.96227
1.14826 -0.98228 3.29614
0.519945 1.3709 2.87812
-0.30506 0.898205 1.93697
-0.74627 -0.154591 3.06596
0.860781 -1.36918 3.67856
-0.985182 -0.392723 3.15349
-0.272806 -1.1278 3.49254
-0.0580614 0.356065 2.9643
0.0471884 1.35724 2.64194
-0.762932 0.706307 1.89747
1.7497 -0.346755 2.74522
1.61288 1.00729 2.53237
2.50311 0.700273 2.7952
1.55482 0.366956 2.51135
-1.06231 -1.09054 3.10158
-0.671716 0.733013 1.92055
0.41407 -0.320527 3.07958
-0.25025 0.377597 2.93047
0.499032 -1.28479 3.69131
0.155344 -0.55724 3.15026
2.33448 -0.152003 3.03135
-0.227436 0.249862 2.97176
-0.736645 -1.45796 3.52486
1.67921 0.853867 2.54614
1.3752 0.84321 2.64732
-0.92822 -1.39539 3.48539
0.287351 1.3822 2.89979
-0.0384161 0.219274 2.93809
0.884937 -0.506792 3.04389
-0.685478 -1.35064 3.46463
-0.794763 0.32562 3.00606
1.13706 -0.434222 2.89096
0.681385 1.01618 2.86256
2.28079 0.630687 2.7609
-0.136776 -1.35795 3.56349
0.0991375 0.274558 2.89592
2.38332 0.898159 2.93454
-0.73061 -0.437599 3.13567
0.618186 0.997617 2.89146
-1.3923 -1.14101 3.16723
0.069277 0.421457 2.91941
1.16215 -0.35127 2.88072
-0.784899 0.730852 1.8483
0.593957 -1.23418 3.52459
0.277478 0.36769 2.8908
-1.06981 -0.130854 2.95957
-0.827717 0.716452 1.85854
1.08413 -0.313251 2.8811
0.194477 1.17564 2.93922
0.0795434 1.31176 2.44144
1.34891 0.435369 2.80325
-0.458107 -0.295494 3.07528
-0.996196 -0.0125981 3.10599
-0.652718 -1.11454 3.39485
0.386776 -1.43004 3.55073
1.33587 -0.471837 2.84973
-0.491105 0.701573 2.02319
1.223 0.278563 2.85638
0.539814 -1.51081 3.66661
-1.38019 -0.494313 3.24437
0.630723 0.974014 2.91879
0.0596662 0.941967 1.95725
-0.952135 -1.38858 3.56705
0.666332 0.234744 2.91345
-0.604739 0.344447 2.96298
1.38938 -1.31966 3.36684
0.0526196 1.06378 2.91016
2.3384 0.24636 2.74557
-0.634206 -0.450963 3.16049
0.634003 0.291705 2.90893
0.439758 -1.3019 3.48974
-0.79603 0.684459 1.88429
0.574018 -0.392784 3.05
1.09056 -1.67916 3.62543
-0.0694101 -1.58 3.53295
-0.518089 0.169676 2.97725
-1.44068 -0.614741 3.04716
0.780315 0.870006 2.86651
0.863408 0.121087 2.90155
-0.80886 -1.44977 3.35503
0.374582 -1.74562 3.63813
-0.54586 -0.575276 3.10397
0.351031 0.861186 2.97647
2.00788 -0.784347 3.27375
0.657041 -1.62328 3.6272
-0.45206 0.678813 2.10565
1.31097 0.199895 2.80155
1.81154 0.319527 2.82553
1.26814 -0.529714 2.92989
0.78132 -1.71833 4.0414
1.32221 0.683286 2.72477
2.23426 -0.188003 3.58925
-0.270865 0.0298564 3.01066
0.415223 -0.815531 3.31291
-0.243261 0.735312 3.09246
-0.0753886 1.09578 2.95516
0.716291 -0.0114142 2.93482
-0.796976 -0.798116 3.44644
0.911759 0.0974296 2.89484
1.67685 -0.768059 2.55868
1.04222 -0.675854 3.04737
-0.0990328 0.833263 3.05541
-0.244507 0.0639395 3.03107
-0.807357 -1.60305 3.44705
1.84198 -0.509894 2.75136
1.64299 0.698164 2.66214
-0.91893 -0.694815 3.31253
-0.196368 0.768722 2.10857
-0.554075 0.321296 3.01763
-0.935795 0.0182341 3.08657
0.473852 -0.425766 3.05826
0.102176 1.24749 2.43893
-1.05064 -1.25213 3.29652
0.981297 -0.378441 2.99665
-0.346634 0.766223 1.98102
1.33533 -1.22738 3.26981
0.593177 0.376482 2.93688
0.71155 -0.360894 3.02603
1.44445 0.975505 2.63061
1.48307 -1.22399 3.36682
0.516057 0.333526 2.85774
2.50831 0.310539 2.64993
0.78843 -1.71313 3.91551
1.17478 0.206775 2.81065
2.25742 0.155208 2.97794
0.172097 -0.595109 3.17623
-0.362012 0.918267 2.7804
-0.177478 -1.50669 3.62968
0.952659 0.160017 2.8501
2.34323 -0.0826446 2.99524
1.57976 -0.487706 2.77384
1.07129 0.853039 2.82399
1.41567 -1.4119 3.38965
1.40047 0.276219 2.79279
2.17494 0.288167 2.6412
0.662323 -0.50946 3.12296
-0.33161 0.726409 2.06491
-1.45773 -1.23005 3.06677
-1.37964 0.282463 3.08954
-0.0129045 1.32296 2.89392
-0.743342 -0.48037 3.17678
0.382884 0.981419 2.97122
0.132892 0.792876 3.04314
-2.48476 -1.26761 5.22427
-0.100307 1.32773 2.89586
0.454049 0.0570585 2.91548
-0.513952 0.767913 3.03684
-0.29249 -0.719944 3.22395
-0.672379 -0.992737 3.56958
-0.155383 0.0311864 3.00068
1.06248 -0.650564 3.0431
-0.499786 0.799854 2.76914
-0.0872168 -1.69275 3.63665
1.72119 0.123986 2.75092
1.83926 -0.316107 2.72225
1.55511 -0.585056 2.86096
-0.501827 0.819167 3.00729
-0.443444 0.0959239 3.00722
0.695348 -1.74145 3.88721
0.714929 -1.58855 3.76076
0.406055 -0.878188 3.26272
-0.998346 0.78664 2.84642
-0.829224 0.704887 3.05935
-0.84435 -0.0672564 3.07655
0.0459736 -0.841141 3.28258
0.559005 0.626996 2.94417
-0.558386 -0.0403346 3.06351
1.2686 -1.78987 3.71062
-2.15819 -1.1022 4.39083
-0.283758 0.883733 2.43393
-0.30451 0.952959 2.74774
0.143649 -0.00567495 2.94201
-1.13198 0.724386 2.94486
-3.14285 -3.24878 6.92852
1.07709 0.769805 2.79596
1.46021 -0.623494 2.92668
-1.18674 0.118998 3.13699
-0.101769 -1.69848 3.5255
0.614817 -1.47561 3.57705
2.18235 0.319718 2.63301
1.22493 0.814843 2.71966
-0.176878 -0.642602 3.2592
-0.059435 0.179363 2.95728
-0.879473 -1.52634 3.42641
1.20964 -0.576009 3.01528
1.41166 0.754577 2.60912
0.195297 -1.53137 3.52254
-0.220158 0.136186 2.99258
-0.216828 1.15673 2.95841
0.30534 -0.0344087 2.95662
-0.221375 -0.00721458 3.04153
0.0138153 1.16968 2.8646
1.43568 -0.767627 2.91219
0.140082 0.721769 3.03167
2.30647 -1.51561 4.22646
1.15706 -0.768898 3.11244
-1.16223 0.670174 2.89067
0.327996 -0.784494 3.30769
1.78332 0.0594246 2.76887
-1.00428 0.79265 2.91933
1.5116 -1.49028 3.44788
1.64143 -0.827721 2.7296
1.61119 0.0261582 2.67378
-1.33561 -0.718932 3.27628
1.71726 0.700536 2.71444
0.239966 1.25718 2.92648
-0.960968 -0.19459 3.09144
-1.19936 0.534979 2.76319
1.27267 1.14238 2.67673
-1.01839 -0.158023 3.15434
0.288277 -1.00176 3.39282
1.86285 0.998359 2.54569
-0.0523497 -0.110901 3.0287
0.199175 -0.928121 3.29583
-0.711208 0.636835 2.99344
-0.895509 -0.00730425 3.06429
-1.20111 -0.0739962 3.10071
-1.07136 0.590061 2.90579
1.31186 -0.837014 3.04594
-0.917876 0.466833 2.96074
0.350771 1.45172 2.78533
-0.738232 -1.16403 3.41774
1.6031 -0.297401 2.73645
0.822839 1.12193 2.78753
1.47354 0.391891 2.72599
-1.04235 -1.07057 3.32585
-0.290102 -0.279347 3.06318
-0.0924804 0.832476 2.11994
1.22629 -1.84932 3.57227
-0.141712 1.17389 2.84552
-0.00865949 -1.07535 3.39004
-1.09348 0.532945 2.93606
-0.49918 -0.245184 3.06956
-0.458283 0.873202 1.89729
-1.15525 -0.248218 2.96859
0.189774 -1.09838 3.61821
-1.71161 0.622165 3.63977
-1.04449 -0.197159 3.11275
-0.136412 0.84262 2.00492
0.398371 0.4784 2.92505
1.26444 -0.268641 2.86461
1.33391 -1.71218 3.52712
-0.156334 0.839289 1.99258
-1.11054 -1.09282 3.32988
-1.31312 -1.03599 3.25759
0.746456 1.12251 2.80715
1.55646 -0.238797 2.85472
1.36 -1.6263 3.44869
-1.10344 0.460743 2.92463
0.805023 -1.06415 3.41949
-0.954982 0.557577 2.95485
-1.35381 -0.207174 3.08635
-0.607946 0.841751 1.87088
0.356026 -0.0667735 0.179623
1.36914 0.498958 2.80625
0.625029 1.4738 2.86159
1.18237 -0.95333 3.22735
-0.876537 -0.170711 3.10202
0.935401 1.02037 2.78993
0.132179 1.33031 2.88447
1.04767 0.339016 2.87555
-0.0172135 1.07931 2.36594
-1.06302 -0.405743 3.16617
0.621056 -1.30204 3.48122
1.96253 0.508662 2.64209
-1.35572 -0.38201 3.17953
0.306439 1.16709 2.97952
-1.37073 -1.16416 3.25189
1.78118 0.397736 2.79301
-0.267649 0.775308 2.01052
0.512904 -0.323981 3.03781
2.64931 0.641449 2.72403
0.392288 -1.2357 3.52377
1.48628 0.343982 2.74428
-0.00771569 -1.51845 3.64619
-0.786526 0.252731 3.02952
2.14391 -1.08965 3.52927
1.50665 -0.494572 2.73484
-0.694507 0.66973 2.04262
0.7904 -1.71231 4.13595
-0.759767 0.217498 2.95385
1.31578 -1.7209 3.72193
0.765816 -0.515175 3.07244
-0.769362 0.64648 2.0337
-0.320626 0.314191 2.97301
1.40923 -1.67936 3.55657
1.40281 -1.51343 3.73694
2.04834 0.279572 2.77289
0.922393 -0.460649 3.03648
-0.00911763 1.03055 2.92017
0.437233 -1.40462 3.6254
0.836296 0.272765 2.87539
1.8782 0.675516 2.64674
-1.03086 -0.438148 3.17508
1.66535 0.873305 2.5619
1.63741 0.737251 2.67028
1.00763 -1.59111 3.62397
0.0542237 0.105786 2.97984
-1.4031 -0.674426 3.15296
0.49197 0.629571 2.94134
0.570099 0.883618 2.93702
0.1465 -0.643024 3.21245
0.637718 0.158514 2.87093
-1.04761 -1.5518 3.44299
1.26362 -2.00795 4.11801
0.984091 -0.58306 3.0456
0.727673 0.83082 2.89928
0.471347 -1.63331 3.75833
-0.736127 0.132724 3.00699
-0.278682 0.971916 2.38086
0.298559 -0.525366 3.11164
-0.0767301 0.481252 1.47176
0.177278 0.269489 2.90677
-0.186052 -1.4502 3.58013
0.88005 0.971691 2.85252
-1.34522 -0.497317 3.22934
-0.196376 0.971884 2.98041
2.66214 0.871705 2.8345
0.106811 -1.39377 3.48419
-1.38794 0.255317 3.01369
-0.508222 0.347809 3.01489
-0.328476 -1.34882 3.5488
-1.43299 -0.458204 3.19718
-0.342576 0.746526 2.00972
2.08496 0.49554 2.60383
-0.457155 -1.31141 3.56059
0.338681 0.296607 2.89005
2.00362 -0.458496 2.78128
-0.497487 -0.417539 3.25658
1.29181 0.966492 2.73394
-0.280476 -1.63233 3.63736
1.43885 -0.583675 2.84967
-0.884797 -0.322076 3.14761
0.945152 0.132312 2.88254
-0.369438 0.874655 3.06086
1.99375 0.306085 2.78121
-0.692726 0.958431 2.94597
0.634927 -0.598652 3.15628
0.962204 0.901193 2.85301
0.0331465 -1.53156 3.54493
1.64028 0.188933 2.70092
-0.96476 -0.564779 3.15285
-0.798739 0.638245 2.10681
-0.290676 -1.48155 3.55485
-0.302555 0.165661 2.97083
1.18593 0.0111183 2.78157
1.51918 -0.998838 3.29403
1.25058 -0.760042 3.00362
-0.223434 0.764003 3.05793
-1.19387 -0.768047 3.28022
-0.0246608 0.724057 3.05025
-0.276481 1.04846 2.86695
0.170672 -0.0155653 2.9429
-0.759606 0.0977086 3.04667
-0.723058 0.822406 2.95751
0.994669 -1.74081 3.67988
-0.44416 -0.740324 3.27075
1.62329 0.601115 2.54735
-1.19012 0.0685395 2.97234
0.501783 -0.689571 3.21273
0.402326 0.788473 2.99279
1.29452 -0.881164 3.05819
0.992809 0.572683 2.92937
-0.546798 -1.61757 3.44876
-0.462809 0.717303 1.93727
1.4193 -0.12922 2.75321
1.90258 0.433565 2.64691
1.17698 -0.085501 2.76086
0.843741 0.648906 2.90584
0.978742 -0.912625 3.32077
-0.261886 -1.15332 3.47466
-0.0265241 -0.0521787 3.01232
-0.669666 0.620994 2.99429
0.425136 1.29369 2.87124
1.74223 -0.735056 2.76298
0.265942 0.20941 2.95079
1.03815 -1.56531 3.57367
1.76449 -0.438592 2.74481
0.616488 0.925467 2.93593
-1.39357 -0.632391 3.33365
-1.20995 -1.41337 3.36826
-0.408308 -1.59065 3.42856
1.40369 0.160555 2.83908
-0.133267 -0.557508 3.14342
-0.4542 0.876377 2.90144
-1.08899 -1.32682 3.30135
-0.845584 -0.503112 3.19896
0.896759 -1.78335 3.64982
-0.893618 -0.510732 3.15432
0.00809825 0.239701 2.93826
2.34571 0.122146 2.96464
-0.309023 0.744246 2.19631
1.22258 0.729784 2.76157
1.40303 -0.71906 2.98452
0.801894 0.0510823 2.87677
-0.157654 0.932227 3.02497
-0.721832 -0.746824 3.30153
1.14951 0.723089 2.83216
0.647571 -1.46049 3.56133
-0.815962 0.0227133 3.08872
-1.22277 -0.714807 3.39058
1.7406 0.109207 2.74638
-1.2191 0.831896 2.82223
-0.266689 0.827674 3.02564
1.82927 -0.533561 2.79117
-1.18534 -1.561 3.4518
-0.284033 0.107512 2.95573
1.00312 -0.613733 3.02793
1.13406 -2.10385 4.83907
-0.521255 -0.959013 3.54633
-0.00950418 -0.0653584 3.00247
-0.498415 0.685263 3.09138
-0.335237 0.642992 3.09565
1.19395 -0.822508 3.11931
-1.17994 0.0101946 3.09088
1.06854 -0.0424774 2.86359
1.74759 0.986223 2.53273
-1.60794 -0.83297 3.34436
1.28433 0.662834 2.77084
-1.04972 -0.00816858 3.05202
1.85681 0.516713 2.63672
-0.366367 -0.241497 3.05406
-0.836562 -0.635073 3.2275
-0.0155579 1.22639 2.64658
-1.34772 -1.00967 3.16885
0.687907 0.522761 2.94333
0.970701 1.1468 2.76278
0.0333967 -0.205268 3.04465
1.01706 1.20966 2.7414
0.152775 0.479691 2.91349
-1.286 -1.05581 3.40002
-0.966348 -0.172289 3.09359
-0.592925 0.620282 3.12571
1.10918 -0.152935 2.81889
0.428594 1.47659 2.83351
0.978407 -0.96952 3.25859
-0.136759 -0.944231 3.39627
0.306113 1.25346 2.90359
0.905858 -0.124167 2.91858
0.0287767 0.579682 3.03194
2.00516 -1.01174 3.41957
1.85954 -0.552949 2.75882
-0.377919 -0.866071 3.36462
0.4617 -0.0226209 2.96002
-1.04895 -0.0404595 3.1109
-0.749517 0.719222 3.00594
-0.141248 -0.813428 3.30893
1.08819 0.655824 2.89767
-0.76665 0.0724359 3.07544
1.89559 0.142146 2.74216
-1.13768 -0.787706 3.34771
-0.77722 0.799162 3.00818
-0.319539 0.0227575 2.96342
-1.01899 0.783415 2.83075
0.939224 0.726899 2.87444
1.11179 -0.689293 3.01343
-0.57875 -0.204828 3.10598
-0.654658 0.793302 1.86477
0.163816 -1.27736 3.5162
-1.82991 -1.1823 3.78325
0.205586 0.547031 2.90417
0.895238 1.19201 2.77045
1.5279 -0.154251 2.81244
-0.595437 0.827256 1.87271
-0.991027 -0.974201 3.35144
0.886436 0.241923 1.36439
-1.0417 0.789633 2.85292
-0.401429 -0.120022 3.01166
1.30801 -1.80278 3.52855
-0.594362 0.626333 3.04745
0.275997 -0.963328 3.38671
-2.66445 -0.26506 5.76574
-0.503554 -0.884732 3.35915
1.38273 -0.793525 2.874
-1.21517 0.590349 2.90006
0.142881 0.440909 2.92553
1.48119 -1.15694 3.24809
-0.837582 -0.341472 3.1977
0.430006 1.50704 2.79676
-0.661927 0.745041 1.84559
1.40762 -1.15534 3.38653
-0.0873493 0.420961 2.9559
0.805243 1.09968 2.81941
-1.07366 -0.285375 3.14982
-1.25228 -0.337797 3.18168
-0.528761 -1.15463 3.59448
1.39841 -0.225241 2.7501
1.69393 0.471504 2.85783
-1.01746 -0.271087 2.94854
0.351173 1.19849 2.9138
0.975949 0.985904 2.76421
-0.998086 -0.463051 3.08909
-0.127886 0.310337 2.97249
-0.538357 -1.35948 3.47391
0.830672 0.966624 2.83177
2.37654 0.464663 2.59385
-0.442514 -0.454787 3.24823
0.119932 1.4193 2.54877
1.10767 -1.33509 3.38382
-0.898196 0.290462 3.00438
0.373245 -0.402685 3.10925
0.676216 1.08355 2.88822
-1.145 -1.22162 3.3547
2.32401 0.0106679 2.89015
0.468146 0.361216 2.87236
-0.650034 0.719997 1.92824
0.37592 -0.372559 3.12472
0.11376 -1.27639 3.56553
1.71835 -0.139915 2.83767
1.54056 0.297812 2.68316
0.16282 1.06234 2.95042
0.976811 -0.440311 3.00746
-1.14966 0.352317 2.99076
0.699331 -1.40422 3.59932
-0.479905 0.715394 1.98404
0.00962844 1.13174 2.31639
1.49521 -0.378099 2.7876
0.505928 -1.36325 3.61594
-0.405854 0.307791 2.95172
1.86655 0.525263 2.64414
0.655043 -0.364647 2.95964
-0.361401 0.764057 1.94932
-0.0447284 0.538021 1.37143
0.103639 -1.29021 3.56227
-1.2358 0.430225 2.99415
1.57473 0.983655 2.55912
-0.252435 -0.332512 3.1199
1.36303 -1.19015 3.33736
2.63194 0.690525 2.76086
0.19468 0.36127 2.92738
1.06535 0.227091 2.88007
-1.04141 -1.38258 3.27542
-0.0149509 0.560813 1.28744
-0.377589 0.708805 2.11913
1.50465 -0.530715 2.87864
0.618501 -1.53101 3.71455
0.6397 0.198145 2.88397
-0.57235 -0.540012 3.22551
-0.588185 0.654605 2.05026
1.23632 -1.48176 3.65484
2.03829 0.361445 2.66134
1.56827 -0.443652 2.76069
0.994499 0.261633 2.89696
2.22849 0.471431 2.60251
-0.250898 0.906655 2.58451
1.28539 -0.673907 2.90311
1.38038 0.742404 2.7072
0.55857 -1.46433 3.5848
1.71207 0.0889262 2.76223
-1.1771 0.737237 2.73776
1.35564 -0.651397 2.9829
-0.666929 0.79171 2.97624
1.64104 0.0453616 2.81904
0.7415 -0.642251 3.12729
1.05119 0.154968 2.82386
1.43724 -1.66761 3.62669
-0.829811 0.632459 2.08632
0.671896 0.846344 2.96027
1.34108 -0.568581 2.89415
2.39625 -0.935686 3.84
-0.574834 0.12352 3.00776
1.20482 -1.68757 3.83407
-0.277238 1.08585 2.45641
0.873192 -0.84753 3.22959
-1.16591 -0.0155882 3.0874
0.520453 -1.46438 3.56894
-0.0603982 -0.0559938 3.00937
1.33072 0.644422 2.71198
-0.189941 -0.797323 3.28632
1.4551 0.610977 2.7333
0.74098 -1.88569 3.97005
0.997748 -0.782992 3.23735
1.9038 0.375675 2.67774
1.58467 -1.48361 3.39937
1.61674 0.0150413 2.76659
0.0532012 0.753954 3.04575
-0.760495 0.626127 2.15697
-0.21021 -1.68183 3.60839
-1.3247 0.139514 3.08831
-0.486514 1.38187 2.96069
1.63736 -0.601343 2.85251
2.21883 0.250019 2.76597
0.217687 -1.68865 3.69467
-0.478482 0.679734 2.12436
-0.20775 -0.625848 3.18582
-1.05933 0.217397 3.02874
1.1434 -1.49493 3.36526
0.92978 -0.557948 3.01347
-1.1393 0.745894 2.45969
-1.16404 -1.40434 3.32469
-0.713091 0.16792 2.96629
1.86463 0.995941 2.54951
1.08577 -0.783275 3.1081
-0.863332 -1.264 4.49538
0.911333 0.0186351 2.89712
1.48004 -0.0319554 2.79697
1.25613 0.698762 2.7803
-0.59012 -0.765615 3.21206
-0.251984 1.08073 2.45388
1.13842 0.684591 2.85318
0.0283631 0.0940714 2.96311
1.56001 -1.37973 3.20045
0.799269 -0.722304 3.17131
1.10159 0.75701 2.79907
0.961694 0.0538072 2.8956
-0.525982 0.78032 2.26796
0.494246 0.762221 2.92008
1.65078 -0.626729 2.82923
-0.375757 0.594351 3.05129
1.82676 1.03905 2.55017
1.3509 -0.123006 2.7029
-0.0471997 1.07 2.40805
1.36586 -0.896839 3.09026
1.87603 0.079411 2.72603
-0.315409 0.670993 3.07371
1.64202 -2.09273 3.4364
-0.515702 -0.09285 3.06861
1.39797 -0.837821 3.01194
1.7372 -0.0567762 2.77601
1.20644 -1.4508 3.44468
-0.0744557 -0.873482 3.33001
1.44964 0.564005 2.67553
1.02344 -1.12338 3.31022
0.5687 0.471856 2.91878
0.501348 1.24758 2.87546
1.23927 -0.951658 3.16273
0.739554 -0.277485 3.03159
0.991275 1.13219 2.74174
1.45577 0.420421 2.80077
-1.14221 -1.03321 3.30316
-0.707686 -0.242677 3.04856
0.713982 1.14257 2.8563
-1.10546 -0.088628 3.12752
-0.58753 -1.10777 3.61083
1.30524 0.515373 2.79326
-0.775715 -0.207899 3.05352
-0.159179 1.14961 2.95499
-0.140092 -1.0014 3.35692
-0.769785 0.526621 3.04543
-1.43871 -0.171181 3.088
-0.443713 0.899866 1.87767
-0.119595 0.776677 2.98481
-0.360981 0.843172 1.92765
1.29965 -0.718305 2.97699
1.09131 0.0515064 2.80892
-0.576376 0.757641 3.05237
-1.35773 -0.725996 3.21653
0.530025 -1.4669 3.57096
-0.0301264 0.0227693 2.9663
-1.41057 0.136623 3.05333
1.94812 0.712646 2.569
-0.724849 -0.692453 3.27829
-0.66917 0.857397 2.89341
-1.10746 0.117224 3.12258
-0.443625 -1.60905 3.56746
0.270646 -0.0857754 0.144047
0.649691 -0.646047 3.18922
1.49258 0.724081 2.62578
1.10587 -0.84679 3.08708
-0.176922 0.657989 2.9551
1.86017 0.109024 2.72709
0.966555 -0.0755154 2.90692
-1.28941 -0.824192 3.18784
0.776641 0.60694 2.93237
-1.47618 -1.58449 3.36436
1.46921 -0.0510253 2.84121
1.5268 0.377351 2.27681
1.79454 0.957757 2.52724
-0.861552 0.713455 2.97693
-1.00502 -0.00448218 3.07337
1.18096 -0.767109 3.07325
-1.09396 -0.249879 3.14157
-0.548552 0.819918 1.88862
0.786202 -1.08461 3.34883
1.67622 0.448065 2.59266
1.58353 -0.915794 2.95699
0.9775 -0.19806 2.92802
-0.716879 0.781934 1.86342
-0.125541 0.684598 1.64051
-0.544403 -1.06297 3.43899
-0.378055 0.490559 2.9728
-0.488524 -0.995533 3.36422
0.101889 0.594945 2.99876
-0.17329 -1.18332 3.50942
-1.46778 -0.167418 3.0931
-0.17142 1.16707 2.95566
-0.983951 -0.917942 3.30818
0.511432 0.52529 2.87765
-0.655389 -0.134743 3.04264
-0.653145 0.857668 1.86069
0.529769 1.57415 2.82576
1.37512 -1.22157 3.32246
0.265694 1.3941 2.73614
0.336821 -0.368835 3.08868
1.27933 0.358591 2.84132
-0.158556 -0.0673481 1.14545
-0.540035 0.74827 1.9445
0.0597726 -0.323147 3.05501
-0.315016 0.790245 1.968
0.282231 1.52508 2.78358
-0.541779 0.454277 2.9855
-1.52238 -1.14864 3.26503
0.992951 1.11419 2.83388
0.133729 -0.283127 3.04754
1.81274 0.388803 2.78038
0.541213 -1.18517 3.5249
-0.237504 -0.208114 3.07878
-0.359206 -1.09528 3.48678
-0.262611 0.869326 1.95665
0.452045 -1.06655 3.42754
0.375568 1.32806 2.89906
-0.858306 0.594701 3.16789
-0.283234 0.921988 1.9355
1.755 0.725498 2.58713
-0.410818 -0.169245 3.07839
0.280862 0.509482 2.92841
0.211198 -1.04705 3.54044
-0.190425 0.640452 3.08819
-0.532948 -0.140186 3.07301
-0.0860568 0.650575 3.01315
-1.3227 -0.922027 3.26124
1.69263 -0.964211 3.09486
-0.463056 -0.968336 3.52171
-0.055912 -0.0884427 3.00499
-0.112113 0.594579 2.99869
0.721583 -1.22771 3.47625
1.73151 0.420771 2.696
0.962582 -0.315476 2.90748
1.48352 1.02877 2.52998
0.484786 0.399406 2.89024
1.36347 -1.14168 3.3408
-0.156459 1.16808 2.94926
1.12632 -0.274627 2.84249
0.0968713 1.10909 2.90027
1.1848 1.11599 2.6909
2.48459 0.371275 2.60301
1.52947 0.41879 2.71708
0.986924 -0.241893 2.93338
-0.133762 -0.107644 1.03978
0.207836 -1.11425 3.45538
0.886966 -0.480627 3.05884
-0.0550752 1.0481 2.979
1.53049 0.279167 2.72165
-1.07499 -1.30943 3.3488
2.50959 0.0302607 2.93438
0.246624 1.52808 2.72692
-0.942996 -0.467144 3.26631
-0.0489817 1.0076 2.94924
-1.44797 -1.19888 3.08482
1.72103 0.252223 2.6809
-1.12941 -0.421153 3.25361
0.0865204 0.360499 2.91308
1.51191 -1.31274 3.42989
0.278034 1.11853 2.97825
-0.00549808 0.530909 1.21694
1.60658 -1.18321 3.21288
-1.48035 -0.385226 3.21888
-0.758138 0.70642 1.89606
0.0289735 0.582558 1.46442
0.191 0.333912 2.91706
0.577385 -1.56723 3.60381
-1.2695 0.222942 3.02592
-1.4303 -0.605547 3.1667
1.56948 0.811522 2.58887
0.506051 -1.57745 3.75221
-1.1059 0.171329 2.92567
2.43949 0.653367 2.78886
1.50648 -0.556692 3.05668
1.39512 0.802719 2.69712
-0.49019 1.44518 2.95956
0.973266 0.930414 2.84654
0.598191 0.229328 2.88852
0.065132 -0.526763 3.16697
2.14666 -0.708487 3.23293
-1.35806 -1.32646 3.25689
0.629686 0.228961 2.90898
-1.18207 -1.36405 3.22739
0.189231 0.955478 2.99272
0.679173 -0.573654 3.11774
-0.413194 -1.46965 3.59166
-0.821843 0.207307 2.96901
-1.27442 -0.541749 3.25634
-0.259061 0.932732 3.03856
0.022995 0.710353 1.80127
0.115755 0.990017 2.95741
2.49773 0.818581 2.88013
-1.03163 -1.62978 3.45937
0.440069 0.259738 2.86538
-1.06118 -0.485758 3.09076
2.26514 0.0285458 2.97285
0.321923 -1.47451 3.64751
-1.12888 0.77059 2.76615
-1.08073 -0.765955 3.33729
-0.216661 0.0921787 3.0236
0.056574 1.31679 2.88024
-0.0306112 -0.697537 3.24186
-0.412033 1.31602 2.95314
-0.034318 0.76519 2.98668
-0.714429 0.060631 3.03662
0.380961 -0.643941 3.1532
-0.0944774 0.170323 3.00358
-0.33942 -1.59384 3.52051
-0.178683 0.878431 3.02823
0.095856 0.702581 3.34835
-0.743605 0.861899 2.93904
-1.03317 -1.46144 3.30643
1.40224 0.106351 2.86628
1.43863 -0.570241 2.94557
-0.298409 0.858929 1.9311
-0.838886 -0.995208 3.80012
-0.958014 0.699852 2.944
-0.13535 -0.0587291 3.01085
1.51094 -0.681115 2.66972
-0.97405 0.728643 3.25019
0.319036 -0.0159573 2.96957
-0.212204 1.01318 2.76517
1.79497 0.354168 2.67473
0.698965 0.731189 2.95092
-1.20406 0.0249272 3.09143
1.51559 0.406715 2.27159
1.44929 -0.7144 2.9409
0.437593 -0.203993 2.99321
-0.129502 0.942663 2.14989
0.344475 1.26406 2.9117
-0.432644 -1.09129 3.50256
-0.987684 0.55402 2.96334
-0.0740558 0.643987 3.01913
1.32618 -0.16241 2.80444
-0.633037 0.807645 1.86557
1.69799 1.11181 2.56109
-1.10889 -0.967978 3.26557
-0.340581 0.511196 2.99092
-0.592558 -0.983396 3.43431
-1.12846 0.606026 2.8669
-1.03534 -0.132677 3.16647
1.30822 -2.17774 3.54937
1.7134 -0.794403 2.8063
1.549 0.522834 2.69729
-0.520257 -0.811425 3.31473
-0.726852 -0.0890567 3.02844
0.684249 -0.80086 3.18482
1.0479 0.0161401 2.88023
2.53201 0.0278945 3.79676
0.930604 -0.0208268 2.89015
-0.307316 0.755772 3.09433
0.230755 -0.780581 3.2788
1.02557 0.687084 2.89071
1.85746 -1.40646 3.26873
-1.38592 -0.723442 3.14278
-0.869566 0.766737 2.65009
-0.339313 0.0433293 2.96063
1.33177 0.701698 2.71869
-1.38726 -0.173111 3.08305
1.35871 -0.933929 3.06613
-0.388797 0.577748 2.9918
1.8881 0.587286 2.61874
1.54001 -0.134125 2.75671
-0.547124 0.855084 1.88399
1.87341 0.365587 2.64953
-1.43748 -0.910697 3.17817
0.603173 0.539103 2.92349
0.869512 -0.100477 2.95677
1.36704 -1.65016 3.51077
1.38051 0.59681 2.70999
-0.0955946 -0.911797 3.33707
-0.908344 -0.387731 3.12974
0.773136 1.26181 2.82559
0.645269 -0.0611438 2.93432
-1.40452 -0.824811 3.13209
1.725 0.564921 2.71431
1.15812 -1.1571 3.38114
1.65804 -0.0366169 2.79963
1.74932 0.449847 2.74466
0.0876087 -0.2903 3.05164
-0.451032 0.775919 1.86275
-0.693045 0.458837 3.081
0.112433 -1.15562 3.5441
0.000273956 0.844452 2.09144
0.478042 -0.257156 2.97846
0.610151 -1.61186 3.58157
1.58575 -0.993094 3.13665
1.65371 -0.202891 2.73569
0.614653 0.50443 2.92128
-0.475553 -1.0306 3.44501
-0.691954 0.71162 1.91368
1.32996 -0.407854 2.75806
0.956028 1.00574 2.78182
1.29145 -1.36302 3.4394
1.39087 0.31607 2.79952
-0.0477358 0.943565 2.15424
-0.238427 -0.41596 3.15886
0.520647 1.01828 2.91585
-0.246052 -0.223231 1.32496
0.335061 -1.31677 3.48485
0.258365 0.294931 2.91217
1.53626 0.364583 2.64696
1.27613 -0.35787 2.86977
0.701513 -1.28292 3.49721
1.18196 1.05166 2.71138
-0.0243912 0.504992 1.3187
-0.613632 -1.19125 3.45441
1.8066 -0.335136 2.83113
1.33809 1.0087 2.6743
2.26994 0.30012 2.51302
1.22107 0.356862 2.8598
0.783565 -0.894592 3.21531
1.55179 -0.0940936 2.85192
1.93199 0.000323432 2.73698
0.0954543 0.651821 3.12684
1.03373 -1.74784 3.68419
1.25234 -0.0642634 2.78631
1.65201 1.14291 2.56437
0.370148 0.709423 3.02809
-0.46238 -0.882266 3.34914
0.784147 -0.025799 2.9125
-1.2318 0.657128 2.88305
0.240451 -0.829551 3.30496
1.31036 0.491764 2.8565
1.24294 -0.237976 2.78647
-0.262005 0.878341 1.97248
-1.22837 -1.05677 3.3061
-1.27342 -1.01478 3.30419
-0.383125 0.779096 2.02934
0.827272 1.1558 2.79593
1.5986 -1.87447 3.43002
1.54641 -0.210011 2.88346
-0.594928 -0.607997 3.28927
-0.450314 0.490433 2.9973
-0.650451 -1.02372 3.41143
-0.898634 0.596521 2.99914
0.0736998 -0.162545 3.01936
1.73446 -2.24716 3.32942
0.280731 0.541426 2.93404
0.327846 -1.80741 3.58438
-0.280625 -0.955421 3.34148
-0.607955 0.872411 1.88271
0.514587 -0.132873 2.94305
0.890722 1.05245 2.78089
-0.630743 0.370511 3.00862
-0.0751655 1.11444 2.7987
-1.00594 -0.371999 3.14344
-1.15787 -1.21301 3.34447
-0.965067 0.0902719 3.08787
1.60505 -0.309495 2.85062
-0.474812 0.756778 1.87749
1.13136 -1.2096 3.4236
0.598553 0.442102 2.90992
-0.76635 0.7273 1.85147
-0.48723 -0.295411 3.08499
0.80054 0.403791 2.92512
1.01025 -1.19341 3.5075
-0.887458 0.161725 3.05646
1.46446 -0.474916 2.81743
-0.0470314 0.623768 1.34467
-0.570809 0.279477 2.98495
-0.443523 -1.43816 3.52562
1.06976 0.940922 2.76325
1.35071 0.878429 2.69711
0.955538 -1.53291 3.77597
-0.305693 0.242022 2.99828
-0.0315225 0.573543 1.30044
1.25729 -0.470636 2.94671
-1.41191 -1.22748 3.1667
-1.09426 0.348625 2.94983
0.407084 -0.443409 3.08805
-0.695664 0.720306 1.93799
2.29703 0.0401882 2.96598
-0.173589 -1.32678 3.58473
0.995997 0.285517 2.9201
-0.00829934 0.543384 1.289
1.05656 -0.390491 2.92496
0.177332 1.01865 2.91407
0.737901 -1.16489 3.27471
0.983004 0.444818 2.89731
-0.895096 0.181569 3.05485
0.0416748 -0.3349 3.07383
-0.514893 0.4188 2.99196
0.378249 -1.19465 3.53225
0.323376 1.53414 2.81703
1.00449 1.07717 2.77142
-0.994195 -0.292343 3.13421
0.210305 1.19578 2.89126
-0.067436 -0.139358 0.845426
-0.842414 0.499781 3.0222
-1.3126 -0.258394 3.14438
1.55116 1.02826 2.54164
-0.956675 -1.02368 3.1619
2.59366 0.936353 2.86923
-0.227824 -0.489017 3.17842
1.34358 0.944466 2.68907
0.597895 0.291219 2.889
-0.869439 -1.40572 3.53442
-1.30651 -0.452151 3.15984
-0.0404019 1.00821 2.282
1.46774 0.878399 2.57004
0.397971 -1.37957 3.5489
0.863346 0.258987 2.87338
1.66153 0.334752 2.67061
0.892627 -1.32398 3.48672
-0.185149 0.790448 2.06965
-0.0174167 0.533292 1.24476
0.247676 -0.402087 3.09613
-1.07447 0.352164 3.02482
1.25704 -1.23796 3.3562
1.10381 0.999533 2.74481
1.59194 -0.353562 2.83943
0.651741 -0.456962 0.857854
-0.967213 -1.48667 3.41114
-1.33858 -0.644854 3.37301
2.25626 0.220983 2.75998
0.405429 0.161103 2.91363
-0.3943 0.891468 3.0211
-0.478522 -1.60469 3.41447
2.2468 0.509373 2.64531
-0.50522 1.40404 2.96384
-1.44955 -0.579636 3.18469
-0.852529 0.668017 2.01882
0.813494 -1.52448 3.57274
-0.827997 0.235476 2.99207
-1.00049 -0.544175 3.21812
1.66574 0.805869 2.55097
0.806172 -1.5663 3.78663
1.23131 0.18631 2.80641
-0.0256582 0.0462871 2.94827
-0.229832 1.06848 2.45275
0.985103 0.757816 2.89316
1.66911 -0.707799 2.87101
0.985753 -0.730832 3.15391
0.0323489 0.744667 3.04139
2.00484 1.07237 2.6972
0.68206 0.0129513 2.91463
0.759015 0.117398 2.86552
-0.298996 0.874403 3.02937
1.82284 0.715667 2.57448
0.879394 -0.678965 3.13362
0.608082 -1.7764 3.9082
0.286033 0.0858224 2.95637
1.05785 -0.635364 3.07435
2.48785 0.0154711 3.76513
0.762466 0.800224 2.91528
0.709192 -0.735002 3.16639
1.17935 0.747521 2.77539
-0.0516418 1.10107 2.90308
1.06653 0.0801676 2.80164
1.3764 0.68318 2.67063
1.47306 -0.630622 2.86035
-0.272864 -1.08564 3.43337
1.13624 0.0325397 2.85067
-0.607975 -1.57219 3.46118
-0.671024 0.151278 2.97435
2.06529 1.16269 2.80725
-1.37156 -0.647619 3.16487
-0.10762 0.90943 3.09934
-0.247057 0.11872 2.99048
-0.678103 -1.54497 3.51879
2.11356 1.06307 2.76681
0.247285 -0.631064 3.21046
1.63188 0.741733 2.61461
1.11651 -0.81119 3.07332
0.789444 -0.0624305 2.90347
0.576454 -1.77859 3.72183
-0.262085 0.685542 3.16295
1.91314 0.641975 2.61488
-1.4296 -0.0233483 3.08517
-0.904012 -1.61898 3.41758
0.112621 0.737967 3.0443
1.91833 -0.164655 2.72025
0.812767 -0.80642 3.18527
1.24905 0.0125498 2.77347
0.341233 0.707003 3.02994
-0.397956 -0.792833 3.30749
1.27271 0.518358 2.83052
0.183688 -0.228804 3.01405
-0.278069 0.909576 1.96615
0.052633 -1.06726 3.39491
-0.883064 -0.254905 3.08604
-0.621361 -1.01015 3.40918
-0.447503 0.756806 2.22485
-0.684305 0.801805 1.86578
0.998703 -0.171335 2.93634
0.828742 0.501867 2.97385
-0.548847 -0.956776 3.32685
1.04487 0.596968 2.90214
-0.377044 -0.142763 3.08062
1.53618 -2.48907 3.49215
0.44804 0.556593 2.91371
1.22023 -0.885985 3.16022
0.664386 1.24652 2.83773
-0.423976 -0.938071 3.37999
0.416832 -0.0970942 2.96078
-1.02841 -1.2102 3.50716
-0.606206 -0.954973 3.41719
-0.363952 -0.349982 3.11634
-1.31516 0.420547 2.95399
-0.393525 0.7593 1.94391
1.64724 -0.280089 2.63487
0.285983 1.45042 2.81491
0.0589575 -0.222159 0.902777
1.15434 1.11464 2.70729
0.296426 -1.21021 3.53563
0.361964 0.461472 2.87965
1.13609 -0.253799 2.83028
0.389329 1.1385 2.86746
-0.582681 0.441817 2.9794
0.454584 -1.15821 3.51959
1.26214 -0.16929 2.78491
-0.422397 0.723903 1.96896
0.300797 1.30469 2.90618
-0.934778 -0.983624 3.37952
1.11731 0.559631 2.85129
-0.685026 0.856499 1.8654
-0.795254 -0.143063 3.07791
-0.548652 0.5489 3.03539
1.83187 0.658213 2.59839
-0.751386 -0.957721 3.36782
-0.55074 -0.101422 3.08382
2.16181 0.0636151 2.94502
-0.866891 -0.904667 3.30068
-0.1179 0.694551 3.12167
-0.19144 -0.894963 3.41058
1.74314 -1.98259 3.42953
-0.314048 -0.0551042 3.03922
1.37631 0.561704 2.76296
-1.42953 -1.08678 3.20487
0.0465958 0.481751 2.99885
0.823947 -0.30068 2.98994
0.623435 1.19691 2.8843
1.40612 0.411995 2.7821
-0.398629 -1.18798 3.69022
0.589118 -1.57851 3.61555
-0.320851 -0.2668 3.09717
1.42155 1.05539 2.63417
-0.369231 0.850351 2.41277
-0.189609 1.17119 2.95629
0.10309 0.505336 2.96287
1.2915 -0.205273 2.81609
0.0989269 1.34049 2.84566
0.696035 -1.09509 3.40771
-0.906564 -0.462125 3.20296
0.101796 1.18688 2.15406
0.810567 1.03009 2.84103
0.197982 -1.4244 3.64292
1.64378 0.296589 2.74634
-0.291206 -0.41997 3.16837
-0.251903 -0.0312492 1.42534
1.11518 0.980341 2.78402
0.695522 -1.36963 3.61728
0.906324 0.29012 2.86124
1.50897 0.365005 2.70937
1.63652 -1.20652 3.22623
1.53187 0.987237 2.52426
0.0625903 0.539621 1.29819
1.23076 -0.370938 2.93163
0.0178242 0.362492 2.95373
1.67248 -1.10337 3.06596
-0.808091 0.706946 1.87053
-0.706858 -0.355497 3.10527
2.47637 0.933195 2.90135
-0.730823 -1.47699 3.49445
1.0909 -0.542166 2.92272
2.08543 0.524066 2.60089
-1.36514 -1.29866 3.10457
-0.255799 0.185964 2.96515
1.64155 -0.498063 2.84201
-0.659709 0.644836 2.08339
0.12673 0.596058 1.33913
2.01322 0.45637 2.62512
0.738885 0.967313 2.8833
0.262633 0.268702 2.92872
-0.0217486 -0.506634 3.17711
0.961367 0.931004 2.86717
-0.585545 -1.395 3.49305
1.50126 0.205846 2.72411
1.11572 -1.10666 3.36369
-0.501733 0.515276 2.99361
-0.0625823 -0.252448 3.08015
-0.317597 0.863958 1.94197
-0.510081 -0.999294 3.42027
1.1825 0.45625 2.83522
-0.738012 -1.06217 3.45737
-1.13586 -0.220573 3.16095
1.55199 1.03375 2.47217
1.70084 -1.74107 3.37598
0.272627 1.44877 2.81991
-1.51935 -0.956563 3.17289
1.64494 0.544197 2.77265
1.2458 1.16457 2.69695
-0.226914 -0.175754 3.0675
0.792376 1.20079 2.80749
-1.12992 -0.915115 3.20844
-0.0120223 0.552278 3.02319
0.31687 -0.138341 2.9645
-0.515678 0.853849 1.88441
0.87532 1.06346 2.82625
-1.101 0.378381 2.99407
-0.159617 -0.0848432 1.11407
1.15865 0.982393 2.71208
-0.47294 -0.378575 3.08173
0.971572 0.327688 2.91676
-0.0600989 1.23059 2.84696
0.0746104 -1.32506 3.62407
-1.13705 -0.361335 3.26694
1.54825 1.00426 2.49317
2.64484 0.925798 2.85866
-1.25913 -1.15913 3.33459
0.746029 0.450983 2.915
0.251833 1.12562 2.95597
0.453397 -0.286136 3.0013
0.1423 1.26 2.3709
1.31271 0.388164 2.80506
-0.605225 -1.17757 3.50872
-1.21071 -1.32634 3.24308
1.53109 0.238857 2.59003
0.525778 -0.304431 0.580315
1.29713 0.9275 2.74236
1.30218 -0.505209 2.91476
-0.67524 -1.39184 3.51354
-0.609453 0.22602 2.92596
0.995102 -0.486485 3.01351
-0.46678 0.687049 2.08122
1.85416 -1.89943 3.62321
0.720326 -1.39941 3.55514
0.700098 -0.451919 3.09348
-0.0232402 -1.3483 3.56194
0.766426 -1.81142 3.81853
1.49158 0.281444 2.77372
0.0409081 0.59611 1.30592
-0.182193 -0.413265 3.13027
-0.545804 0.699421 2.00116
-1.46123 -0.69239 3.19233
-0.641878 0.852603 2.98504
-0.501492 1.35557 2.96346
-0.110629 0.131288 2.99383
0.0643936 0.818497 3.03375
-0.709944 -0.688235 3.38988
2.27624 0.6755 2.76214
-0.993491 0.10572 3.22786
0.077715 -1.58355 3.48226
0.745763 -0.610166 3.11314
0.189494 0.925429 3.02341
0.635602 -1.65807 3.72866
1.52523 0.189811 2.81949
-0.178626 1.11824 2.87394
-0.720212 -0.574175 3.19265
1.58478 0.761733 2.57965
-1.34595 -1.40376 3.32542
-1.03971 0.167355 3.00203
0.733876 -1.66282 3.6371
0.999986 -0.46965 2.94407
-0.0294643 0.588081 1.53196
1.06979 0.288899 2.89822
-0.69272 0.706165 1.97822
1.06797 -1.36208 3.33641
