ply
format ascii 1.0
element vertex 1836
property float x
property float y
property float z
end_header
-0.016113 0.563016 1.22706
-1.37164 -1.24829 3.33704
1.27495 0.283862 2.82562
0.585378 1.00037 2.88721
0.0325462 0.68545 1.37016
0.227257 0.290934 2.90632
0.191949 -0.462078 3.09265
0.090226 1.31671 2.24038
-0.275917 -1.3749 3.55727
0.591359 -0.414126 3.06357
-0.56778 0.730849 1.92934
0.043195 -1.31283 3.4788
-0.304227 0.35171 2.94292
-0.795986 -0.387333 3.11106
0.548292 1.04274 2.922
0.0302641 0.599678 1.57951
-0.190182 -1.31073 3.60447
1.25524 0.30469 2.82163
-0.687662 -0.651722 3.34144
1.42718 0.177824 2.78279
1.89856 0.204243 2.83076
-0.19151 -1.67258 3.74937
-0.433392 0.901844 2.88497
1.32484 -1.53932 3.52578
2.36677 0.814361 2.90407
0.563468 0.139233 2.87769
-1.41657 -0.63871 3.4619
1.55369 0.771352 2.60536
-0.923955 0.274327 2.96261
-0.783284 -1.46855 3.59958
-0.0389067 1.37039 2.89125
1.84074 -0.515836 2.92446
-0.635005 0.680572 2.01382
0.149851 -1.46206 3.62592
0.777033 0.214077 2.87085
1.7865 -0.276463 2.72781
-0.0746122 -0.508272 3.14991
-0.629268 0.67028 2.03385
1.68781 0.658592 2.56562
0.634075 0.0350417 2.93068
2.18277 1.0715 2.92314
-1.48262 -0.734469 3.15152
-0.981502 -1.33448 3.43825
-0.0235052 0.849235 3.05766
1.58691 -0.65003 2.96328
1.30759 0.103964 2.78631
1.44366 -0.625784 2.95655
-0.569947 0.78199 2.94121
-0.525819 -1.58615 3.48079
1.65308 0.0703683 3.11372
1.36869 -1.55552 3.37256
-0.627194 -0.935747 3.37207
1.91306 0.0543196 2.64831
1.01342 -0.0935387 2.90099
0.690373 0.635165 2.97819
-0.966961 -1.58674 3.34174
0.340267 -0.868877 3.2946
0.702551 0.601729 2.95982
0.0172193 1.27783 2.88544
-0.377162 -0.0686821 2.99506
-0.429601 0.00682864 2.99825
-0.509208 0.719331 1.96062
-1.21033 -0.842061 3.38003
-1.00499 0.724173 2.89857
0.0915553 -0.0241835 2.98515
-0.0535861 -0.782664 3.28652
1.91376 0.182605 2.74631
-0.376871 0.694142 3.04656
1.27534 -0.646899 2.87574
-0.467056 -1.04632 3.52866
0.579839 0.0809655 2.90882
-0.67789 0.807047 2.96468
-0.986484 -0.612696 3.31503
2.23317 1.00823 2.98867
1.35238 -0.613368 2.89017
0.267601 0.907604 3.06892
-1.22349 -1.57321 3.42197
-0.486383 0.136574 2.99338
1.69045 -0.57169 2.84195
1.39598 0.747433 2.68185
-0.370348 0.113317 2.951
-1.07352 -1.4722 3.33306
-0.788287 -0.0614393 3.04268
-0.915741 0.777072 2.80796
-0.0206493 -0.894301 3.36322
1.20286 0.646332 2.8388
1.56417 -0.753097 2.92335
-0.810882 0.667031 3.05274
1.99377 0.00570093 2.62489
1.67716 -0.0338352 2.71471
-0.710958 -0.795324 3.34753
0.157033 0.0391745 2.94595
1.06212 0.725901 2.83073
-0.803967 -0.892528 3.37982
0.100074 1.32366 2.88292
-0.139909 -0.746744 3.26202
0.984935 0.000175595 2.86066
0.0669862 -1.67082 3.55727
1.1714 0.696174 2.82406
0.728315 -1.00163 3.30955
0.621176 -0.184112 2.98428
1.61101 0.467975 2.59417
1.75212 0.819039 2.56456
-0.714834 0.871725 1.86062
0.458015 -0.142473 2.96553
0.0630202 -0.970396 3.34077
1.63632 0.536019 2.67408
-0.774044 0.699434 2.29267
2.34541 0.0182596 2.91927
-1.38208 -0.0998756 3.11506
-1.0756 -0.899843 3.35527
0.148577 0.55487 2.9338
0.801681 0.430152 2.90968
-0.742565 0.158473 2.68027
-0.185882 -0.344168 3.11621
-0.271652 -1.25381 3.55235
1.12853 1.06975 2.7032
-0.166303 -1.09847 3.2666
1.0568 1.05907 2.76326
0.00723921 -0.289311 3.06306
0.708723 1.41307 2.84146
0.513609 0.392843 2.88043
-0.609975 -1.11477 3.38844
-0.0707506 0.513983 2.96779
1.39098 -0.252071 2.84668
0.206111 1.32398 2.73037
-0.383508 0.721932 2.10708
1.05437 0.464734 2.88871
1.13553 -1.06839 3.36394
-1.08819 -0.106496 3.12902
-0.894076 0.811342 1.96059
0.104575 -0.221178 3.03344
0.81574 0.709442 2.93847
0.243665 -0.0265556 3.00017
1.79214 -2.09618 4.54843
-1.40138 -0.804898 3.20753
1.64869 0.0102607 2.77794
-0.549857 0.685423 3.01314
0.785466 -1.44667 3.41191
1.08151 -0.753724 3.08876
-1.01514 -0.762205 3.35869
-0.722294 0.0912502 3.02839
-0.947568 0.786848 2.83595
1.52809 -0.031583 2.25804
1.28139 0.723689 2.75484
-0.922717 0.748529 2.71925
-0.633351 0.0495431 3.04548
-0.807531 -0.728297 3.41938
1.4795 -0.86592 2.94899
1.90926 0.242581 2.70742
1.19146 0.579941 2.84149
-1.29193 -0.13847 3.10228
-0.323222 -1.66525 3.51527
0.308748 0.563166 2.92419
1.08911 -0.966082 3.42543
-0.40008 0.757412 2.07543
-1.33976 -0.0973123 3.22966
-0.265927 -0.870157 3.35086
-0.669876 -0.063454 3.03898
1.74601 0.845383 2.55465
1.18054 0.620768 2.85297
-0.902765 -0.301512 3.14313
-0.388859 0.782165 1.90483
0.198302 -1.2297 3.57518
0.875188 0.46067 2.89583
0.183602 -1.29634 3.5466
1.25649 1.08756 2.72035
1.54911 -0.264681 2.95378
0.194409 0.439202 2.908
-0.463234 -1.13225 3.44935
1.737 0.436695 2.69964
-1.06286 0.553962 2.99191
0.867442 -0.21711 2.99997
-0.130546 1.19689 2.83933
-0.427071 0.898959 2.65707
0.665022 -1.06929 3.37247
-1.28906 -0.949503 3.20375
-0.749792 0.676347 2.06743
1.08922 -0.17395 2.85037
1.3448 0.495795 2.80195
-0.556669 0.734116 3.07007
-1.48316 -1.2068 3.17723
-0.0344732 0.367935 2.95462
-0.718732 -0.436938 3.1885
1.05562 1.02485 2.75383
1.56262 -1.27731 3.41142
1.47836 0.302187 2.75667
0.87895 -0.362597 3.01314
0.160019 0.839104 1.77759
-0.101527 0.957716 2.55827
1.44267 1.00601 2.58403
2.72195 0.887604 2.82048
0.97444 0.388948 2.90551
-1.27445 -0.356132 3.1706
0.0843583 1.14884 2.27794
0.652974 -1.18612 3.32075
-0.760182 -0.251651 3.03527
-0.688678 0.687041 1.96447
1.97047 -1.09272 3.37502
0.583542 0.498523 2.93955
0.611796 -0.222229 2.94604
-0.611208 0.759243 1.86665
1.39626 0.489502 3.05209
-0.938001 -1.08457 3.51164
0.419792 1.33253 2.89517
-1.29305 -0.181898 3.12582
0.014165 -0.109054 0.6899
0.863437 -0.981082 3.2288
0.721053 0.553335 2.91917
-0.570149 -0.140667 3.07486
-0.409925 0.895206 1.91591
0.0723695 1.22205 2.70137
-1.07239 -0.982802 3.4637
0.75427 0.534131 2.94121
-0.958801 0.408416 2.94952
0.161036 1.5106 2.75288
0.208862 -1.30284 3.58045
0.353774 1.11278 2.90494
-0.193879 -0.378135 3.10431
0.760213 0.350212 2.9202
-0.627002 -1.16693 3.36451
-0.0763404 0.916668 2.37899
1.13303 -0.32437 2.90644
0.136758 1.27562 2.32274
-0.962377 -1.12543 3.36832
-1.22517 -0.302613 3.1612
-0.225425 -1.10751 3.39546
-0.0379181 0.451104 2.95964
-0.290218 -0.0220302 1.49888
-0.398413 0.771284 1.92177
-0.211968 0.968353 2.89111
0.488002 -0.545444 3.16962
0.287809 -1.55534 3.74702
-0.148671 0.26719 2.95919
0.0454907 0.539182 1.34517
1.51065 -0.463072 2.84191
0.328597 0.969068 3.01814
0.991672 -1.5359 3.76872
-0.801109 0.231671 2.98481
0.807749 -0.446493 3.05374
0.00894515 0.572697 1.30083
-0.360596 0.740499 2.01194
2.29993 0.133098 2.96708
0.970891 -1.4111 3.55492
0.142362 0.315659 2.89521
1.16898 -0.390989 2.87655
0.927313 0.969967 2.81407
0.384734 -1.32627 3.48312
1.81263 0.27603 2.7715
2.06649 0.600486 2.65346
2.00933 0.37252 2.76192
1.52011 0.147872 2.86813
1.08709 -1.76309 3.79943
1.40048 0.785281 2.64955
-0.00928744 -0.671568 3.2366
1.05465 -1.58009 3.56866
0.626325 0.103163 2.89175
-1.27778 -0.64144 3.31891
0.035789 0.846589 3.02524
0.40367 -1.51422 3.5323
1.6616 0.6156 2.6424
-1.40148 -0.603882 3.3053
-0.879256 0.196622 3.03982
-0.293716 1.40985 2.92508
-0.54747 0.671654 2.15701
0.422187 -1.60848 3.61667
0.57006 0.173567 2.87831
2.09668 0.296625 2.75568
1.21988 0.843994 2.74324
-1.13676 -0.646782 3.28527
1.59072 0.130635 2.74119
1.26291 -1.66972 3.49696
1.19376 -1.5866 3.64864
1.25173 -0.568158 3.03933
-0.251828 0.859589 3.00453
0.345815 -1.48814 3.57183
-0.404846 0.982995 2.96066
1.69794 -0.501659 2.81355
1.49851 0.199634 2.78384
-0.286993 -1.41166 3.53474
2.26263 0.24428 2.75094
-0.691174 0.664553 2.0312
-0.36784 0.756902 3.02064
0.134838 -0.798371 3.24584
2.40852 -1.53794 4.4433
-0.89133 0.0443609 3.07497
0.847176 0.701933 2.88736
-0.235458 -0.780227 3.34207
-0.983246 -1.10319 3.40953
1.12525 -0.00401806 2.8166
0.541811 -0.718278 3.24864
0.0850756 0.840763 3.04066
1.47762 0.0999192 2.94084
-0.899855 0.775997 2.67336
-0.467205 0.806407 3.07097
1.54785 -0.610953 2.87674
1.79607 0.071234 2.8296
0.0319647 -1.65139 3.61087
1.93159 -0.0439156 2.64671
-0.222809 -0.946696 3.42264
-0.164915 0.910843 1.95835
-0.0220094 -0.106485 2.99991
-0.00891873 0.827615 3.736
0.25083 0.600403 2.94145
-0.340998 -0.885107 3.38569
1.41696 -0.0631287 2.84213
0.379593 -0.840316 3.31293
1.76801 1.04687 2.55561
-0.911227 -0.0279815 3.1016
1.80052 0.892385 2.53769
0.818884 0.663251 2.90964
1.18188 -0.245245 2.87418
-0.766288 -0.668285 3.27275
-0.732385 0.687928 1.97572
-0.441552 -1.18237 3.58144
1.47876 0.47538 2.7749
-0.688166 0.757374 1.8391
0.409868 -0.218345 3.05345
-1.03732 -1.02005 3.26772
-0.594335 0.485461 2.99224
-0.704265 0.600928 3.18652
-0.660134 -0.189955 3.07172
-0.873048 0.225118 3.04006
1.44771 1.15463 2.59903
0.503409 -1.02336 3.37717
0.254947 -1.01944 3.514
-0.467409 0.83472 1.89963
0.840845 -0.147643 2.94258
0.776442 0.523695 2.94209
0.304801 -1.69755 3.59803
0.764039 -1.63589 3.74938
0.102058 -0.0650113 2.96533
-1.2583 -0.839177 3.17731
0.958813 0.659981 2.90487
1.4781 -0.751753 2.90143
-0.986417 0.235092 2.99431
-0.946124 -0.0285783 3.08275
1.69297 0.577801 2.67202
-1.07126 0.04377 3.01083
-0.488793 0.714141 1.98687
-0.943131 -0.790824 3.35021
0.203323 0.779995 3.07733
0.521248 0.00765246 2.96358
-1.4064 -0.757761 3.2587
-0.0979728 0.950685 2.03509
0.300266 0.744547 3.03537
0.0113534 1.22462 2.80178
-0.0457441 0.538789 2.9976
0.874186 -0.187136 2.98566
-1.49506 -0.99237 3.26894
1.72522 0.758463 2.58501
1.05911 -0.146432 2.8568
-0.204782 -0.971718 3.37025
0.371724 0.59738 3.00159
1.9234 -0.550391 2.92967
-0.110074 -0.119941 3.07068
1.72604 0.511203 2.65194
0.389777 1.24083 2.90398
0.393368 -0.913885 3.27254
0.221626 0.42827 2.913
0.371523 -1.28716 3.59066
-0.161929 -0.35865 3.10732
1.36446 1.03385 2.61016
-0.677483 -0.101577 2.15955
-0.890572 0.403001 2.94838
-0.488734 -1.22584 3.55479
0.578417 1.39877 2.85921
1.35117 1.00572 2.60142
-0.0435235 -0.308106 3.08681
0.327296 1.48954 2.70041
-0.855197 -1.07911 3.34765
1.04583 0.488329 2.91111
0.595269 -0.276235 2.98787
-0.308641 0.798527 1.88363
-0.215894 1.13097 2.95328
-0.477489 0.483681 3.00805
-1.18067 -1.01658 3.30085
-0.844915 -0.238563 3.12503
0.40279 1.15353 2.85412
-0.798872 0.691624 1.95947
-2.09127 -0.767686 4.60077
1.12413 0.271007 2.81185
0.0827789 0.76343 1.54832
-1.14981 -0.469419 3.13971
-0.533933 0.695571 2.04281
-0.0156403 -1.44279 3.69711
1.081 0.247572 2.88502
-0.254213 -1.22439 3.51018
-0.696448 -0.438013 3.22425
0.427388 1.0592 2.86163
2.43446 0.834369 2.8975
1.05533 -1.31156 3.39094
-1.33036 0.3759 3.00307
1.6776 -0.364875 2.76787
1.47741 0.932538 2.5934
-1.53469 -1.23503 3.33275
2.30202 1.02914 2.98031
0.795934 0.30507 2.92525
1.09224 -0.980545 3.31219
0.964192 0.587674 2.90827
-0.161909 -0.142196 3.05738
0.155758 -0.941766 3.33504
-0.504147 0.575415 3.03854
-0.854623 -0.110674 3.07355
0.590201 1.28742 2.86255
-0.918793 0.775648 2.79802
0.237449 0.668392 3.12976
0.872124 -0.0880489 2.93481
-0.483368 0.806728 2.42395
-1.21793 -0.872987 3.3448
0.63932 1.3616 2.85592
1.32434 -0.281799 2.81665
0.501956 1.15725 2.88256
0.26061 -1.23447 3.57688
0.730863 0.470866 2.92106
0.810998 -0.263685 2.98824
-0.314733 0.784313 1.94953
-0.326349 0.440364 2.98357
-1.46691 -1.05409 3.19644
0.379531 -1.08076 3.4131
1.25915 0.505156 2.81467
1.77548 0.334223 2.80639
1.79247 -0.213067 2.7645
-0.568366 0.853002 1.88067
0.139544 1.41607 2.66845
-1.42098 -0.965616 3.21573
-0.913704 0.512405 2.96231
-0.497142 -0.179217 3.05503
-0.413423 0.899507 2.65593
-0.676912 -0.101997 2.15947
-1.27258 -1.25058 3.31785
-0.96134 0.0383446 3.09987
-0.830858 -0.43347 3.18805
-0.789813 -1.25765 3.46655
0.69696 0.309961 2.90552
0.242817 1.38547 2.7954
-0.400807 0.731203 1.99746
0.136251 1.10532 2.90021
1.82717 -0.362106 2.84799
2.51539 -0.942174 3.15643
0.700759 0.384495 2.90716
1.54376 0.943774 2.47698
-1.06224 -0.358512 3.23832
1.14851 0.342978 2.86773
1.66514 -1.12756 3.11728
0.463197 -0.589469 3.16933
0.892106 0.919395 2.88275
2.18929 0.345361 2.62241
-0.181056 -1.46342 3.37539
-0.409576 0.223019 3.03639
0.444848 -0.544659 3.1583
0.224857 0.896974 2.97671
-0.0960856 0.461409 1.42334
1.33457 -1.50851 3.57809
0.58795 0.174153 2.86552
-0.515998 -1.46085 3.65783
0.317744 0.286618 2.91221
2.15312 0.265378 2.64451
1.54442 0.905618 2.60096
-0.501865 -0.496817 3.12409
-0.804516 -1.32339 3.43592
0.944555 0.258971 2.89225
0.360764 -0.461935 3.08531
0.427507 1.00159 2.97064
2.30874 0.544626 2.68843
1.04426 -1.31381 3.50369
-0.492857 0.395764 2.97898
1.37154 -0.362905 2.86014
-0.483812 0.751168 1.93168
-0.329123 -1.23863 3.49743
-0.929901 0.362805 2.94105
0.710378 1.05566 2.84419
0.185027 -0.352632 3.05754
0.116839 1.44739 2.67305
-0.710766 0.726115 1.81526
-0.955603 0.0294125 3.09134
1.40324 -1.11002 3.18371
-0.546402 -0.316876 3.09492
-0.598898 -0.980745 3.46081
-0.426271 0.440687 2.9753
0.0155773 0.974227 2.95411
0.830782 -0.52775 3.08736
-1.30299 0.281076 3.02212
-0.85835 -1.44419 3.52778
1.89904 0.417632 2.64712
-0.79945 -0.485229 3.07896
0.123225 0.974247 3.03146
2.67567 -2.00378 3.66098
-1.2536 -1.33489 3.37454
-1.20164 0.232711 2.97583
-0.721078 -0.481284 3.23313
1.73268 0.292616 2.76057
-1.22386 -1.29099 3.36285
-0.617105 0.695417 1.95001
1.96305 0.0662576 3.01738
-0.578082 -1.29314 3.43615
-1.03526 0.305048 3.00146
-0.27901 0.749125 2.11718
1.94639 0.493153 2.6396
0.970051 -0.411535 3.0153
1.24262 -1.657 3.56793
1.31504 0.132627 2.79916
-0.13456 -0.676797 3.26
-0.690388 -1.55283 3.25848
0.593396 0.859309 2.94133
0.7948 0.102135 2.91171
-0.929195 -1.50556 3.40404
1.07889 -0.604196 3.03933
0.360722 0.834544 3.00481
2.02935 0.473667 2.61956
-0.634492 1.13515 2.85884
1.50396 0.79567 2.58911
-0.62269 0.17859 3.00059
-0.316993 1.41548 2.94107
-1.39685 -0.591242 3.20202
-2.30699 -2.44226 5.48962
0.610775 -0.0330739 2.93201
-0.343447 0.768345 3.18483
-1.03924 0.111264 3.04406
-1.34986 -0.809769 3.19532
-0.732671 0.00688445 3.04798
2.14383 1.00579 3.04584
-1.00256 0.681248 2.9059
0.522915 -0.793616 3.23445
0.376203 0.0773569 2.92916
0.240816 -0.756159 3.277
0.704494 0.782206 2.93509
0.0454329 1.32001 2.85232
1.2174 0.0217334 2.7984
0.870363 0.744076 2.90989
0.841688 -0.690554 3.15575
-0.233683 1.00447 2.74478
-0.322428 0.740512 2.98659
0.0995126 -0.803513 3.27922
0.358428 0.0279357 2.95924
-0.279432 0.568599 1.83388
0.410347 0.72677 3.03806
-1.11805 -1.03136 3.33893
1.04172 -0.734553 3.0963
1.69917 -0.00976962 3.11512
-0.0541982 -0.712012 3.27105
1.02866 0.0875999 2.84166
0.164681 0.826878 3.02135
1.37875 0.194669 2.01439
1.55541 0.694801 2.61812
-0.844097 -1.59814 3.44969
1.86353 -0.281083 2.72825
0.895736 0.0589711 2.90479
-0.99668 -0.685964 3.31314
1.48407 0.570594 2.65993
0.713454 -0.929917 3.27987
0.627896 -0.116138 2.97646
0.567112 -1.7741 3.73541
-0.940773 -0.886402 3.36133
1.40376 0.543731 2.69683
-0.599459 -0.0799052 3.05766
1.76975 -1.05583 2.99638
1.20424 1.24161 2.72863
0.099715 0.678782 3.00042
1.28962 -0.0465886 2.80913
-0.97316 -1.35311 3.41087
0.572996 -0.858586 3.32834
-0.0354187 -0.258401 3.05811
-0.56364 0.777648 1.84839
0.686782 -1.13961 3.42368
-0.819362 0.521573 3.05848
0.584137 -1.75406 3.65718
-0.667724 -0.240924 3.10063
0.309312 1.17237 2.92157
0.654026 0.460225 2.90818
1.24907 -1.0294 3.2078
-0.914603 0.624577 3.23344
-0.184519 -0.195395 3.0483
1.27913 1.20423 2.69268
-0.855185 -1.0302 3.42976
-0.0142969 -0.0959905 0.798338
0.461146 -1.00585 3.42086
0.929779 0.524333 2.88444
1.45802 -0.147903 2.78326
0.000739425 1.23032 2.72951
-0.178555 1.14972 2.96055
-1.16069 -1.1756 3.26927
-1.00723 0.395383 2.91775
-1.3304 -0.39815 3.1872
0.0582653 1.11068 2.92215
0.430832 -1.27018 3.5359
-1.38763 0.370538 3.00213
-1.1045 -0.216036 3.12058
-0.54373 0.734232 1.95064
0.302164 -0.363504 3.07788
0.908605 1.08648 2.76073
0.0716967 0.615939 1.32756
0.907051 0.425332 2.92189
-1.35598 -0.326762 3.16853
0.0337631 1.13528 2.41431
-0.0412679 -1.19382 3.46966
1.35273 -0.219008 2.81685
-0.483744 0.824693 1.89043
1.15655 -1.07213 3.32867
-0.330177 0.538871 3.03988
-0.0221383 -0.193636 3.05588
0.744456 1.16909 2.80887
1.14993 1.24295 2.72779
0.820998 -1.00862 3.25733
1.26751 0.468629 2.82659
0.652031 -0.151922 2.97912
0.343601 1.40698 2.84389
1.75892 -0.898849 3.02171
-0.0440549 0.660722 3.21301
-0.444075 -0.107719 3.02888
0.495962 1.30244 2.87295
0.576412 -1.52749 3.61525
-1.4067 -0.903221 3.23041
1.4818 0.514138 2.69785
-1.50475 -1.18762 3.29819
-0.80847 0.438791 3.01068
-0.0740264 -0.0340229 1.01377
1.06092 -0.344584 2.92968
-0.472112 0.747648 1.89724
0.00527604 -1.18748 3.43368
1.61159 0.34948 2.6795
0.656721 1.09545 2.897
0.203632 -0.321675 3.06083
0.0664792 1.39647 2.49519
0.41272 -1.18429 3.55642
1.05325 -0.260001 2.89007
-0.504444 0.463172 2.9588
0.10044 1.31632 2.64882
0.136378 1.14397 2.87506
0.384186 1.02168 2.97925
0.264885 -0.503075 3.12153
1.34184 0.260047 2.79713
1.01332 -1.42138 3.47004
-1.12169 -0.616011 3.31003
0.0149559 0.610138 1.52841
1.30903 -0.44356 2.88656
1.01669 0.934474 2.78302
1.07468 -1.38508 3.48538
0.123065 0.252337 2.90934
-1.18319 -0.438917 3.20612
0.872414 0.339797 2.91986
0.53845 -1.37676 3.58307
0.0121198 1.06908 2.90913
2.09501 0.451336 2.63018
-0.996521 -1.26538 3.48144
0.710839 1.00899 2.85006
2.18178 -0.115634 3.19217
1.61812 -0.360264 2.76562
-1.37809 0.325444 2.95922
1.72243 0.163525 2.74575
-1.27042 -1.42184 3.16121
1.4715 0.786262 2.60278
0.0795178 -0.638994 3.19719
-0.486912 -1.49098 3.47915
-1.17535 0.145745 2.95695
1.69046 -0.537504 2.79602
2.14875 0.202355 2.88415
0.155363 0.860576 2.98775
1.24692 -1.59177 3.74915
0.702676 -1.46406 3.57432
-0.0874745 0.94635 3.0204
-0.0229178 -0.555766 3.16294
1.73175 0.202174 2.74677
2.10397 0.336225 2.64591
1.48187 0.429878 2.70595
0.328704 1.34637 2.89267
1.00889 -0.309049 2.93195
-0.638768 0.757717 1.86741
1.53147 -1.14881 3.26064
0.226535 -1.15203 3.50288
-0.20215 0.785191 1.96111
0.920486 -0.262962 2.98444
1.75028 0.452581 2.69752
-1.03093 0.454822 3.04756
-0.256894 -1.05919 3.35604
-0.883192 0.563884 3.08191
1.3887 -0.218098 2.82993
0.0974073 1.36034 2.62329
-0.567785 0.835244 1.87882
-0.539754 0.502655 2.98757
-0.0837154 -0.0325549 1.02671
-0.489941 -1.08907 3.56818
1.07695 1.13435 2.69648
1.75502 -0.203956 2.81015
-0.354539 -1.31898 3.49879
0.253519 1.06037 2.97132
1.434 -0.393967 2.84549
0.070856 0.610833 1.40337
-0.20051 0.321139 2.98213
0.196786 1.48422 2.64501
1.23266 1.05099 2.7373
0.045357 -0.379998 3.09982
1.46984 0.389211 2.92692
0.255201 -1.31258 3.54515
1.40732 0.979301 2.62125
1.25303 -0.342061 2.85706
0.057259 0.933164 1.87593
-0.986813 0.36266 2.96189
-0.866822 -1.1946 3.40977
-0.9402 -0.577934 3.15033
2.07576 0.4231 2.63677
-0.0874964 0.214727 2.95452
-1.00141 -1.42265 3.30924
1.26824 0.876243 2.74393
-0.311128 0.913734 3.04885
1.0125 -1.58471 3.746
2.44059 1.08278 2.91808
1.72884 0.160501 2.75131
0.347752 -0.541135 3.13718
-0.601513 -1.63086 3.42236
-0.14795 0.29075 2.95944
0.929959 -1.5714 3.82245
2.43923 1.10903 2.8632
1.04368 -0.471505 2.93416
-0.0726912 1.02293 2.9937
2.32817 0.619669 2.75649
0.537114 -1.48322 3.74249
-0.314681 0.26318 2.98216
-0.204761 -0.468644 3.15708
-0.728359 0.676287 1.98476
-0.0126084 0.785889 2.97402
-0.681888 0.0702089 3.02516
-0.989544 -0.576736 3.2997
-0.684456 -0.742316 3.38818
-0.112716 1.35311 2.90413
-0.822781 0.668905 2.25702
0.45872 -0.658835 3.14829
-0.55175 0.135168 2.97731
0.392977 -1.64138 3.5614
-0.902403 -0.665632 3.4081
1.33062 0.75806 2.69664
-0.508302 -1.55867 3.50559
0.479308 0.0991479 2.89679
1.21262 0.915524 2.74734
-1.34141 -0.561384 3.2301
2.18857 0.964096 3.04347
1.92863 -0.482452 2.79336
-1.75037 -1.50448 3.52941
1.47889 0.248568 2.85884
0.488408 -0.516748 3.14536
-0.413754 0.684936 2.10552
0.0875241 0.695948 1.45821
-2.22352 -1.91726 4.62604
-1.12509 0.233411 3.05333
-0.836245 0.320761 2.96648
-0.998941 -1.37561 3.46272
0.372072 1.06526 2.97115
2.32476 0.964036 2.93273
1.59071 -0.440715 2.87598
-0.755642 -1.31873 3.50478
-1.32937 0.309546 3.01652
-0.707714 0.69414 1.97161
-0.021922 -0.436798 3.16559
2.1022 0.356075 2.62912
0.876392 -1.69812 3.68166
1.25477 -0.635535 2.99225
0.78478 -1.68825 3.65108
-1.37872 0.118659 3.08407
-0.566742 0.821726 2.95681
2.21513 0.273475 2.63975
1.28314 1.02835 2.7134
1.30764 -0.57968 2.86158
-0.665245 0.643281 2.07408
1.18228 -1.7197 3.78445
-0.196832 0.188411 2.98168
0.507462 -0.600302 3.21233
1.07152 0.82287 2.81419
1.67469 0.125546 2.77921
-0.0800245 -1.56893 3.63691
-0.0600468 0.705242 2.96632
1.16494 -0.0389289 2.82521
0.0867054 1.28038 2.76926
-0.552831 0.00413642 3.03659
1.40621 -0.757642 2.93272
-0.915681 0.674446 2.93904
2.26489 0.937399 3.2062
0.885615 -0.77832 3.15786
1.44133 0.0567412 2.8824
-0.54747 -0.769532 3.30272
-0.31915 0.79372 3.02751
0.798307 -1.54407 3.73291
-0.935249 0.041765 3.06704
-1.10954 0.229129 3.0297
-1.00851 0.775297 2.99947
0.0509687 -0.715107 3.24009
-0.0963117 -0.971019 3.36932
0.314537 -1.72296 3.62573
-0.183044 -0.148497 3.03593
0.0701305 1.2372 2.78096
0.962664 0.552562 2.89331
0.260909 1.31708 2.90413
1.82176 0.885538 2.54455
-1.16353 -0.109106 3.12657
-0.502235 0.6448 3.0549
1.49481 -0.81967 2.84708
-0.271114 -0.0769219 3.041
1.64933 -0.801578 2.90487
1.21164 0.559687 2.80283
-1.25618 -0.910625 3.26698
-1.30577 -0.114594 3.10074
1.78901 0.515796 2.65449
0.207977 0.583327 2.93131
-0.650363 0.703271 2.20442
0.596882 -0.0742958 2.94632
0.513887 1.27933 2.87941
-0.602215 0.682256 3.06319
0.269768 -0.90379 3.31811
-1.26544 -0.0421404 3.08051
1.0431 -0.849498 3.27957
0.603368 0.628257 2.98532
-1.28927 -0.287711 3.19929
-0.745702 0.752392 1.79274
-0.720501 -1.11883 3.42454
-0.284166 0.4949 2.97449
0.516925 -1.77441 3.62502
-0.200348 -0.233766 3.08242
0.434207 1.15805 2.89363
-3.40985 1.10839 7.05097
0.598517 -1.09288 3.38913
-0.774323 -1.05643 3.48412
0.997736 0.545973 2.90273
0.668201 -0.19786 2.9617
-0.854701 0.227351 3.03533
-0.32226 0.800773 2.09879
0.0643892 0.532398 2.96192
1.14903 -0.981999 3.29465
0.520912 1.37104 2.87751
-0.30506 0.898205 1.93697
-0.749022 -0.156029 3.06832
0.860818 -1.36895 3.6787
-0.985182 -0.392723 3.15349
-0.272806 -1.1278 3.49254
-0.0604751 0.355207 2.96506
0.0471884 1.35724 2.64194
-0.762932 0.706307 1.89747
1.7514 -0.3481 2.74412
1.61288 1.00729 2.53237
2.50311 0.700273 2.7952
1.55482 0.366956 2.51135
-1.06231 -1.09054 3.10158
-0.671716 0.733013 1.92055
0.412892 -0.319989 3.07987
-0.252463 0.377203 2.93122
0.496468 -1.28415 3.69198
0.154259 -0.556972 3.15221
2.33749 -0.153366 3.0279
-0.229654 0.249332 2.97368
-0.736645 -1.45796 3.52486
1.67921 0.853867 2.54614
1.3752 0.84321 2.64732
-0.92822 -1.39539 3.48539
0.287952 1.38229 2.89922
-0.0404271 0.218511 2.93869
0.885818 -0.506564 3.04331
-0.685478 -1.35064 3.46463
-0.794763 0.32562 3.00606
1.13775 -0.435068 2.88953
0.681935 1.01566 2.86219
2.28079 0.630687 2.7609
-0.136847 -1.35713 3.56559
0.0977674 0.274593 2.89622
2.38332 0.898159 2.93454
-0.735022 -0.437894 3.13908
0.619471 0.997346 2.89093
-1.3923 -1.14101 3.16723
0.0672649 0.421861 2.9196
1.16337 -0.352127 2.87942
-0.784899 0.730852 1.8483
0.594333 -1.23443 3.52597
0.275317 0.368518 2.89071
-1.06981 -0.130854 2.95957
-0.827717 0.716452 1.85854
1.08525 -0.313738 2.8801
0.194835 1.17628 2.93856
0.0795434 1.31176 2.44144
1.35194 0.434672 2.80249
-0.460498 -0.295813 3.07769
-0.996196 -0.0125981 3.10599
-0.652718 -1.11454 3.39485
0.389338 -1.42985 3.5534
1.33613 -0.473272 2.84861
-0.491105 0.701573 2.02319
1.22454 0.27842 2.8554
0.539246 -1.50934 3.66981
-1.38019 -0.494313 3.24437
0.631546 0.973605 2.91839
0.0596662 0.941967 1.95725
-0.952135 -1.38858 3.56705
0.665819 0.235425 2.91312
-0.608252 0.344299 2.96338
1.39281 -1.31756 3.36627
0.051606 1.06446 2.91063
2.3384 0.24636 2.74557
-0.635268 -0.452029 3.16316
0.633396 0.293308 2.90836
0.438877 -1.30188 3.49218
-0.79603 0.684459 1.88429
0.57351 -0.393121 3.04923
1.08981 -1.67834 3.62561
-0.0694101 -1.58 3.53295
-0.520999 0.16912 2.97865
-1.44068 -0.614741 3.04716
0.781518 0.869735 2.86599
0.86414 0.122538 2.90038
-0.80886 -1.44977 3.35503
0.374582 -1.74562 3.63813
-0.546107 -0.575663 3.10637
0.35103 0.861221 2.9769
2.00754 -0.788501 3.27172
0.654424 -1.61909 3.62801
-0.45206 0.678813 2.10565
1.31344 0.199711 2.7999
1.81575 0.319777 2.82233
1.26902 -0.529383 2.92952
0.78132 -1.71833 4.0414
1.3256 0.683586 2.72388
2.23621 -0.188978 3.58822
-0.272204 0.0285102 3.01185
0.41484 -0.81597 3.31353
-0.246659 0.73472 3.09231
-0.0778109 1.09545 2.95554
0.716341 -0.0114526 2.93366
-0.796976 -0.798116 3.44644
0.913515 0.0994418 2.89321
1.67685 -0.768059 2.55868
1.04307 -0.676763 3.0454
-0.102449 0.833364 3.05564
-0.246509 0.0630747 3.0326
-0.807357 -1.60305 3.44705
1.84586 -0.508438 2.74855
1.64299 0.698164 2.66214
-0.91893 -0.694815 3.31253
-0.196368 0.768722 2.10857
-0.556817 0.320019 3.0194
-0.935795 0.0182341 3.08657
0.473909 -0.425316 3.05863
0.102176 1.24749 2.43893
-1.05064 -1.25213 3.29652
0.981261 -0.37851 2.995
-0.346634 0.766223 1.98102
1.33735 -1.22815 3.2688
0.591718 0.37816 2.93601
0.711451 -0.360728 3.0262
1.44445 0.975505 2.63061
1.48663 -1.22321 3.36411
0.515507 0.333813 2.85751
2.50831 0.310539 2.64993
0.78843 -1.71313 3.91551
1.17674 0.20629 2.80937
2.26025 0.151617 2.975
0.170533 -0.595665 3.17742
-0.362012 0.918267 2.7804
-0.177478 -1.50669 3.62968
0.95428 0.159938 2.84946
2.34943 -0.0853217 2.99295
1.58197 -0.488963 2.77236
1.07302 0.852795 2.82367
1.41567 -1.4119 3.38965
1.40339 0.275389 2.79054
2.17494 0.288167 2.6412
0.662616 -0.50906 3.12257
-0.33161 0.726409 2.06491
-1.45773 -1.23005 3.06677
-1.37964 0.282463 3.08954
-0.0141412 1.32403 2.89494
-0.745079 -0.478383 3.1841
0.383191 0.982331 2.97134
0.13112 0.793355 3.04344
-2.48476 -1.26761 5.22427
-0.100307 1.32773 2.89586
0.45347 0.0575684 2.9162
-0.513952 0.767913 3.03684
-0.29405 -0.720427 3.22734
-0.672379 -0.992737 3.56958
-0.158417 0.0313456 3.00067
1.0636 -0.650762 3.04171
-0.499786 0.799854 2.76914
-0.0872168 -1.69275 3.63665
1.72538 0.123881 2.75025
1.83926 -0.316107 2.72225
1.55563 -0.585321 2.86042
-0.501827 0.819167 3.00729
-0.449071 0.0975152 3.00905
0.695348 -1.74145 3.88721
0.714929 -1.58855 3.76076
0.40609 -0.878856 3.26388
-0.998346 0.78664 2.84642
-0.829224 0.704887 3.05935
-0.846033 -0.0693582 3.07739
0.0451918 -0.84169 3.28432
0.559202 0.627294 2.945
-0.562592 -0.0402138 3.06476
1.26507 -1.78981 3.71043
-2.15819 -1.1022 4.39083
-0.283758 0.883733 2.43393
-0.30451 0.952959 2.74774
0.141822 -0.00627509 2.94303
-1.13198 0.724386 2.94486
-3.14285 -3.24878 6.92852
1.07973 0.769743 2.79512
1.46143 -0.62492 2.92594
-1.18674 0.118998 3.13699
-0.101769 -1.69848 3.5255
0.615179 -1.47264 3.57847
2.18235 0.319718 2.63301
1.22872 0.815906 2.71948
-0.179463 -0.643233 3.26208
-0.0614055 0.17846 2.95805
-0.879473 -1.52634 3.42641
1.21038 -0.576042 3.01493
1.41166 0.754577 2.60912
0.195297 -1.53137 3.52254
-0.222527 0.13587 2.99377
-0.216828 1.15673 2.95841
0.303865 -0.0354207 2.95661
-0.223138 -0.00852535 3.0431
0.0125912 1.17021 2.86489
1.43772 -0.767064 2.91097
0.138837 0.723051 3.03173
2.30774 -1.51718 4.22473
1.15834 -0.767644 3.11152
-1.16223 0.670174 2.89067
0.327566 -0.784506 3.3085
1.78332 0.0594246 2.76887
-1.00428 0.79265 2.91933
1.51434 -1.48828 3.44774
1.64143 -0.827721 2.7296
1.61119 0.0261582 2.67378
-1.33561 -0.718932 3.27628
1.71726 0.700536 2.71444
0.240726 1.25791 2.9251
-1.19936 0.534979 2.76319
1.27267 1.14238 2.67673
-1.01839 -0.158023 3.15434
0.288321 -1.00145 3.39549
1.86285 0.998359 2.54569
-0.0546131 -0.11182 3.02991
0.198899 -0.929437 3.29753
-0.711208 0.636835 2.99344
-1.20111 -0.0739962 3.10071
-1.07136 0.590061 2.90579
1.31341 -0.837211 3.04484
-0.917876 0.466833 2.96074
0.351381 1.45115 2.7847
-0.738232 -1.16403 3.41774
1.6031 -0.297401 2.73645
0.82486 1.12162 2.78731
1.47711 0.391414 2.72543
-1.04235 -1.07057 3.32585
-0.292228 -0.280019 3.06569
-0.0924804 0.832476 2.11994
1.22499 -1.84682 3.57277
-0.141712 1.17389 2.84552
-0.0095158 -1.07638 3.39245
-1.09348 0.532945 2.93606
-0.501178 -0.245822 3.07154
-0.458283 0.873202 1.89729
-1.15525 -0.248218 2.96859
0.189774 -1.09838 3.61821
-1.71161 0.622165 3.63977
-1.04449 -0.197159 3.11275
-0.136412 0.84262 2.00492
0.39611 0.479517 2.92378
1.2655 -0.269179 2.86338
1.33709 -1.71298 3.52581
-0.156334 0.839289 1.99258
-1.11054 -1.09282 3.32988
-1.31312 -1.03599 3.25759
0.747734 1.12236 2.80686
1.55722 -0.238361 2.85414
-1.10344 0.460743 2.92463
0.804963 -1.06435 3.41955
-0.954982 0.557577 2.95485
-1.35381 -0.207174 3.08635
-0.607946 0.841751 1.87088
0.356026 -0.0667735 0.179623
1.37078 0.496498 2.80586
0.626443 1.47339 2.86142
1.18478 -0.953654 3.22628
-0.879307 -0.171762 3.10403
0.93744 1.02039 2.78963
0.132179 1.33031 2.88447
1.0492 0.33916 2.87497
-0.0172135 1.07931 2.36594
-1.06383 -0.405686 3.16621
0.62049 -1.30015 3.48428
1.96253 0.508662 2.64209
-1.35572 -0.38201 3.17953
0.305789 1.16735 2.97918
-1.37073 -1.16416 3.25189
1.78118 0.397736 2.79301
-0.267649 0.775308 2.01052
0.511971 -0.324042 3.03742
2.64931 0.641449 2.72403
0.391735 -1.2358 3.52515
1.4887 0.343425 2.74388
-0.00771569 -1.51845 3.64619
-0.786162 0.252575 3.03072
2.14874 -1.09096 3.52541
1.50866 -0.494392 2.73347
-0.694507 0.66973 2.04262
0.7904 -1.71231 4.13595
-0.758479 0.216492 2.95657
1.31578 -1.7209 3.72193
0.765965 -0.51442 3.0723
-0.769362 0.64648 2.0337
-0.323129 0.313309 2.97372
1.40923 -1.67936 3.55657
1.40594 -1.51581 3.73302
2.05724 0.276346 2.7698
0.922575 -0.461214 3.03512
-0.00980341 1.03111 2.92095
0.436161 -1.40471 3.62767
0.836585 0.272961 2.87519
1.8782 0.675516 2.64674
-1.03086 -0.438148 3.17508
1.66535 0.873305 2.5619
1.63741 0.737251 2.67028
1.00822 -1.58921 3.62429
0.0523211 0.105036 2.9814
-1.4031 -0.674426 3.15296
0.4912 0.629224 2.94177
0.570983 0.883466 2.93717
0.144934 -0.644021 3.21304
0.637528 0.15864 2.87101
-1.04761 -1.5518 3.44299
1.26176 -2.01 4.11762
0.98537 -0.582203 3.0448
0.728056 0.830275 2.89873
0.470935 -1.63269 3.75966
-0.738277 0.13246 3.00725
-0.278682 0.971916 2.38086
0.297403 -0.526035 3.11235
-0.0767301 0.481252 1.47176
0.175749 0.269372 2.90712
-0.186052 -1.4502 3.58013
0.881479 0.971455 2.852
-1.34522 -0.497317 3.22934
-0.197627 0.972408 2.97956
2.66214 0.871705 2.8345
0.106227 -1.39396 3.48751
-1.38794 0.255317 3.01369
-0.511988 0.347737 3.01602
-0.328476 -1.34882 3.5488
-1.43299 -0.458204 3.19718
-0.342576 0.746526 2.00972
2.08496 0.49554 2.60383
-0.457155 -1.31141 3.56059
0.337315 0.296441 2.89039
2.00362 -0.458496 2.78128
-0.500346 -0.417719 3.25913
1.29181 0.966492 2.73394
-0.280476 -1.63233 3.63736
1.43981 -0.584568 2.84859
-0.886858 -0.323036 3.14978
0.945691 0.132083 2.88134
-0.369438 0.874655 3.06086
1.99803 0.304162 2.77961
-0.692726 0.958431 2.94597
0.633953 -0.59865 3.15601
0.964547 0.900929 2.85252
0.0331465 -1.53156 3.54493
1.6459 0.18692 2.69772
-0.96476 -0.564779 3.15285
-0.798739 0.638245 2.10681
-0.290676 -1.48155 3.55485
-0.305041 0.165013 2.97212
1.18705 0.0117348 2.78044
1.51957 -1.00009 3.29276
1.25302 -0.75963 3.00272
-0.226624 0.76359 3.05801
-1.19387 -0.768047 3.28022
-0.0271801 0.724237 3.05133
-0.276481 1.04846 2.86695
0.16883 -0.0160606 2.94369
-0.759606 0.0977086 3.04667
-0.723058 0.822406 2.95751
0.995181 -1.7408 3.68
-0.446967 -0.741498 3.27451
1.62329 0.601115 2.54735
-1.19012 0.0685395 2.97234
0.499924 -0.690329 3.21325
0.401771 0.78925 2.99345
1.29729 -0.881111 3.05722
0.993963 0.572715 2.92742
-0.546798 -1.61757 3.44876
-0.462809 0.717303 1.93727
1.42167 -0.127785 2.75258
1.90258 0.433565 2.64691
1.17867 -0.0855151 2.75982
0.845002 0.64865 2.90436
0.978898 -0.912409 3.32023
-0.0294304 -0.0527142 3.01395
-0.669666 0.620994 2.99429
0.426542 1.29351 2.87116
1.74223 -0.735056 2.76298
0.264538 0.208907 2.95086
1.03666 -1.56477 3.57331
1.76449 -0.438592 2.74481
0.617068 0.925669 2.93607
-1.39357 -0.632391 3.33365
-1.20995 -1.41337 3.36826
-0.408308 -1.59065 3.42856
1.40721 0.159463 2.83703
-0.135444 -0.557636 3.14589
-0.4542 0.876377 2.90144
-1.08899 -1.32682 3.30135
-0.845584 -0.503112 3.19896
0.896759 -1.78335 3.64982
-0.893618 -0.510732 3.15432
0.00605943 0.239298 2.9383
2.35403 0.116021 2.96043
-0.309023 0.744246 2.19631
1.22497 0.729375 2.76092
1.40461 -0.718816 2.98299
0.802917 0.0520341 2.87627
-0.158944 0.933765 3.02493
-0.722929 -0.743325 3.30476
1.15138 0.722365 2.83074
0.647571 -1.46049 3.56133
-0.819937 0.0217149 3.08837
-1.22277 -0.714807 3.39058
1.745 0.109556 2.74561
-1.2191 0.831896 2.82223
-0.269581 0.827072 3.02515
1.82927 -0.533561 2.79117
-1.18534 -1.561 3.4518
-0.287947 0.106598 2.95684
1.00374 -0.613565 3.02707
1.13331 -2.10464 4.8386
-0.521255 -0.959013 3.54633
-0.0118848 -0.0663934 3.00449
-0.500702 0.686003 3.09075
-0.338316 0.642272 3.09537
1.19558 -0.821105 3.1188
-1.17994 0.0101946 3.09088
1.06949 -0.0432503 2.86222
1.74759 0.986223 2.53273
-1.60794 -0.83297 3.34436
1.287 0.66247 2.7693
-1.04972 -0.00816858 3.05202
1.85681 0.516713 2.63672
-0.368613 -0.242043 3.0551
-0.0155579 1.22639 2.64658
-1.34772 -1.00967 3.16885
0.687843 0.522723 2.94278
0.972587 1.14688 2.76234
0.0312398 -0.205707 3.04554
1.01706 1.20966 2.7414
0.150893 0.481744 2.91332
-1.286 -1.05581 3.40002
-0.592925 0.620282 3.12571
1.1107 -0.153181 2.81747
0.429364 1.477 2.83243
0.979546 -0.969397 3.25757
-0.13983 -0.944311 3.3992
0.306336 1.25345 2.90319
0.906634 -0.123811 2.91801
0.0262713 0.579751 3.03217
2.01001 -1.01233 3.41603
1.85954 -0.552949 2.75882
-0.380302 -0.86552 3.36665
0.461165 -0.0218091 2.96048
-1.04895 -0.0404595 3.1109
-0.749517 0.719222 3.00594
-0.141845 -0.8141 3.31113
1.08998 0.655291 2.89571
-0.767339 0.0703461 3.07958
1.89559 0.142146 2.74216
-1.13768 -0.787706 3.34771
-0.77722 0.799162 3.00818
-0.321707 0.0218393 2.96532
-1.01899 0.783415 2.83075
0.940181 0.726176 2.87314
1.11371 -0.688336 3.0126
-0.58184 -0.206132 3.10803
-0.654658 0.793302 1.86477
-1.82991 -1.1823 3.78325
0.20339 0.548405 2.90451
0.896994 1.19204 2.7699
1.52963 -0.154455 2.81204
-0.595437 0.827256 1.87271
-0.991027 -0.974201 3.35144
0.886436 0.241923 1.36439
-1.0417 0.789633 2.85292
-0.403999 -0.120571 3.01351
1.30867 -1.80135 3.52937
-0.594362 0.626333 3.04745
0.276681 -0.963984 3.38806
-2.66445 -0.26506 5.76574
1.38559 -0.791676 2.87248
-1.21517 0.590349 2.90006
0.141742 0.442611 2.92536
1.48595 -1.15621 3.24604
-0.837582 -0.341472 3.1977
0.431035 1.50832 2.79528
-0.661927 0.745041 1.84559
1.40975 -1.15525 3.3855
-0.0895082 0.420157 2.95665
0.806487 1.09909 2.81839
-1.07366 -0.285375 3.14982
-1.25228 -0.337797 3.18168
-0.531165 -1.15483 3.59672
1.40063 -0.225659 2.74936
1.69393 0.471504 2.85783
-1.01746 -0.271087 2.94854
0.352096 1.19872 2.91255
0.978247 0.985973 2.76374
-1.00019 -0.465031 3.09014
-0.130331 0.309628 2.9731
-0.538357 -1.35948 3.47391
0.831943 0.966897 2.8312
2.37654 0.464663 2.59385
-0.445649 -0.455707 3.25088
0.119932 1.4193 2.54877
1.10827 -1.33411 3.3845
-0.898196 0.290462 3.00438
0.372424 -0.402272 3.1094
0.677271 1.08342 2.8879
-1.145 -1.22162 3.3547
2.32683 0.00912648 2.88917
0.467919 0.363294 2.87137
-0.650034 0.719997 1.92824
0.374637 -0.372446 3.12477
0.11376 -1.27639 3.56553
1.72022 -0.141671 2.8366
1.54384 0.297026 2.68285
0.161595 1.06305 2.94975
0.977215 -0.439754 3.006
-1.14966 0.352317 2.99076
0.700933 -1.40344 3.60051
-0.479905 0.715394 1.98404
0.00962844 1.13174 2.31639
1.4974 -0.378072 2.78611
0.50779 -1.36422 3.61822
-0.408701 0.307249 2.9527
1.86655 0.525263 2.64414
0.654767 -0.36432 2.95947
-0.361401 0.764057 1.94932
-0.0447284 0.538021 1.37143
0.0966742 -1.28844 3.56499
-1.2358 0.430225 2.99415
1.57473 0.983655 2.55912
-0.254743 -0.333352 3.12161
1.36437 -1.19039 3.33634
2.63194 0.690525 2.76086
0.192599 0.36181 2.92653
1.06628 0.22764 2.879
-1.04141 -1.38258 3.27542
-0.0149509 0.560813 1.28744
-0.377589 0.708805 2.11913
1.50587 -0.530481 2.87804
0.618501 -1.53101 3.71455
0.63978 0.198128 2.8834
-0.573027 -0.538576 3.22741
-0.588185 0.654605 2.05026
1.23692 -1.48311 3.65358
2.03829 0.361445 2.66134
1.56919 -0.443798 2.75986
0.995832 0.261915 2.89572
2.22849 0.471431 2.60251
-0.250898 0.906655 2.58451
1.28627 -0.674163 2.90214
1.38354 0.742753 2.70747
0.555261 -1.46754 3.58649
1.71207 0.0889262 2.76223
-1.1771 0.737237 2.73776
1.3569 -0.650813 2.98236
-0.666929 0.79171 2.97624
1.64416 0.0455809 2.81841
0.741933 -0.641707 3.12664
1.0531 0.154609 2.82331
1.43724 -1.66761 3.62669
-0.829811 0.632459 2.08632
0.67266 0.845914 2.95969
1.34247 -0.568537 2.89354
2.39607 -0.943235 3.83863
-0.578352 0.123124 3.0087
1.20365 -1.68684 3.83244
-0.277238 1.08585 2.45641
0.872589 -0.846779 3.22886
-1.16591 -0.0155882 3.0874
0.517012 -1.466 3.57328
-0.0641013 -0.0554205 3.01059
1.33365 0.644541 2.71049
-0.190031 -0.798981 3.28933
1.45649 0.609336 2.73359
0.74098 -1.88569 3.97005
0.998751 -0.782554 3.23632
1.9038 0.375675 2.67774
1.58694 -1.48239 3.39921
1.6205 0.0153441 2.76584
0.0511512 0.754595 3.04582
-0.760495 0.626127 2.15697
-0.21021 -1.68183 3.60839
-1.3247 0.139514 3.08831
-0.486514 1.38187 2.96069
1.6395 -0.601355 2.85107
2.21883 0.250019 2.76597
0.212754 -1.68555 3.698
-0.478482 0.679734 2.12436
-0.209691 -0.626319 3.18859
-1.05933 0.217397 3.02874
1.1434 -1.49493 3.36526
0.931316 -0.556648 3.01267
-1.1393 0.745894 2.45969
-1.16404 -1.40434 3.32469
-0.716971 0.168752 2.96847
1.86463 0.995941 2.54951
1.08645 -0.782781 3.10719
-0.863332 -1.264 4.49538
0.911671 0.0182519 2.89594
1.48155 -0.0307155 2.79699
1.25819 0.697886 2.77861
-0.591651 -0.764642 3.21496
-0.251984 1.08073 2.45388
1.14029 0.683601 2.85095
0.0263282 0.0935884 2.96389
1.56406 -1.37805 3.20024
0.799856 -0.722312 3.17062
1.10433 0.757438 2.799
0.961845 0.0535615 2.89388
-0.525982 0.78032 2.26796
0.493298 0.762914 2.92042
1.65172 -0.628234 2.82821
-0.378471 0.593776 3.05248
1.82676 1.03905 2.55017
1.35346 -0.122462 2.70231
-0.0471997 1.07 2.40805
1.36819 -0.896845 3.08934
1.87603 0.079411 2.72603
-0.318818 0.670863 3.0727
-0.519435 -0.0936062 3.07034
1.39931 -0.838303 3.01091
1.7372 -0.0567762 2.77601
-0.0774243 -0.873663 3.33266
1.45256 0.563405 2.674
1.02479 -1.12318 3.30894
0.566983 0.473393 2.91805
0.502006 1.24766 2.87523
1.24133 -0.9523 3.16117
0.73996 -0.278183 3.03103
0.993358 1.13192 2.74144
1.45731 0.421168 2.80022
-1.14221 -1.03321 3.30316
-0.710119 -0.243927 3.05188
0.715087 1.14211 2.85598
-1.10546 -0.088628 3.12752
-0.58753 -1.10777 3.61083
1.30799 0.513971 2.7926
-0.779047 -0.208989 3.05671
-0.159179 1.14961 2.95499
-0.144589 -0.999795 3.36154
-0.769785 0.526621 3.04543
-1.43871 -0.171181 3.088
-0.443713 0.899866 1.87767
-0.120488 0.777196 2.98517
-0.360981 0.843172 1.92765
1.30118 -0.718485 2.97535
1.09209 0.0511332 2.80798
-0.576376 0.757641 3.05237
-1.35773 -0.725996 3.21653
0.528748 -1.46663 3.57328
-0.0321452 0.022777 2.96676
-1.41057 0.136623 3.05333
1.94812 0.712646 2.569
-0.725137 -0.691783 3.28109
-0.66917 0.857397 2.89341
-1.1116 0.112698 3.12218
-0.443625 -1.60905 3.56746
0.270646 -0.0857754 0.144047
0.648964 -0.64631 3.18878
1.49258 0.724081 2.62578
1.10705 -0.84654 3.08631
-0.179647 0.657175 2.95565
1.86017 0.109024 2.72709
0.967273 -0.0756598 2.90443
-1.28941 -0.824192 3.18784
0.777604 0.606757 2.93078
-1.47618 -1.58449 3.36436
1.47113 -0.0503391 2.84094
1.5268 0.377351 2.27681
1.79454 0.957757 2.52724
-0.861552 0.713455 2.97693
-1.00502 -0.00448218 3.07337
1.18204 -0.766642 3.07211
-1.09396 -0.249879 3.14157
-0.548552 0.819918 1.88862
0.78725 -1.08348 3.34924
1.67622 0.448065 2.59266
0.978058 -0.198687 2.92573
-0.716879 0.781934 1.86342
-0.125541 0.684598 1.64051
-0.544403 -1.06297 3.43899
-0.380809 0.48982 2.9736
-0.488524 -0.995533 3.36422
0.0981085 0.596054 2.99827
-1.46778 -0.167418 3.0931
-0.17142 1.16707 2.95566
-0.983951 -0.917942 3.30818
0.509812 0.527227 2.87736
-0.65867 -0.135643 3.04492
-0.653145 0.857668 1.86069
0.53151 1.57436 2.82444
1.37654 -1.22208 3.32156
0.265694 1.3941 2.73614
0.335148 -0.368599 3.0887
1.28127 0.358479 2.84005
-0.158556 -0.0673481 1.14545
-0.540035 0.74827 1.9445
0.0583075 -0.324051 3.05639
-0.315016 0.790245 1.968
0.282231 1.52508 2.78358
-0.547193 0.4543 2.98566
-1.52238 -1.14864 3.26503
0.994898 1.11339 2.83413
0.132183 -0.283463 3.04925
1.81274 0.388803 2.78038
0.540336 -1.18483 3.52641
-0.239716 -0.208826 3.0805
-0.262611 0.869326 1.95665
0.451853 -1.0672 3.42849
0.376093 1.32867 2.89738
-0.858306 0.594701 3.16789
-0.283234 0.921988 1.9355
1.755 0.725498 2.58713
-0.413745 -0.170345 3.08016
0.278466 0.511759 2.92783
0.212542 -1.04727 3.54212
-0.1926 0.640067 3.08842
-0.536161 -0.141256 3.07481
-0.0890828 0.649778 3.01293
-1.3227 -0.922027 3.26124
-0.465834 -0.967786 3.52304
-0.0582938 -0.0885483 3.00682
-0.115219 0.594249 2.998
0.724327 -1.22661 3.47701
1.73151 0.420771 2.696
0.963814 -0.315965 2.90572
1.48352 1.02877 2.52998
0.483431 0.401674 2.88918
1.36157 -1.1422 3.34048
-0.156459 1.16808 2.94926
1.12801 -0.275233 2.84094
0.0963738 1.10986 2.89958
1.1848 1.11599 2.6909
2.48459 0.371275 2.60301
1.53308 0.420432 2.71535
0.987394 -0.242528 2.9315
-0.133762 -0.107644 1.03978
0.207514 -1.11409 3.45566
0.887445 -0.480237 3.05821
-0.0551089 1.04871 2.98001
1.53299 0.277926 2.72204
-1.07499 -1.30943 3.3488
2.50959 0.0302607 2.93438
0.246624 1.52808 2.72692
-0.942996 -0.467144 3.26631
-0.0484141 1.00786 2.95038
-1.44797 -1.19888 3.08482
1.72103 0.252223 2.6809
-1.12941 -0.421153 3.25361
0.0851329 0.361146 2.91272
1.51525 -1.31195 3.42845
0.277377 1.11865 2.97792
-0.00549808 0.530909 1.21694
1.60944 -1.18348 3.21064
-1.48035 -0.385226 3.21888
-0.758138 0.70642 1.89606
0.0289735 0.582558 1.46442
0.18879 0.334098 2.91636
0.577593 -1.5673 3.60415
-1.2695 0.222942 3.02592
-1.4303 -0.605547 3.1667
1.56948 0.811522 2.58887
0.506051 -1.57745 3.75221
-1.1059 0.171329 2.92567
2.43949 0.653367 2.78886
1.50651 -0.557421 3.0565
1.39512 0.802719 2.69712
-0.49019 1.44518 2.95956
0.975236 0.930835 2.84619
0.598148 0.229693 2.88832
0.0634902 -0.526977 3.16872
2.15119 -0.707972 3.22991
-1.35806 -1.32646 3.25689
0.629637 0.22899 2.90851
-1.18207 -1.36405 3.22739
0.188192 0.956443 2.99262
0.678827 -0.573595 3.11788
-0.413194 -1.46965 3.59166
-0.820957 0.205711 2.96948
-1.27442 -0.541749 3.25634
-0.260629 0.932866 3.03767
0.022995 0.710353 1.80127
0.11532 0.990846 2.95758
2.49773 0.818581 2.88013
-1.03163 -1.62978 3.45937
0.439296 0.260969 2.8661
-1.06118 -0.485758 3.09076
2.26514 0.0285458 2.97285
0.320312 -1.47469 3.64964
-1.12888 0.77059 2.76615
-1.08073 -0.765955 3.33729
-0.219153 0.0911933 3.02433
0.056574 1.31679 2.88024
-0.0319045 -0.698233 3.24378
-0.412033 1.31602 2.95314
-0.0361761 0.765875 2.98624
-0.717455 0.0604953 3.03811
0.379965 -0.64453 3.15299
-0.0968401 0.169358 3.0041
-0.33942 -1.59384 3.52051
-0.179747 0.879269 3.02794
0.0906472 0.702615 3.34847
-0.743605 0.861899 2.93904
-1.03317 -1.46144 3.30643
1.40412 0.107468 2.86556
1.43866 -0.571133 2.94509
-0.298409 0.858929 1.9311
-0.838886 -0.995208 3.80012
-0.958014 0.699852 2.944
-0.139016 -0.0580412 3.01167
1.51094 -0.681115 2.66972
-0.97405 0.728643 3.25019
0.31759 -0.0168725 2.96926
-0.212204 1.01318 2.76517
1.80171 0.351572 2.67105
0.699813 0.731114 2.95025
-1.20406 0.0249272 3.09143
1.51559 0.406715 2.27159
1.4515 -0.714797 2.93969
0.436481 -0.204709 2.99281
-0.129502 0.942663 2.14989
0.345507 1.26444 2.91029
-0.432644 -1.09129 3.50256
-0.987684 0.55402 2.96334
1.32792 -0.162725 2.80292
-0.633037 0.807645 1.86557
1.69799 1.11181 2.56109
-1.10889 -0.967978 3.26557
-0.344184 0.51054 2.9906
-0.592558 -0.983396 3.43431
-1.12846 0.606026 2.8669
-1.03534 -0.132677 3.16647
1.31086 -2.17828 3.54671
1.7134 -0.794403 2.8063
1.55357 0.523038 2.69567
-0.520814 -0.812487 3.31821
-0.729867 -0.0896366 3.03064
0.685644 -0.800647 3.18458
1.04862 0.0153093 2.87905
2.53201 0.0278945 3.79676
0.931314 -0.0210606 2.88856
-0.307316 0.755772 3.09433
0.229438 -0.780658 3.27969
1.02711 0.685822 2.88825
1.85746 -1.40646 3.26873
-1.38592 -0.723442 3.14278
-0.869566 0.766737 2.65009
-0.341514 0.0426841 2.96256
1.33527 0.701778 2.71779
-1.38726 -0.173111 3.08305
1.35953 -0.934693 3.06477
-0.388217 0.574917 2.99497
1.8881 0.587286 2.61874
1.54297 -0.13254 2.756
-0.547124 0.855084 1.88399
1.87341 0.365587 2.64953
-1.43748 -0.910697 3.17817
0.602446 0.538695 2.92327
0.870423 -0.100128 2.95697
1.37033 -1.64997 3.50878
1.38225 0.594994 2.70923
-0.0955946 -0.911797 3.33707
0.774375 1.26165 2.82493
0.645041 -0.0599783 2.93484
-1.40452 -0.824811 3.13209
1.725 0.564921 2.71431
1.15907 -1.15742 3.37999
1.66128 -0.0367895 2.79862
1.74932 0.449847 2.74466
0.0860941 -0.291032 3.05295
-0.451032 0.775919 1.86275
-0.694449 0.458668 3.08063
0.110066 -1.15444 3.54758
0.000273956 0.844452 2.09144
0.477275 -0.257432 2.97837
0.606596 -1.61008 3.58302
1.58408 -0.994706 3.13532
1.65661 -0.201027 2.73515
0.613322 0.503907 2.92099
-0.475553 -1.0306 3.44501
-0.691954 0.71162 1.91368
1.32885 -0.408239 2.75774
0.958285 1.00595 2.78155
1.29448 -1.36266 3.43833
1.3936 0.315756 2.79825
-0.0477358 0.943565 2.15424
-0.240204 -0.417352 3.16077
0.521269 1.01852 2.91557
-0.246052 -0.223231 1.32496
0.33624 -1.31768 3.4878
0.256589 0.294951 2.91253
1.53885 0.362702 2.64719
1.27769 -0.35839 2.86863
0.70326 -1.28224 3.49876
1.18196 1.05166 2.71138
-0.0243912 0.504992 1.3187
-0.613632 -1.19125 3.45441
1.8066 -0.335136 2.83113
1.33809 1.0087 2.6743
2.26994 0.30012 2.51302
1.22324 0.356714 2.85844
0.783394 -0.895019 3.21504
1.55263 -0.0944026 2.85216
1.93199 0.000323432 2.73698
0.0902625 0.652477 3.12701
1.03013 -1.74711 3.68478
1.254 -0.0624417 2.78525
1.65201 1.14291 2.56437
0.369284 0.709819 3.02849
-0.46707 -0.879851 3.35484
0.784537 -0.0256009 2.91171
-1.2318 0.657128 2.88305
0.238821 -0.829741 3.3061
1.31224 0.493798 2.85522
1.24457 -0.238275 2.78511
-0.262005 0.878341 1.97248
-1.22837 -1.05677 3.3061
-1.27342 -1.01478 3.30419
-0.383125 0.779096 2.02934
0.829115 1.15566 2.79552
1.54654 -0.210603 2.88301
-0.454319 0.488818 2.9986
-0.654019 -1.02155 3.41531
-0.898634 0.596521 2.99914
0.0721659 -0.16365 3.02027
1.73446 -2.24716 3.32942
0.278893 0.543526 2.93323
0.327545 -1.80825 3.58715
-0.281632 -0.955484 3.34295
-0.607955 0.872411 1.88271
0.513693 -0.132701 2.9434
0.892519 1.05202 2.78057
-0.63556 0.371083 3.00849
-0.0765696 1.11475 2.79935
-1.00594 -0.371999 3.14344
-1.15787 -1.21301 3.34447
-0.965067 0.0902719 3.08787
1.60754 -0.309982 2.84923
-0.474812 0.756778 1.87749
1.1316 -1.21003 3.42234
0.596787 0.442439 2.90945
-0.76635 0.7273 1.85147
-0.48961 -0.296316 3.08709
0.801163 0.403716 2.92393
1.0108 -1.19349 3.50681
-0.887458 0.161725 3.05646
1.46644 -0.475818 2.81568
-0.0470314 0.623768 1.34467
-0.573642 0.278554 2.98648
-0.443523 -1.43816 3.52562
1.07253 0.940604 2.76264
1.35071 0.878429 2.69711
0.956473 -1.53253 3.77554
-0.308114 0.241393 2.99951
-0.0315225 0.573543 1.30044
1.25821 -0.471409 2.94604
-1.41191 -1.22748 3.1667
-1.09426 0.348625 2.94983
0.4061 -0.443039 3.08843
-0.695664 0.720306 1.93799
2.30059 0.0386766 2.9643
-0.173589 -1.32678 3.58473
0.99715 0.285763 2.919
-0.00829934 0.543384 1.289
1.05743 -0.390537 2.92393
0.176415 1.01925 2.91373
0.740792 -1.16397 3.27481
0.983946 0.443146 2.89742
-0.895096 0.181569 3.05485
0.0394406 -0.335504 3.07492
-0.519154 0.41818 2.99298
0.377954 -1.19497 3.53437
0.323376 1.53414 2.81703
1.0068 1.07677 2.77158
-0.994195 -0.292343 3.13421
0.211213 1.19587 2.89059
-0.067436 -0.139358 0.845426
-0.842414 0.499781 3.0222
-1.3126 -0.258394 3.14438
1.55116 1.02826 2.54164
-0.956675 -1.02368 3.1619
2.59366 0.936353 2.86923
-0.230273 -0.49066 3.1798
1.34358 0.944466 2.68907
0.597344 0.291958 2.8886
-0.869439 -1.40572 3.53442
-1.30651 -0.452151 3.15984
-0.0404019 1.00821 2.282
1.46774 0.878399 2.57004
0.396494 -1.37987 3.55252
0.8634 0.259413 2.87267
1.66153 0.334752 2.67061
0.894641 -1.32294 3.48625
-0.185149 0.790448 2.06965
-0.0174167 0.533292 1.24476
0.246486 -0.402848 3.09637
-1.07447 0.352164 3.02482
1.25908 -1.23806 3.35553
1.10584 0.999068 2.74514
1.59408 -0.353987 2.83767
0.651741 -0.456962 0.857854
-0.967213 -1.48667 3.41114
-1.33858 -0.644854 3.37301
2.25626 0.220983 2.75998
0.40412 0.160324 2.91308
-0.3943 0.891468 3.0211
-0.478522 -1.60469 3.41447
2.2468 0.509373 2.64531
-0.50522 1.40404 2.96384
-1.44955 -0.579636 3.18469
-0.852529 0.668017 2.01882
0.815244 -1.52541 3.57057
-0.827997 0.235476 2.99207
-1.00049 -0.544175 3.21812
1.66574 0.805869 2.55097
0.805453 -1.56733 3.78798
1.23317 0.186088 2.80494
-0.0270289 0.0463093 2.94856
-0.229832 1.06848 2.45275
0.986366 0.757093 2.89157
1.67042 -0.707836 2.86983
0.986677 -0.730668 3.15288
0.0300998 0.745549 3.0423
