ply
format ascii 1.0
element vertex 1837
property float x
property float y
property float z
end_header
0.429716 1.00173 2.97088
2.32077 0.538305 2.68365
1.0389 -1.31271 3.51
-0.499403 0.397351 2.97973
1.37249 -0.371512 2.84634
-0.483812 0.751168 1.93168
-0.340882 -1.23915 3.49684
-0.929901 0.362805 2.94105
0.714374 1.06247 2.84478
0.172458 -0.354518 3.06643
-0.710766 0.726115 1.81526
-0.955603 0.0294125 3.09134
1.40829 -1.11372 3.18624
-0.559819 -0.312931 3.10159
-0.435671 0.439418 2.97837
0.0159332 0.99142 2.96512
0.822685 -0.534091 3.08143
-1.30299 0.281076 3.02212
-0.85835 -1.44419 3.52778
1.9172 0.423672 2.63349
-0.808822 -0.482259 3.08291
0.116975 0.977618 3.03597
2.67567 -2.00378 3.66098
-1.2536 -1.33489 3.37454
-1.20164 0.232711 2.97583
-0.726582 -0.475055 3.25074
1.74915 0.297245 2.74434
-1.22386 -1.29099 3.36285
-0.617105 0.695417 1.95001
1.97425 0.0605402 3.00422
-0.578082 -1.29314 3.43615
-1.03526 0.305048 3.00146
-0.27901 0.749125 2.11718
1.9692 0.495321 2.6253
0.963856 -0.419563 3.00755
1.24262 -1.657 3.56793
1.31847 0.129087 2.78909
-0.149455 -0.675875 3.27061
-0.690388 -1.55283 3.25848
0.597309 0.863086 2.9323
0.796331 0.0999706 2.9147
-0.929195 -1.50556 3.40404
1.07202 -0.610989 3.03378
0.36417 0.838772 3.00162
2.05066 0.478822 2.60739
-0.634492 1.13515 2.85884
1.51715 0.800402 2.57989
-0.631911 0.178538 2.99865
-0.316993 1.41548 2.94107
-1.39685 -0.591242 3.20202
-2.30699 -2.44226 5.48962
0.607205 -0.0370923 2.93658
-0.355457 0.769046 3.17923
-1.03915 0.11226 3.04586
-1.34986 -0.809769 3.19532
-0.738215 0.00320524 3.04272
2.14991 1.00926 3.03929
-1.00256 0.681248 2.9059
0.518754 -0.794353 3.24532
0.366425 0.0713683 2.92735
0.231652 -0.756669 3.28417
0.708066 0.786581 2.92657
0.0454329 1.32001 2.85232
1.22191 0.0200159 2.78923
0.874701 0.747318 2.89521
0.833168 -0.695995 3.15554
-0.233683 1.00447 2.74478
-0.318361 0.74978 2.98552
0.0898694 -0.802315 3.29171
0.349543 0.0220446 2.95974
-0.279432 0.568599 1.83388
0.412997 0.729573 3.03367
-1.11805 -1.03136 3.33893
1.03707 -0.737221 3.09516
1.70033 -0.0168364 3.10232
-0.0690528 -0.714159 3.278
1.03354 0.0896515 2.84748
0.163446 0.835346 3.02062
1.37875 0.194669 2.01439
1.57267 0.698442 2.59627
-0.844097 -1.59814 3.44969
1.8783 -0.283329 2.71034
0.895734 0.0582956 2.9002
-1.00445 -0.676558 3.30644
1.49745 0.574795 2.65261
0.705215 -0.930489 3.28972
0.621199 -0.117562 2.98173
0.560291 -1.77122 3.74264
-0.940773 -0.886402 3.36133
1.42097 0.544956 2.68472
-0.614543 -0.07956 3.07782
1.78258 -1.06049 3.00016
1.20424 1.24161 2.72863
0.0991071 0.679796 3.00035
1.29283 -0.0516911 2.80424
-0.97316 -1.35311 3.41087
0.559683 -0.862935 3.33803
-0.0469606 -0.264826 3.05681
-0.56364 0.777648 1.84839
0.677044 -1.13905 3.43478
-0.819362 0.521573 3.05848
-0.679307 -0.23812 3.11189
0.313982 1.17848 2.92401
0.653673 0.456839 2.90929
1.25544 -1.03474 3.20808
-0.914603 0.624577 3.23344
-0.193312 -0.198424 3.05714
1.27913 1.20423 2.69268
-0.855185 -1.0302 3.42976
0.449176 -1.00536 3.43125
0.938237 0.520375 2.87887
1.46437 -0.154289 2.77115
0.000739425 1.23032 2.72951
-1.16069 -1.1756 3.26927
-1.00723 0.395383 2.91775
-1.3304 -0.39815 3.1872
0.0640994 1.11981 2.93235
0.430028 -1.26863 3.55272
-1.38763 0.370538 3.00213
-0.54373 0.734232 1.95064
0.292378 -0.364848 3.08344
0.917873 1.09306 2.75711
0.0656918 0.615942 1.32469
0.905614 0.426849 2.91919
-1.35598 -0.326762 3.16853
-0.0372851 -1.19456 3.4862
1.35334 -0.227385 2.80729
-0.483744 0.824693 1.89043
1.14926 -1.07482 3.32926
-0.334306 0.536839 3.04386
-0.0350454 -0.200629 3.06087
0.750921 1.17412 2.81162
1.14993 1.24295 2.72779
0.819058 -1.00815 3.26326
1.27493 0.475496 2.8174
0.646595 -0.157966 2.9805
1.75892 -0.898849 3.02171
-0.0440549 0.660722 3.21301
-0.450338 -0.113407 3.046
0.499572 1.30958 2.87698
-1.4067 -0.903221 3.23041
1.49955 0.51223 2.67873
-1.50475 -1.18762 3.29819
-0.80847 0.438791 3.01068
1.05536 -0.352065 2.92412
-0.472112 0.747648 1.89724
0.00562301 -1.18484 3.45157
1.62506 0.349553 2.66615
0.656432 1.10278 2.89438
0.190529 -0.32432 3.07433
0.403927 -1.18148 3.57168
1.05 -0.269279 2.88379
-0.50609 0.464346 2.9636
0.137443 1.15852 2.88784
0.382976 1.0273 2.97442
0.253505 -0.507139 3.12658
1.35266 0.263047 2.7854
1.01862 -1.42581 3.47515
-1.12276 -0.618686 3.31132
0.0113806 0.611307 1.52636
1.30601 -0.449469 2.87721
1.02331 0.939494 2.77553
1.07275 -1.38545 3.49089
0.111366 0.248316 2.91799
-1.18319 -0.438917 3.20612
0.873051 0.342647 2.90734
0.540871 -1.37668 3.59731
0.00921248 1.0773 2.92021
2.11039 0.449269 2.61886
-0.996521 -1.26538 3.48144
0.717129 1.01903 2.84808
2.19069 -0.117574 3.17555
1.62903 -0.365936 2.75056
-1.37809 0.325444 2.95922
1.72243 0.163525 2.74575
-1.27042 -1.42184 3.16121
1.48785 0.79613 2.59225
0.0713382 -0.638304 3.2097
-0.486912 -1.49098 3.47915
-1.17535 0.145745 2.95695
1.70397 -0.540555 2.78386
2.16397 0.193316 2.86551
0.156022 0.867499 2.98742
1.24851 -1.58902 3.75653
0.69071 -1.46414 3.58616
-0.0916317 0.957698 3.02892
-0.0361443 -0.555451 3.17409
1.73175 0.202174 2.74677
2.12056 0.33326 2.63383
1.49158 0.428148 2.68877
1.00432 -0.313242 2.92796
-0.638768 0.757717 1.86741
1.53879 -1.15111 3.26405
0.224329 -1.15345 3.51436
-0.20215 0.785191 1.96111
0.913834 -0.272278 2.97192
-1.03093 0.454822 3.04756
-0.262874 -1.05524 3.36461
-0.883192 0.563884 3.08191
1.38919 -0.226598 2.82019
-0.567785 0.835244 1.87882
-0.542229 0.506789 2.98859
-0.489941 -1.08907 3.56818
1.08566 1.14116 2.69335
1.76636 -0.198078 2.79218
-0.354374 -1.31959 3.50175
0.255343 1.07028 2.97353
1.43655 -0.401726 2.83389
0.0634469 0.610932 1.40047
-0.21135 0.317412 2.98687
1.24531 1.05403 2.72097
0.034026 -0.385531 3.103
1.48228 0.385405 2.91042
0.245431 -1.30694 3.56207
1.41406 0.986364 2.61734
1.25122 -0.347368 2.84984
0.046686 0.919104 1.89044
-0.986813 0.36266 2.96189
-0.866822 -1.1946 3.40977
-0.9402 -0.577934 3.15033
2.09116 0.422938 2.62335
-0.0989979 0.213976 2.97036
-1.00141 -1.42265 3.30924
1.27998 0.882957 2.73418
-0.317099 0.919042 3.04803
1.0125 -1.58471 3.746
2.44059 1.08278 2.91808
1.74629 0.159521 2.72776
0.337749 -0.544876 3.13983
-0.601513 -1.63086 3.42236
-0.159582 0.285519 2.96954
0.922118 -1.5627 3.82754
2.43923 1.10903 2.8632
1.03979 -0.481374 2.92618
-0.0769131 1.03519 3.0031
2.33776 0.61668 2.75124
0.535015 -1.47924 3.75839
-0.32519 0.259547 2.98618
-0.213738 -0.469259 3.17075
-0.728359 0.676287 1.98476
-0.0117101 0.790465 2.97569
-0.684312 0.0679376 3.0232
-0.984229 -0.575873 3.30169
-0.682454 -0.73569 3.39221
-0.112716 1.35311 2.90413
-0.822781 0.668905 2.25702
0.451442 -0.660188 3.15196
-0.559805 0.136741 2.98071
0.37258 -1.63648 3.58424
-0.911054 -0.66027 3.4085
1.33916 0.759503 2.68889
-0.508302 -1.55867 3.50559
0.474865 0.0957427 2.90813
1.2292 0.919666 2.73252
-1.34141 -0.561384 3.2301
2.19475 0.967944 3.03949
1.95264 -0.47803 2.78499
-1.75037 -1.50448 3.52941
1.49013 0.244106 2.83968
0.480517 -0.515989 3.15133
-0.413754 0.684936 2.10552
0.0771833 0.697321 1.46375
-2.22352 -1.91726 4.62604
-1.12509 0.233411 3.05333
-0.836245 0.320761 2.96648
-0.998941 -1.37561 3.46272
0.372966 1.07109 2.96882
2.32476 0.964036 2.93273
1.59412 -0.448014 2.86237
-0.755642 -1.31873 3.50478
-1.32937 0.309546 3.01652
-0.707714 0.69414 1.97161
-0.0348428 -0.439835 3.16897
2.11913 0.357052 2.6225
0.87305 -1.69653 3.68545
1.2527 -0.643022 2.98789
0.774829 -1.68134 3.65223
-1.37872 0.118659 3.08407
-0.566742 0.821726 2.95681
2.23272 0.269777 2.62908
1.29559 1.03297 2.71025
1.31313 -0.583911 2.85197
-0.665245 0.643281 2.07408
1.18228 -1.7197 3.78445
-0.207492 0.179934 2.98576
0.495357 -0.601974 3.21646
1.08237 0.828073 2.80923
1.69015 0.124841 2.75841
-0.0800245 -1.56893 3.63691
-0.0595515 0.711558 2.96544
1.16579 -0.0441206 2.82454
0.0867054 1.28038 2.76926
-0.554744 -0.00135827 3.04877
1.40795 -0.764768 2.92609
-0.915681 0.674446 2.93904
2.27127 0.936409 3.20397
0.882699 -0.782207 3.15932
1.44757 0.052439 2.86606
-0.551429 -0.767611 3.30826
-0.321192 0.799706 3.02359
0.79471 -1.53869 3.73771
-0.935249 0.041765 3.06704
-1.10954 0.229129 3.0297
-1.00851 0.775297 2.99947
0.0392412 -0.714687 3.25325
-0.100981 -0.969723 3.38395
0.314537 -1.72296 3.62573
-0.191186 -0.154942 3.04076
0.0701305 1.2372 2.78096
0.968301 0.551386 2.8861
0.260477 1.32328 2.90956
1.82341 0.885644 2.54425
-1.16353 -0.109106 3.12657
-0.507801 0.648281 3.05573
1.50274 -0.821453 2.83614
-0.282223 -0.0788779 3.05088
1.6586 -0.805109 2.8963
1.22216 0.559797 2.78913
-1.25618 -0.910625 3.26698
-1.30577 -0.114594 3.10074
1.80917 0.515367 2.63448
0.206052 0.584633 2.93017
-0.650363 0.703271 2.20442
0.589434 -0.079265 2.94383
0.515084 1.28401 2.88101
-0.604636 0.68366 3.06136
0.264254 -0.900962 3.33178
-1.26544 -0.0421404 3.08051
1.03502 -0.856637 3.28034
0.611998 0.62824 2.98223
-1.28927 -0.287711 3.19929
-0.745702 0.752392 1.79274
-0.720501 -1.11883 3.42454
-0.28891 0.493714 2.97888
-0.211357 -0.236972 3.08826
0.437023 1.16551 2.89031
-3.40985 1.10839 7.05097
0.589422 -1.08986 3.39928
-0.774323 -1.05643 3.48412
1.00468 0.545165 2.89453
0.665108 -0.201026 2.96288
-0.32226 0.800773 2.09879
0.0606598 0.52867 2.96405
1.14479 -0.986234 3.29582
-0.30506 0.898205 1.93697
-0.758134 -0.15549 3.08194
0.857564 -1.36893 3.68784
-0.985182 -0.392723 3.15349
-0.0751016 0.348789 2.97438
-0.762932 0.706307 1.89747
1.76694 -0.349982 2.72739
1.61288 1.00729 2.53237
2.50828 0.699179 2.79136
1.55482 0.366956 2.51135
-1.06231 -1.09054 3.10158
-0.671716 0.733013 1.92055
0.409835 -0.325332 3.08382
-0.262269 0.375789 2.93439
0.489379 -1.28391 3.70525
0.143165 -0.55722 3.16457
2.35234 -0.154743 3.01408
-0.238286 0.248214 2.98863
-0.736645 -1.45796 3.52486
1.68637 0.858939 2.5412
1.38784 0.848024 2.63416
-0.92822 -1.39539 3.48539
0.285202 1.3884 2.90626
-0.0532862 0.21271 2.94974
0.879377 -0.510138 3.04312
-0.685478 -1.35064 3.46463
-0.794763 0.32562 3.00606
1.13342 -0.445612 2.88169
0.688964 1.02266 2.86371
2.28948 0.630582 2.75597
-0.138628 -1.35552 3.58292
0.0864446 0.273117 2.90677
2.38378 0.896285 2.9332
-0.745495 -0.430421 3.15743
0.626399 0.999428 2.88756
-1.3923 -1.14101 3.16723
0.0582074 0.416373 2.92827
1.15998 -0.358987 2.87645
-0.784899 0.730852 1.8483
0.5819 -1.22939 3.53754
0.268804 0.368172 2.89727
-0.827717 0.716452 1.85854
1.08481 -0.319684 2.87729
0.20029 1.18171 2.94592
1.3631 0.434575 2.78898
-0.474171 -0.290998 3.09282
-0.652718 -1.11454 3.39485
0.387684 -1.42915 3.57177
1.33703 -0.480384 2.83778
-0.491105 0.701573 2.02319
1.23074 0.271795 2.84629
0.518445 -1.50105 3.68874
-1.38019 -0.494313 3.24437
0.635002 0.973547 2.91298
0.0564678 0.932753 1.96815
-0.952135 -1.38858 3.56705
0.662037 0.236087 2.91759
-0.613744 0.345247 2.961
1.3977 -1.32063 3.36678
0.0477439 1.07323 2.92207
2.34989 0.235457 2.73726
-0.649227 -0.44379 3.17616
0.63051 0.295924 2.90791
0.425232 -1.29429 3.50878
-0.79603 0.684459 1.88429
0.564556 -0.39656 3.05061
1.08703 -1.67248 3.64077
-0.0694101 -1.58 3.53295
-0.528835 0.169306 2.98182
-1.44068 -0.614741 3.04716
0.784559 0.871278 2.85985
0.8665 0.123381 2.8954
-0.80886 -1.44977 3.35503
0.374582 -1.74562 3.63813
-0.550339 -0.57543 3.11273
0.357358 0.864118 2.97728
2.01958 -0.795539 3.26385
0.660687 -1.61508 3.62667
-0.45206 0.678813 2.10565
1.32248 0.195343 2.78539
1.83419 0.321798 2.80083
1.26799 -0.535526 2.92284
0.78132 -1.71833 4.0414
1.342 0.690382 2.71744
2.24239 -0.199568 3.57638
-0.27967 0.0255109 3.02038
0.402947 -0.813853 3.32292
-0.246327 0.737202 3.09479
-0.0841175 1.09902 2.95663
0.711872 -0.0156633 2.93281
-0.794224 -0.800709 3.44909
0.914828 0.0931062 2.88833
1.67685 -0.768059 2.55868
1.03737 -0.683413 3.03936
-0.107844 0.839595 3.05814
-0.257173 0.059024 3.03849
-0.807357 -1.60305 3.44705
1.86721 -0.503733 2.73843
1.65832 0.70667 2.64362
-0.918519 -0.690562 3.31601
-0.196368 0.768722 2.10857
-0.567268 0.319252 3.0197
-0.935795 0.0182341 3.08657
0.466038 -0.428874 3.05974
-1.05064 -1.25213 3.29652
0.973847 -0.387928 2.98523
-0.346634 0.766223 1.98102
1.34089 -1.2298 3.26951
0.5946 0.377204 2.93945
0.703856 -0.363694 3.02729
1.45023 0.982506 2.62756
1.49234 -1.22817 3.36107
0.513224 0.333656 2.86732
2.51981 0.302454 2.64406
0.78843 -1.71313 3.91551
1.1843 0.201359 2.80064
2.27616 0.139448 2.959
0.159892 -0.596192 3.18799
-0.362012 0.918267 2.7804
-0.177478 -1.50669 3.62968
0.963452 0.158297 2.85358
2.37405 -0.0928288 2.976
1.59003 -0.497862 2.75828
1.08055 0.858756 2.81505
1.41567 -1.4119 3.38965
1.42007 0.268777 2.77045
2.1916 0.286055 2.6287
0.654914 -0.513575 3.12144
-0.33161 0.726409 2.06491
-1.45773 -1.23005 3.06677
-1.37964 0.282463 3.08954
-0.0120727 1.32111 2.90103
-0.752126 -0.474717 3.19653
0.383113 0.987667 2.9693
0.136927 0.801192 3.04041
-2.48476 -1.26761 5.22427
-0.100307 1.32773 2.89586
0.446564 0.0561939 2.92692
-0.519247 0.768721 3.03363
-0.304687 -0.714404 3.24781
-0.677152 -0.984667 3.57578
-0.169995 0.0273501 3.00347
1.06076 -0.656614 3.03776
-0.499786 0.799854 2.76914
-0.0872168 -1.69275 3.63665
1.73999 0.123011 2.73098
1.85561 -0.322684 2.70964
1.56414 -0.58995 2.85084
-0.509051 0.825242 3.00677
-0.461822 0.0985977 3.017
0.695348 -1.74145 3.88721
0.715219 -1.58137 3.76506
0.402934 -0.88109 3.27421
-0.998346 0.78664 2.84642
-0.829224 0.704887 3.05935
-0.851471 -0.0712204 3.08593
0.0381684 -0.842211 3.29379
0.560602 0.630573 2.95312
-0.572534 -0.0421167 3.07799
1.2655 -1.79021 3.71901
-2.15819 -1.1022 4.39083
-0.283758 0.883733 2.43393
-0.30451 0.952959 2.74774
0.131139 -0.0112639 2.95446
-1.13198 0.724386 2.94486
-3.14285 -3.24878 6.92852
1.09169 0.775256 2.78964
1.46199 -0.633821 2.91422
-1.18674 0.118998 3.13699
-0.101769 -1.69848 3.5255
0.60888 -1.47103 3.59329
2.1981 0.313344 2.62039
1.24351 0.822873 2.71333
-0.189955 -0.644793 3.27393
-0.072686 0.172033 2.9679
-0.879473 -1.52634 3.42641
1.20462 -0.583796 3.01486
1.42969 0.760359 2.59746
0.18387 -1.52304 3.53508
-0.230317 0.133612 3.00257
-0.218716 1.1575 2.9594
0.292967 -0.0445093 2.9564
-0.230807 -0.0137776 3.05367
0.0146667 1.1787 2.88191
1.43968 -0.768965 2.90441
0.138914 0.725014 3.02954
2.31365 -1.52562 4.2166
1.15454 -0.773899 3.10577
-1.16223 0.670174 2.89067
0.318419 -0.783715 3.31815
1.78332 0.0594246 2.76887
-1.00428 0.79265 2.91933
1.52871 -1.49197 3.44622
1.64143 -0.827721 2.7296
1.61119 0.0261582 2.67378
-1.33561 -0.718932 3.27628
1.71726 0.700536 2.71444
0.24151 1.26362 2.9275
-1.19936 0.534979 2.76319
1.27434 1.14389 2.67429
-1.02012 -0.158169 3.15297
0.29161 -0.998361 3.40834
1.86285 0.998359 2.54569
-0.0706629 -0.11729 3.03564
0.192185 -0.928042 3.31772
-0.711208 0.636835 2.99344
-1.20111 -0.0739962 3.10071
-1.07136 0.590061 2.90579
1.31667 -0.841708 3.03984
-0.917876 0.466833 2.96074
-0.738232 -1.16403 3.41774
1.6031 -0.297401 2.73645
0.831357 1.12692 2.78432
1.49338 0.390362 2.71194
-1.04235 -1.07057 3.32585
-0.300801 -0.281001 3.07495
-0.0924804 0.832476 2.11994
-0.0169569 -1.07213 3.40743
-1.09348 0.532945 2.93606
-0.512929 -0.242998 3.08756
-0.458283 0.873202 1.89729
0.184752 -1.10224 3.63003
-1.71161 0.622165 3.63977
-1.04449 -0.197159 3.11275
-0.136412 0.84262 2.00492
0.392546 0.475918 2.9277
1.26335 -0.279019 2.85308
-0.156334 0.839289 1.99258
-1.11054 -1.09282 3.32988
-1.31312 -1.03599 3.25759
0.751398 1.1288 2.8045
1.56326 -0.245804 2.83995
-1.10344 0.460743 2.92463
0.801273 -1.06691 3.42552
-0.954982 0.557577 2.95485
-1.35381 -0.207174 3.08635
-0.607946 0.841751 1.87088
1.38242 0.497204 2.79138
1.18203 -0.96268 3.22199
-0.884146 -0.165803 3.11712
0.945328 1.0257 2.78605
0.132179 1.33031 2.88447
1.05908 0.336837 2.87813
-1.06383 -0.405686 3.16621
0.620405 -1.29944 3.49148
-1.35572 -0.38201 3.17953
0.307069 1.17423 2.9802
-1.37073 -1.16416 3.25189
1.79634 0.403504 2.77991
-0.267649 0.775308 2.01052
0.502567 -0.328676 3.03509
2.65032 0.638401 2.72461
0.39074 -1.23247 3.5431
1.50275 0.344725 2.72787
-0.00771569 -1.51845 3.64619
-0.788655 0.249187 3.03474
2.15152 -1.1026 3.52362
1.51752 -0.5012 2.72266
-0.694507 0.66973 2.04262
0.7904 -1.71231 4.13595
-0.753995 0.212782 2.96056
1.31647 -1.72078 3.72405
0.760729 -0.517502 3.07126
-0.769362 0.64648 2.0337
-0.332152 0.308433 2.97611
1.40923 -1.67936 3.55657
1.41235 -1.5182 3.74226
2.07425 0.268947 2.75329
0.916032 -0.469425 3.02089
-0.00460155 1.04193 2.93768
0.436021 -1.40018 3.63995
0.83888 0.271379 2.88065
1.88116 0.677995 2.64411
-1.03086 -0.438148 3.17508
1.67212 0.87863 2.5562
1.65099 0.743157 2.65987
1.0117 -1.58763 3.62796
0.0405854 0.0948237 2.99778
-1.4031 -0.674426 3.15296
0.498103 0.631545 2.94367
0.576473 0.886246 2.93822
0.133579 -0.645641 3.22028
0.633908 0.157212 2.8824
-1.04761 -1.5518 3.44299
1.25627 -2.00668 4.12232
0.983992 -0.588048 3.04025
0.735079 0.835455 2.89028
0.46624 -1.63382 3.77816
-0.738256 0.132287 3.00689
-0.278682 0.971916 2.38086
0.285687 -0.526254 3.12244
-0.0767301 0.481252 1.47176
0.165022 0.267973 2.91765
-0.186052 -1.4502 3.58013
0.884764 0.972617 2.84261
-1.34522 -0.497317 3.22934
-0.197775 0.977402 2.97985
2.66214 0.871705 2.8345
0.0997676 -1.38273 3.50365
-1.38794 0.255317 3.01369
-0.523559 0.3464 3.01678
-0.328476 -1.34882 3.5488
-1.43299 -0.458204 3.19718
-0.342576 0.746526 2.00972
2.09976 0.48856 2.59813
-0.457155 -1.31141 3.56059
0.329501 0.293407 2.90812
2.01908 -0.454168 2.7775
-0.517909 -0.417332 3.2693
1.30353 0.977107 2.72454
-0.280476 -1.63233 3.63736
1.44343 -0.589663 2.83751
-0.891913 -0.320539 3.16305
0.94829 0.123892 2.87898
-0.372395 0.881527 3.06051
2.01814 0.2994 2.7616
-0.692726 0.958431 2.94597
0.626962 -0.601973 3.15584
0.972714 0.903686 2.84361
0.0331465 -1.53156 3.54493
1.65747 0.189656 2.68222
-0.96476 -0.564779 3.15285
-0.798739 0.638245 2.10681
-0.290676 -1.48155 3.55485
-0.310258 0.164443 2.97866
1.19121 0.00896445 2.77258
1.5302 -1.01041 3.28707
1.25584 -0.762783 3.00224
-0.232126 0.766075 3.05903
-1.19387 -0.768047 3.28022
-0.0235523 0.724216 3.04889
-0.276481 1.04846 2.86695
0.157481 -0.0208716 2.95329
-0.761226 0.10309 3.04682
-0.723058 0.822406 2.95751
0.995355 -1.73143 3.6893
-0.464329 -0.735865 3.2944
1.62329 0.601115 2.54735
-1.19012 0.0685395 2.97234
0.493377 -0.691662 3.216
0.403813 0.791949 2.99128
1.29739 -0.885179 3.05321
0.999161 0.574957 2.91566
-0.546798 -1.61757 3.44876
-0.462809 0.717303 1.93727
1.42952 -0.131939 2.74
1.92295 0.439442 2.63841
1.18267 -0.0860391 2.75527
0.852022 0.650575 2.89745
0.970661 -0.916614 3.32193
-0.0392447 -0.0555424 3.02128
-0.669666 0.620994 2.99429
0.431468 1.29598 2.88023
1.74223 -0.735056 2.76298
0.253629 0.202921 2.95457
1.04249 -1.56157 3.57543
1.77546 -0.439319 2.73708
0.617858 0.930191 2.93754
-1.39357 -0.632391 3.33365
-1.20995 -1.41337 3.36826
-0.408308 -1.59065 3.42856
1.41453 0.155903 2.82212
-0.144493 -0.555843 3.15476
-0.457512 0.878242 2.9003
-1.08899 -1.32682 3.30135
-0.845584 -0.503112 3.19896
0.896759 -1.78335 3.64982
-0.898188 -0.506924 3.15816
-0.00793971 0.23839 2.94496
2.36824 0.103828 2.94584
-0.309023 0.744246 2.19631
1.23339 0.735867 2.75225
1.40548 -0.725834 2.97357
0.803146 0.052937 2.87926
-0.161238 0.941854 3.02836
-0.723353 -0.730855 3.31334
1.15666 0.718968 2.81744
0.647571 -1.46049 3.56133
-0.825836 0.0275391 3.08723
-1.22277 -0.714807 3.39058
1.7616 0.113147 2.72263
-1.2191 0.831896 2.82223
-0.27149 0.832032 3.02726
1.82927 -0.533561 2.79117
-1.18534 -1.561 3.4518
-0.299926 0.0996921 2.96367
0.99907 -0.618699 3.02206
1.12715 -2.10662 4.84086
-0.540061 -0.947352 3.54684
-0.0246975 -0.0750913 3.01189
-0.501755 0.689783 3.09434
-0.336025 0.643762 3.0897
1.19479 -0.823497 3.1151
-1.17994 0.0101946 3.09088
1.07115 -0.0505265 2.85835
1.74759 0.986223 2.53273
-1.60794 -0.83297 3.34436
1.29663 0.662262 2.75566
-1.04972 -0.00816858 3.05202
1.87418 0.52113 2.62597
-0.380559 -0.24451 3.06469
-0.0155579 1.22639 2.64658
-1.34772 -1.00967 3.16885
0.693958 0.517959 2.93704
0.979132 1.15098 2.75879
0.0130842 -0.208329 3.04951
1.02789 1.21607 2.74222
0.14746 0.480979 2.91494
-1.286 -1.05581 3.40002
-0.592925 0.620282 3.12571
1.11315 -0.15884 2.81328
0.97575 -0.972309 3.2589
-0.139874 -0.941747 3.41249
0.307679 1.25839 2.91048
0.903168 -0.126614 2.9186
0.0227209 0.574104 3.03561
1.87706 -0.553282 2.7478
-0.38338 -0.857205 3.37211
0.452683 -0.0244748 2.96518
-1.04965 -0.0402972 3.11146
-0.749517 0.719222 3.00594
-0.149544 -0.810242 3.32796
1.09525 0.651 2.87943
-0.768674 0.0678106 3.07486
1.89559 0.142146 2.74216
-1.13768 -0.787706 3.34771
-0.77722 0.799162 3.00818
-0.334845 0.0211318 2.97745
-1.01899 0.783415 2.83075
0.947893 0.726723 2.86296
1.11264 -0.69334 3.00902
-0.595337 -0.207861 3.11943
-0.654658 0.793302 1.86477
-1.82991 -1.1823 3.78325
0.198198 0.545896 2.90876
0.904352 1.19668 2.77051
1.53569 -0.161711 2.7991
-0.595437 0.827256 1.87271
-0.991027 -0.974201 3.35144
0.886436 0.241923 1.36439
-1.0417 0.789633 2.85292
-0.412995 -0.12255 3.02459
-0.584 0.631369 3.05259
0.27229 -0.961837 3.40205
-2.66445 -0.26506 5.76574
1.39213 -0.796623 2.86284
-1.21517 0.590349 2.90006
0.137061 0.444533 2.92432
1.49524 -1.15819 3.24551
-0.837582 -0.341472 3.1977
-0.661927 0.745041 1.84559
1.40934 -1.15793 3.38628
-0.0971425 0.419482 2.96704
0.810304 1.10364 2.81277
-1.07366 -0.285375 3.14982
-0.557991 -1.13583 3.60339
1.40457 -0.231295 2.73991
1.69393 0.471504 2.85783
0.352995 1.20575 2.90865
0.987163 0.992064 2.76106
-0.998786 -0.462707 3.09405
-0.143274 0.307271 2.97911
-0.538357 -1.35948 3.47391
0.835195 0.971207 2.82459
2.38759 0.461637 2.5892
-0.460778 -0.451734 3.26183
1.12204 -1.33207 3.39795
-0.898196 0.290462 3.00438
0.362969 -0.404461 3.11499
0.676498 1.09037 2.88417
-1.145 -1.22162 3.3547
2.34145 -0.00594554 2.87491
0.467296 0.365708 2.87534
-0.650034 0.719997 1.92824
0.366182 -0.37423 3.12896
0.112178 -1.27529 3.5696
1.73012 -0.145775 2.81922
1.56221 0.303741 2.66675
0.164402 1.07326 2.95389
0.970848 -0.444019 2.99861
-1.14966 0.352317 2.99076
0.696337 -1.40298 3.61242
-0.479905 0.715394 1.98404
1.50237 -0.382742 2.77382
0.502186 -1.35693 3.63242
-0.418844 0.303563 2.95919
0.648167 -0.365263 2.95949
-0.361401 0.764057 1.94932
-0.0447284 0.538021 1.37143
0.099445 -1.28644 3.58042
-1.2358 0.430225 2.99415
1.57473 0.983655 2.55912
-0.266814 -0.335156 3.13013
1.36561 -1.19316 3.33739
2.63287 0.690248 2.7608
0.1844 0.360168 2.91712
1.07269 0.226704 2.87643
-1.04141 -1.38258 3.27542
-0.0149509 0.560813 1.28744
-0.377589 0.708805 2.11913
1.51155 -0.537431 2.86863
0.615238 -1.53471 3.71416
0.639291 0.193921 2.89093
-0.582017 -0.534361 3.22874
-0.588185 0.654605 2.05026
1.23952 -1.48213 3.66091
2.05959 0.349259 2.63662
1.57445 -0.447697 2.74758
1.0021 0.263013 2.89197
2.24046 0.470261 2.59747
-0.250898 0.906655 2.58451
1.28913 -0.67766 2.8966
1.39381 0.746881 2.69788
0.551996 -1.46126 3.59618
1.71207 0.0889262 2.76223
-1.1771 0.737237 2.73776
1.35556 -0.657118 2.97617
-0.666929 0.79171 2.97624
1.65584 0.0435294 2.79961
0.736212 -0.644143 3.12614
1.06098 0.151625 2.82359
1.43724 -1.66761 3.62669
-0.829811 0.632459 2.08632
0.674782 0.849491 2.95209
1.34676 -0.572109 2.88505
2.40038 -0.960927 3.83636
-0.586904 0.12349 3.01217
1.20622 -1.6836 3.83239
-0.277238 1.08585 2.45641
0.869705 -0.852815 3.22739
-1.16591 -0.0155882 3.0874
0.511529 -1.4594 3.58397
-0.0761108 -0.0574087 3.02078
1.34654 0.645093 2.70015
-0.195604 -0.795169 3.30321
1.46873 0.610062 2.72234
0.74098 -1.88569 3.97005
0.994024 -0.786446 3.23553
1.9038 0.375675 2.67774
1.59382 -1.47876 3.39859
1.6376 0.0111406 2.74647
0.0517347 0.755942 3.04074
-0.760495 0.626127 2.15697
-0.21021 -1.68183 3.60839
-1.3247 0.139514 3.08831
-0.486514 1.38187 2.96069
1.64882 -0.605098 2.83977
2.23406 0.227543 2.74611
0.197276 -1.67293 3.71229
-0.478482 0.679734 2.12436
-0.220684 -0.61826 3.20768
-1.05933 0.217397 3.02874
1.1434 -1.49493 3.36526
0.927534 -0.558222 3.0121
-1.1393 0.745894 2.45969
-1.16404 -1.40434 3.32469
-0.715021 0.164834 2.96691
1.86463 0.995941 2.54951
1.08501 -0.78577 3.10439
-0.864382 -1.26664 4.49831
0.909288 0.0129686 2.88986
1.49183 -0.0325771 2.78524
1.26497 0.696444 2.76304
-0.585592 -0.758276 3.221
-0.251984 1.08073 2.45388
1.14516 0.677124 2.83038
0.0149906 0.0882474 2.96971
1.56844 -1.37761 3.19725
0.793976 -0.727555 3.16985
1.11777 0.767046 2.79447
0.957625 0.0487178 2.88322
-0.525982 0.78032 2.26796
0.49678 0.766508 2.91548
1.66313 -0.63248 2.81656
-0.384106 0.594445 3.05487
1.82676 1.03905 2.55017
1.35978 -0.128405 2.69449
-0.0471997 1.07 2.40805
1.37157 -0.900478 3.08508
1.89684 0.0841346 2.70003
-0.320691 0.672569 3.06735
-0.532732 -0.0928987 3.08215
1.40402 -0.845489 3.00636
1.7372 -0.0567762 2.77601
-0.0834231 -0.868585 3.34687
1.46525 0.564217 2.66546
1.02213 -1.12487 3.31015
0.567328 0.473446 2.9205
0.501103 1.25361 2.88
0.734309 -0.286364 3.02707
1.00359 1.13793 2.73932
1.47166 0.422609 2.78235
-1.14221 -1.03321 3.30316
-0.712846 -0.247024 3.06744
0.718795 1.147 2.85613
-0.591367 -1.10756 3.62105
1.3207 0.515973 2.77364
-0.784274 -0.207815 3.07083
-0.154662 -0.990467 3.37789
-0.769785 0.526621 3.04543
-1.43871 -0.171181 3.088
-0.443713 0.899866 1.87767
-0.115548 0.783341 2.99103
-0.360981 0.843172 1.92765
1.3005 -0.725862 2.96815
1.09297 0.0482742 2.80604
-0.580586 0.756218 3.05047
-1.35773 -0.725996 3.21653
0.511581 -1.46199 3.59376
-0.0427479 0.0185372 2.96428
-1.41057 0.136623 3.05333
1.9518 0.714874 2.56628
-0.724726 -0.688205 3.28755
-0.66917 0.857397 2.89341
-1.1116 0.112698 3.12218
-0.443625 -1.60905 3.56746
0.270646 -0.0857754 0.144047
0.637476 -0.650625 3.1881
1.50478 0.727826 2.61594
1.10522 -0.852316 3.08409
-0.179804 0.663475 2.95897
1.8783 0.112198 2.70588
0.965023 -0.08177 2.89442
-1.28941 -0.824192 3.18784
0.781157 0.607765 2.9245
-1.47618 -1.58449 3.36436
1.47909 -0.0581751 2.82903
1.5268 0.377351 2.27681
1.79454 0.957757 2.52724
-0.861552 0.713455 2.97693
-1.00502 -0.00448218 3.07337
1.17881 -0.77138 3.06735
-1.09396 -0.249879 3.14157
-0.548552 0.819918 1.88862
0.783937 -1.08538 3.35558
1.68632 0.457474 2.5844
0.971695 -0.207196 2.91493
-0.716879 0.781934 1.86342
-0.125541 0.684598 1.64051
-0.558754 -1.05822 3.43834
-0.387835 0.488244 2.97817
-0.488524 -0.995533 3.36422
0.0922568 0.595137 2.99772
-1.46778 -0.167418 3.0931
-0.983951 -0.917942 3.30818
0.510515 0.531143 2.88453
-0.669779 -0.132561 3.05976
-0.653145 0.857668 1.86069
1.37776 -1.22306 3.32392
0.327288 -0.372484 3.0918
1.28555 0.359398 2.8261
-0.540035 0.74827 1.9445
0.0482834 -0.329105 3.06556
-0.315016 0.790245 1.968
-0.549642 0.456528 2.98778
-1.52238 -1.14864 3.26503
1.0047 1.11384 2.83351
0.12063 -0.287235 3.06009
1.82713 0.39243 2.76366
0.533588 -1.18334 3.53843
-0.248525 -0.214008 3.08769
-0.262611 0.869326 1.95665
0.441375 -1.06596 3.44263
0.373306 1.33773 2.89268
-0.858306 0.594701 3.16789
-0.283234 0.921988 1.9355
1.76293 0.732048 2.58076
-0.430261 -0.170779 3.09058
0.278158 0.509155 2.92799
0.203697 -1.04602 3.55284
-0.197929 0.640024 3.09012
-0.547731 -0.138345 3.08899
-1.3227 -0.922027 3.26124
-0.47979 -0.95815 3.53278
-0.0724737 -0.0893122 3.01935
-0.123982 0.594577 2.99813
0.719955 -1.22334 3.48978
1.73151 0.420771 2.696
0.96185 -0.323164 2.8967
1.48352 1.02877 2.52998
0.482226 0.40256 2.89651
1.36329 -1.14663 3.3394
1.12691 -0.280324 2.83787
0.100512 1.12296 2.90672
1.19173 1.12304 2.68736
1.54478 0.428961 2.68959
0.981952 -0.248523 2.92225
0.198335 -1.11096 3.46943
0.880005 -0.484747 3.05829
-0.0551931 1.05988 2.99305
1.54715 0.27889 2.70112
-1.07499 -1.30943 3.3488
2.51219 0.0287882 2.92178
-0.949155 -0.456129 3.27431
-0.0448336 1.01798 2.96781
-1.44797 -1.19888 3.08482
1.72103 0.252223 2.6809
-1.12941 -0.421153 3.25361
0.0775831 0.362063 2.9139
1.52206 -1.31162 3.42854
0.279285 1.12523 2.97935
-0.00549808 0.530909 1.21694
1.6189 -1.18756 3.21468
-1.48035 -0.385226 3.21888
-0.758138 0.70642 1.89606
0.0250715 0.584739 1.46218
0.179767 0.331547 2.92007
0.568683 -1.5712 3.62228
-1.2695 0.222942 3.02592
-1.4303 -0.605547 3.1667
1.57891 0.819496 2.5814
0.505033 -1.57491 3.75401
-1.1059 0.171329 2.92567
2.45039 0.650951 2.78342
1.50443 -0.566711 3.04739
1.40764 0.807379 2.68425
-0.49019 1.44518 2.95956
0.981971 0.937253 2.8408
0.594153 0.228778 2.894
0.0520862 -0.528431 3.18009
2.16602 -0.708201 3.22314
-1.35806 -1.32646 3.25689
0.628182 0.22426 2.91443
-1.18207 -1.36405 3.22739
0.186859 0.968174 2.99488
0.673317 -0.574782 3.12146
-0.413194 -1.46965 3.59166
-0.817738 0.206167 2.97199
-1.27442 -0.541749 3.25634
-0.265713 0.941535 3.03687
0.022995 0.710353 1.80127
0.115625 1.00164 2.96416
2.49774 0.817364 2.88011
-1.03163 -1.62978 3.45937
0.435407 0.2604 2.88631
-1.06118 -0.485758 3.09076
2.27889 0.0251908 2.96188
0.311795 -1.46748 3.66251
-1.12888 0.77059 2.76615
-1.08073 -0.765955 3.33729
-0.228008 0.0863661 3.02924
0.056574 1.31679 2.88024
-0.0430333 -0.698341 3.2552
-0.412033 1.31602 2.95314
-0.0393621 0.773111 2.98703
-0.718684 0.0550918 3.03649
0.371774 -0.646179 3.15779
-0.111397 0.162015 3.01185
-0.33942 -1.59384 3.52051
-0.178302 0.886908 3.02811
0.0819591 0.692063 3.34559
-0.743605 0.861899 2.93904
-1.03317 -1.46144 3.30643
1.41212 0.103175 2.84953
1.4416 -0.582454 2.93404
-0.298409 0.858929 1.9311
-0.838886 -0.995208 3.80012
-0.958014 0.699852 2.944
-0.148998 -0.0569867 3.01911
1.51094 -0.681115 2.66972
-0.97405 0.728643 3.25019
0.306138 -0.024095 2.96551
-0.212204 1.01318 2.76517
1.82238 0.35455 2.65289
0.701853 0.733527 2.94383
-1.20406 0.0249272 3.09143
1.51559 0.406715 2.27159
1.45619 -0.719814 2.93
0.430945 -0.212564 2.99208
-0.129502 0.942663 2.14989
0.34737 1.2708 2.90932
-0.44703 -1.08396 3.51037
-0.987684 0.55402 2.96334
1.32947 -0.171179 2.79175
-0.633037 0.807645 1.86557
1.69799 1.11181 2.56109
-1.10889 -0.967978 3.26557
-0.352368 0.51239 2.99147
-0.592558 -0.983396 3.43431
-1.12846 0.606026 2.8669
-1.03534 -0.132677 3.16647
1.7134 -0.794403 2.8063
1.56925 0.526747 2.67779
-0.737784 -0.08746 3.03635
0.680765 -0.802405 3.18781
1.04749 0.00976311 2.87617
2.54803 0.0083626 3.78214
0.929337 -0.0272116 2.88179
-0.31303 0.758767 3.09086
0.220594 -0.780349 3.28841
1.03205 0.681688 2.87125
1.85746 -1.40646 3.26873
-1.38592 -0.723442 3.14278
-0.869566 0.766737 2.65009
-0.354542 0.042718 2.97789
1.34844 0.707345 2.70705
-1.38726 -0.173111 3.08305
1.3606 -0.935656 3.06268
-0.393491 0.578992 2.99391
1.90274 0.592798 2.60745
1.5512 -0.13654 2.74387
-0.547124 0.855084 1.88399
1.88968 0.369702 2.63825
-1.43748 -0.910697 3.17817
0.608662 0.537327 2.92061
0.867727 -0.0995851 2.95354
1.39424 0.596015 2.69639
-0.10611 -0.904414 3.3482
0.778952 1.26592 2.82534
0.640943 -0.0626665 2.93976
-1.40452 -0.824811 3.13209
1.7389 0.56486 2.70169
1.1552 -1.1592 3.38187
1.74932 0.449847 2.74466
0.075077 -0.29496 3.06276
-0.451032 0.775919 1.86275
-0.699084 0.45685 3.07534
0.101822 -1.14829 3.56123
0.000273956 0.844452 2.09144
0.47008 -0.261154 2.97675
1.59348 -1.00003 3.13198
1.66747 -0.205921 2.72134
0.617694 0.50276 2.91875
-0.691954 0.71162 1.91368
1.33174 -0.415132 2.74652
0.967565 1.0144 2.77616
1.29975 -1.36294 3.44455
1.40481 0.313213 2.78473
-0.253828 -0.418061 3.17
0.524463 1.0236 2.91469
0.333764 -1.31422 3.50682
0.245787 0.291845 2.92122
1.55663 0.366282 2.63231
1.27568 -0.365417 2.85888
0.692709 -1.27943 3.50994
1.19314 1.06232 2.71283
-0.0243912 0.504992 1.3187
-0.613632 -1.19125 3.45441
1.81923 -0.338471 2.81398
1.34661 1.0157 2.66926
2.27385 0.298581 2.51118
1.23062 0.35535 2.84554
0.771587 -0.894508 3.22228
1.55944 -0.0965499 2.83845
1.93199 0.000323432 2.73698
0.0848858 0.650209 3.12541
1.04057 -1.74839 3.69534
1.25768 -0.063635 2.77887
1.65201 1.14291 2.56437
0.36991 0.713174 3.02362
-0.478734 -0.874779 3.36335
0.78163 -0.0268319 2.91243
-1.2318 0.657128 2.88305
0.228646 -0.827219 3.31698
1.32439 0.494674 2.84102
1.24457 -0.244438 2.77714
-0.262005 0.878341 1.97248
-1.22837 -1.05677 3.3061
-1.27342 -1.01478 3.30419
-0.383125 0.779096 2.02934
0.836182 1.16015 2.79395
1.5532 -0.217717 2.86865
-0.462341 0.487648 3.00812
-0.662116 -1.00843 3.42819
-0.898634 0.596521 2.99914
0.0633389 -0.172213 3.02992
0.276134 0.542521 2.92965
-0.296026 -0.940604 3.35473
-0.607955 0.872411 1.88271
0.507163 -0.135969 2.94977
0.900477 1.05651 2.77757
-0.639711 0.373941 3.00576
-1.00594 -0.371999 3.14344
-1.15787 -1.21301 3.34447
1.61288 -0.322479 2.83886
-0.474812 0.756778 1.87749
1.12702 -1.21175 3.42338
0.599125 0.442739 2.90886
-0.76635 0.7273 1.85147
-0.503511 -0.29527 3.09733
0.801967 0.405993 2.91659
1.0047 -1.19721 3.5103
1.47131 -0.484471 2.80422
-0.0470314 0.623768 1.34467
-0.580516 0.275921 2.98839
-0.443523 -1.43816 3.52562
1.08212 0.947523 2.75946
1.36359 0.885965 2.68585
0.950422 -1.52411 3.78153
-0.318112 0.237103 3.00355
-0.0315225 0.573543 1.30044
1.25756 -0.478722 2.93814
-1.41191 -1.22748 3.1667
-1.09426 0.348625 2.94983
0.397449 -0.44497 3.09077
-0.695664 0.720306 1.93799
2.316 0.0388693 2.9553
-0.171784 -1.32892 3.58607
1.00061 0.287763 2.91526
-0.00829934 0.543384 1.289
1.05692 -0.395854 2.91898
0.174214 1.02731 2.91904
0.735189 -1.15872 3.2825
0.989116 0.441615 2.89744
0.0253495 -0.337679 3.08212
-0.522283 0.415022 2.99896
0.371241 -1.19314 3.55008
1.01447 1.08212 2.76835
-0.994195 -0.292343 3.13421
0.214701 1.20385 2.8956
-0.842414 0.499781 3.0222
-1.3126 -0.258394 3.14438
1.55116 1.02826 2.54164
-0.956675 -1.02368 3.1619
2.59366 0.936353 2.86923
-0.242918 -0.491607 3.18528
1.35459 0.953389 2.68027
0.594382 0.289143 2.89295
-0.869439 -1.40572 3.53442
-1.30651 -0.452151 3.15984
1.47442 0.883358 2.56294
0.394027 -1.37612 3.56666
0.868148 0.259872 2.87285
1.66153 0.334752 2.67061
0.897229 -1.32062 3.49285
-0.185149 0.790448 2.06965
-0.0174167 0.533292 1.24476
0.235308 -0.407759 3.09775
-1.07447 0.352164 3.02482
1.26072 -1.24107 3.3605
1.11544 1.00823 2.74359
1.59736 -0.360644 2.8224
0.651741 -0.456962 0.857854
-0.967213 -1.48667 3.41114
-1.33858 -0.644854 3.37301
2.26705 0.206745 2.74419
0.393218 0.154816 2.91271
-0.398847 0.894389 3.02156
-0.478522 -1.60469 3.41447
2.2587 0.507794 2.64072
-0.50522 1.40404 2.96384
-1.44955 -0.579636 3.18469
-0.852529 0.668017 2.01882
0.812591 -1.52453 3.57484
-0.827997 0.235476 2.99207
-1.00049 -0.544175 3.21812
1.67299 0.810444 2.54186
0.804542 -1.56221 3.79214
1.2409 0.183945 2.78999
-0.0368381 0.0450774 2.95604
-0.229832 1.06848 2.45275
0.991689 0.757547 2.87884
1.68156 -0.71363 2.85683
0.981687 -0.735246 3.15093
0.0294772 0.748782 3.03957
2.00484 1.07237 2.6972
0.680165 0.0115639 2.91267
0.760504 0.116229 2.86881
-0.298996 0.874403 3.02937
1.82639 0.719988 2.57283
0.871379 -0.68389 3.13275
0.608082 -1.7764 3.9082
0.273586 0.0817989 2.95531
1.05473 -0.638915 3.06885
2.50084 0.0139897 3.75469
0.762943 0.80303 2.90461
0.706291 -0.736601 3.16721
1.19433 0.753748 2.7648
-0.0483012 1.12307 2.92892
1.0667 0.076082 2.80217
1.39431 0.690884 2.65764
1.47705 -0.63572 2.84938
-0.281064 -1.07879 3.44416
1.14052 0.0307059 2.843
-0.607975 -1.57219 3.46118
-0.673702 0.151186 2.97537
2.06529 1.16269 2.80725
-1.37156 -0.647619 3.16487
-0.113749 0.914542 3.102
-0.259497 0.11465 2.9979
-0.678103 -1.54497 3.51879
2.11356 1.06307 2.76681
0.232025 -0.628639 3.22225
1.64499 0.743909 2.60223
1.1132 -0.818461 3.06704
0.788641 -0.0656818 2.90594
0.560536 -1.7734 3.74722
-0.26944 0.684241 3.16238
1.92549 0.645914 2.60768
-1.4296 -0.0233483 3.08517
-0.904012 -1.61898 3.41758
0.112166 0.742991 3.04102
1.91833 -0.164655 2.72025
0.808624 -0.811536 3.18466
1.25503 0.00476325 2.76716
0.339342 0.708391 3.02793
-0.405991 -0.790407 3.32066
1.29046 0.51624 2.8104
0.168516 -0.228831 3.04034
-0.278069 0.909576 1.96615
0.0503746 -1.06413 3.41673
-0.629708 -1.00575 3.40969
-0.447503 0.756806 2.22485
-0.684305 0.801805 1.86578
0.99181 -0.181242 2.92556
0.827531 0.504782 2.96455
-0.548847 -0.956776 3.32685
1.04959 0.595231 2.88447
-0.387903 -0.148305 3.09463
0.442203 0.561033 2.90844
1.21665 -0.889931 3.15511
0.670364 1.25079 2.84496
0.408644 -0.102997 2.96759
-1.02841 -1.2102 3.50716
-0.377071 -0.347672 3.12927
-1.31516 0.420547 2.95399
-0.393525 0.7593 1.94391
1.66838 -0.278093 2.61911
1.16596 1.12118 2.70315
0.293136 -1.20775 3.55564
0.360004 0.462841 2.87819
1.13791 -0.256672 2.83203
0.395118 1.14335 2.86911
-0.587356 0.448529 2.97631
0.44471 -1.15446 3.53717
1.26437 -0.176336 2.77464
-0.422397 0.723903 1.96896
0.3026 1.3114 2.90667
-0.934778 -0.983624 3.37952
1.12806 0.553832 2.8394
-0.685026 0.856499 1.8654
-0.805454 -0.141396 3.08703
-0.555913 0.552256 3.03955
1.83523 0.66152 2.60272
-0.751386 -0.957721 3.36782
-0.570683 -0.101165 3.0967
-0.866891 -0.904667 3.30068
-0.1179 0.694551 3.12167
-0.197121 -0.891754 3.4309
-0.324842 -0.0619511 3.05408
1.39029 0.564678 2.74965
-1.42953 -1.08678 3.20487
0.0375185 0.481691 3.00089
0.819557 -0.304525 2.98529
0.622226 1.19576 2.88441
1.42027 0.41554 2.7654
-0.396995 -1.19074 3.6982
-0.336381 -0.266788 3.10455
1.42604 1.05797 2.63278
-0.369231 0.850351 2.41277
0.0955699 0.503708 2.96278
1.29495 -0.213008 2.80424
0.691201 -1.09008 3.42178
-0.906564 -0.462125 3.20296
0.820156 1.03361 2.83594
0.195981 -1.42181 3.65938
1.66863 0.298034 2.72402
-0.307858 -0.421825 3.17795
1.12699 0.98493 2.7821
0.682594 -1.37064 3.63142
0.910129 0.289063 2.86235
1.53417 0.368256 2.69838
1.65263 -1.20983 3.22491
1.53376 0.987171 2.52507
0.0601211 0.540326 1.29784
1.2303 -0.375653 2.9238
0.00147519 0.359752 2.95771
1.67248 -1.10337 3.06596
-0.808091 0.706946 1.87053
-0.719494 -0.351687 3.1238
2.47637 0.933195 2.90135
-0.730823 -1.47699 3.49445
1.09405 -0.546942 2.91813
2.09186 0.527787 2.59749
-1.36514 -1.29866 3.10457
-0.26581 0.185105 2.96818
1.65177 -0.502492 2.82476
-0.659709 0.644836 2.08339
0.117553 0.594782 1.34238
2.02637 0.458695 2.61595
0.74037 0.97365 2.87947
0.249251 0.26264 2.93337
-0.0386306 -0.508995 3.189
0.968092 0.932523 2.85903
-0.585545 -1.395 3.49305
1.51717 0.206773 2.7039
1.11621 -1.10927 3.36531
-0.511014 0.516944 2.99734
-0.0744497 -0.259215 3.08064
-0.317597 0.863958 1.94197
1.19413 0.457944 2.82574
-0.738012 -1.06217 3.45737
-1.13586 -0.220573 3.16095
1.55199 1.03375 2.47217
-1.51935 -0.956563 3.17289
1.66278 0.543444 2.75542
1.24739 1.16637 2.69392
-0.240485 -0.180461 3.07607
-1.12992 -0.915115 3.20844
-0.0213828 0.551604 3.02227
0.309453 -0.141194 2.97003
-0.515678 0.853849 1.88441
0.877513 1.0674 2.81985
-1.101 0.378381 2.99407
1.17512 0.994481 2.70859
-0.486118 -0.375579 3.09635
0.977001 0.325222 2.91734
0.0615577 -1.31758 3.63897
-1.13705 -0.361335 3.26694
1.54825 1.00426 2.49317
2.64484 0.925798 2.85866
-1.25913 -1.15913 3.33459
0.751335 0.444952 2.91963
0.254479 1.13359 2.95124
0.443474 -0.29184 2.99871
1.32654 0.38843 2.7918
-0.605225 -1.17757 3.50872
-1.21071 -1.32634 3.24308
1.53109 0.238857 2.59003
0.525778 -0.304431 0.580315
1.3123 0.934903 2.73146
1.30386 -0.51116 2.90585
-0.67524 -1.39184 3.51354
-0.615716 0.224985 2.92718
0.992053 -0.489702 3.00588
-0.46678 0.687049 2.08122
1.85978 -1.90037 3.62116
0.723405 -1.39674 3.57316
0.692432 -0.455258 3.09069
-0.0289611 -1.34291 3.58617
0.766426 -1.81142 3.81853
1.5077 0.277193 2.75308
0.0409081 0.59611 1.30592
-0.191489 -0.417359 3.14294
-0.545804 0.699421 2.00116
-1.46123 -0.69239 3.19233
-0.641878 0.852603 2.98504
-0.501492 1.35557 2.96346
-0.124697 0.121419 2.9999
0.06479 0.823682 3.03499
-0.721629 -0.678081 3.39685
2.28662 0.67498 2.75631
-0.993491 0.10572 3.22786
0.077715 -1.58355 3.48226
0.743187 -0.61009 3.11743
0.189051 0.937067 3.02098
0.637887 -1.65759 3.73018
1.53752 0.182653 2.79855
-0.178626 1.11824 2.87394
-0.725562 -0.569922 3.20568
1.59799 0.767296 2.56991
-1.34595 -1.40376 3.32542
-1.03971 0.167355 3.00203
0.716608 -1.6576 3.65415
0.997726 -0.478721 2.93624
-0.0330243 0.589202 1.52911
1.07869 0.288078 2.8945
-0.69272 0.706165 1.97822
1.06797 -1.36208 3.33641
-1.08548 -1.27427 3.3397
1.23879 0.254464 2.81518
1.51943 0.883533 2.59328
0.0770028 -0.451974 3.12323
-1.48341 -1.23678 3.29133
1.08374 0.352569 2.87306
-1.3311 -0.431946 3.24046
-0.231642 0.776785 2.03586
0.0224254 0.551882 1.32269
-0.918322 -1.23047 3.44299
-1.36019 0.343717 2.99125
-0.0259783 0.522576 1.44983
1.48704 -0.36479 2.82045
-0.42152 0.736629 1.99578
1.22948 0.826646 2.75798
2.27699 0.732071 2.83708
-0.416319 0.15303 2.99081
-0.750953 -0.623659 3.28638
0.110095 -1.63548 3.69311
2.23588 0.518727 2.64231
-0.709643 0.662478 2.00633
1.46265 -0.564056 3.00852
-0.351506 0.23142 3.05738
-0.182243 -1.53107 3.61491
-0.432942 -0.542008 3.23948
1.35766 0.841431 2.69749
0.222903 -1.45652 3.55333
-0.892605 0.196104 2.97444
-0.215433 1.34467 2.92538
-0.247113 1.01584 2.23591
0.490763 0.0394391 2.92013
-1.07921 -0.799549 3.39434
-0.611246 0.760512 2.95351
-0.563683 -1.03217 3.58958
-1.07296 0.748982 2.97518
-1.41462 0.0209041 3.16808
1.38772 -0.705606 2.98879
0.386925 0.110071 2.92573
1.4676 0.330083 2.1891
0.566091 0.828262 2.9251
-0.86417 -0.699766 3.23477
0.135154 -1.57767 3.47372
-0.822094 0.0893934 3.04704
1.90617 1.12678 2.94506
-1.06975 0.787777 2.8377
0.179523 -0.66012 3.21223
1.28104 0.572521 2.7655
1.84249 0.320645 2.68443
-0.363361 -0.0961964 3.07179
0.0146493 -1.7142 3.68333
-0.979695 -0.898246 3.35091
1.67293 -1.06705 2.94595
-0.654369 -0.0673564 3.07871
1.76681 0.660531 2.78924
1.47981 -0.801166 2.94824
-0.682184 -0.0256592 3.07074
-1.05359 0.661263 2.97496
-1.20345 0.238155 3.00156
-1.18662 -0.794738 3.20053
0.0177677 0.716998 3.24393
0.0351453 1.26545 2.85567
-0.466553 -0.0662804 3.07763
-0.386022 0.866366 2.36069
0.116139 -0.877637 3.34326
-1.45425 -0.0286193 3.08773
-1.2 0.729524 2.91628
-1.23605 -0.789088 3.15122
1.43628 -0.00559368 2.78777
-0.692451 0.698128 3.02572
1.76118 0.93223 2.53133
-0.0901852 -0.794581 3.32664
1.71195 0.48365 2.64187
0.33238 -0.23097 3.03984
-0.377161 0.846988 1.91256
-0.964632 -1.05092 3.41319
1.30532 -0.950606 3.10301
0.459251 0.487077 2.88617
-0.135685 0.992415 2.64358
1.15294 -0.175278 2.77249
-0.354958 0.869008 2.45738
1.84576 -0.861109 2.91416
-1.02252 0.611674 2.97352
0.979529 -0.14997 2.8992
-0.758999 -1.0156 3.6301
0.37563 0.554637 2.93137
0.474454 -0.110385 2.97435
0.919848 1.24137 2.76376
-0.553087 0.745637 1.90837
0.914363 0.391661 2.91997
0.468338 -0.343315 3.04582
1.22113 -1.17735 3.29494
1.57975 -0.307322 2.95605
1.65141 1.04779 2.53525
1.11686 -1.19735 3.47499
1.11463 0.46234 2.86641
1.3265 1.05672 2.62951
-1.42535 -0.270369 3.11291
-0.257258 0.44652 2.98904
0.595372 -1.11054 3.38313
0.400127 -1.42591 3.54964
1.17233 0.272086 2.80082
0.0620471 1.00069 1.9735
-0.799785 0.692975 1.96871
1.18802 -0.474957 2.87133
-0.19994 -1.38213 3.58117
-0.678688 0.259394 2.98886
-0.366517 0.720926 2.09565
0.734181 -0.452038 3.01534
-0.0124228 1.35421 2.88957
0.0758407 -1.33938 3.56296
0.445925 0.345401 2.87865
0.701336 -0.416024 3.04145
-0.4521 0.741319 1.95256
-0.107008 -1.25705 3.48709
0.0883535 0.572529 1.35106
-0.969687 0.328258 2.96013
-0.234509 -0.386372 3.14696
1.50636 0.939156 2.56781
0.861603 -1.16782 3.39168
-1.50975 -0.321261 3.22292
0.450323 0.427104 2.89644
-0.294192 0.781421 1.96586
1.08441 -0.258872 2.83768
-0.696444 0.684897 1.9361
-1.35136 -1.06488 3.2319
-0.426621 0.508264 3.00738
-0.744989 -0.2207 3.0812
1.09707 1.10443 2.69275
0.910189 0.464086 2.91645
0.408673 -1.07411 3.41186
1.50987 -0.432425 2.81196
1.15844 0.298314 2.80926
-0.599709 0.697547 1.94523
-0.432809 -1.35123 3.50055
-0.883432 -1.27527 3.42718
-0.0355336 0.28809 2.93114
-0.660605 0.693995 1.95878
-0.585871 -0.433749 3.24196
-0.73031 -1.25291 3.47492
-0.92874 0.407329 2.95729
-1.09574 -0.37046 3.02538
0.394508 1.10497 2.8716
0.0760569 0.558805 1.35416
-1.06255 -1.18445 3.34904
1.68262 0.329634 2.69211
0.0529072 0.702491 1.39889
-0.610361 0.723529 1.91001
-0.778936 -0.359757 3.1817
0.881842 -1.50675 3.46435
0.881739 -0.572641 3.05147
2.46424 0.728238 2.85508
0.290567 0.17682 2.93211
0.290447 0.927593 3.03627
1.89587 -0.215652 2.78255
0.816541 0.968713 2.87202
1.02398 -0.527601 2.9902
0.199122 -1.69552 3.59895
-1.53939 -1.38462 3.31474
1.13864 0.246997 2.81608
-0.177765 -0.507171 3.18207
1.10664 0.890764 2.75413
0.0196847 -1.43326 3.56907
0.351759 0.206773 2.90185
0.92918 -0.727656 3.12101
1.54638 0.0712552 2.96036
-0.458653 1.05522 2.85706
2.04609 0.519105 2.60521
-0.526175 0.806082 3.00671
1.36519 0.693273 2.6687
-0.141342 1.38762 2.9068
0.280831 0.0332008 2.95294
1.09457 -0.674253 3.01976
0.195987 0.139962 2.96304
-0.566744 -1.56219 3.4349
1.3867 -1.35625 3.26349
0.965208 0.843063 2.862
-1.35197 -0.665363 3.21196
-0.21857 -1.58627 3.59227
0.236701 0.108565 2.95546
-1.23651 -0.650299 3.34766
2.26224 1.06865 3.01923
-0.393745 0.861245 3.07446
0.47493 1.07291 2.86967
-1.24393 -0.418707 3.1647
1.47817 0.343489 2.85338
0.957995 -1.50298 3.92714
-0.225691 0.764304 2.06991
0.172438 -0.380164 3.07929
0.880686 0.317197 2.90764
0.921846 -1.32815 3.58178
-0.0162053 0.441743 2.96411
1.3448 -0.328287 2.76507
-0.407043 -1.24119 3.55533
0.476416 1.13615 2.86418
0.127108 1.36664 2.83909
-0.414256 -1.18986 3.52873
1.11882 1.04219 2.66878
-1.12973 -0.303664 3.18932
0.754014 0.39611 2.90979
-0.0837954 0.260802 2.95622
0.86864 -1.49384 3.59233
-1.16299 -0.562089 3.34225
0.44911 0.993376 2.94566
-0.805568 -1.39003 3.47951
0.225658 0.217956 2.92751
0.0312266 0.524827 1.30784
-1.16686 -0.513 3.24705
0.38319 0.951636 2.94834
-0.401082 -1.36658 3.55193
2.32141 0.459769 2.59776
0.651664 -0.458986 3.07393
-1.35385 0.304563 2.95481
0.0336594 0.557763 1.23163
1.47415 0.909837 2.56904
0.398357 0.836034 2.9781
0.124862 -0.702383 3.24153
0.993849 0.10191 2.85712
-0.00360776 1.36779 2.88465
0.555565 -0.664393 3.2151
0.441578 0.80318 2.95256
1.128 -1.74239 3.79566
1.87633 -0.671827 3.0061
-0.474603 0.0792167 2.9753
-0.450387 -0.633006 3.31842
1.15634 0.17313 2.78743
-1.21103 -1.42293 3.22923
1.75011 0.062643 3.29593
0.885686 0.900178 2.90053
1.69843 0.780922 2.61853
-1.11351 -1.41868 3.32504
-0.262281 0.151339 2.95978
-0.666724 0.790878 2.97337
-0.485977 -0.596645 3.31101
-1.24765 0.0180588 3.12593
-0.345775 -0.841908 3.39189
0.90189 0.708408 2.88324
1.72275 -0.0353606 2.70396
-1.41879 -0.77238 3.19803
-0.534972 0.71188 3.07781
-0.785016 -1.26193 4.36702
1.54789 0.0507781 2.37198
0.60247 0.777834 2.99463
-0.60529 0.0468599 3.03797
1.10117 -1.67166 3.52073
0.034374 1.21817 2.88313
-0.0896368 -0.745743 3.26303
-0.574065 0.823939 2.73082
2.10673 0.262247 2.64269
1.13147 0.135063 2.81204
-0.513701 -0.627974 3.2796
0.257598 0.855698 3.05225
-0.804274 -1.55566 3.52023
-0.940098 -1.62989 3.44006
1.68879 0.0958497 2.7551
0.550131 -0.587388 3.18725
-0.564111 0.68391 2.09054
2.24522 0.561063 2.69263
0.256542 -1.54697 3.63831
-1.00371 0.239867 3.01805
-0.156199 1.06728 2.98237
-1.22206 -0.560087 3.29915
1.20382 0.853734 2.7513
-0.0867051 -1.47644 3.60974
-1.42676 0.199966 3.08526
-0.349772 1.29917 2.94866
2.13884 1.06557 2.93458
0.188713 -0.788372 3.29614
1.64352 0.0317779 2.70285
-1.13093 0.781941 2.96833
-0.594439 0.00407034 3.05232
-0.691887 0.725765 2.9626
-1.18682 -0.725379 3.18959
-0.358847 0.982415 2.70355
1.62564 -0.667337 2.92348
1.56485 0.06902 2.69554
0.673572 -1.85325 4.02097
1.97636 0.117505 2.61115
-1.25399 -0.678596 3.31223
0.0826828 0.812175 3.02024
1.6147 -0.147961 2.7855
1.43508 -0.86859 2.92428
1.07488 0.586685 2.86855
1.93743 0.542536 2.63227
1.14735 -0.0998005 2.76503
0.391895 1.30567 2.90936
-0.0690105 -0.916421 3.34339
-0.651314 0.592524 3.09904
1.88897 -1.02722 2.90698
1.61766 0.61947 2.63337
-0.728256 -0.0620098 3.06349
1.5295 -0.795442 2.94528
0.871773 0.629564 2.90138
-1.38956 -0.022546 3.11351
1.51799 -0.754282 2.91566
1.18598 -1.28708 3.39679
-2.54676 -1.9648 5.52484
0.644586 0.496143 2.9091
0.619131 -0.265561 2.95694
-0.790044 0.735677 2.37372
-0.0993798 0.478147 2.96888
0.47933 -1.09021 3.46144
-0.411878 0.772542 1.87237
0.486206 -0.221461 2.97829
1.4767 -0.886608 2.87416
0.0862773 -0.18422 3.02355
-1.28686 0.532451 2.87086
0.154888 1.29293 2.90006
-1.09533 -1.01986 3.2439
0.452104 0.515943 2.89791
-0.295635 -0.229042 3.11357
-0.611645 0.896036 1.86309
-0.132298 -1.0232 3.46142
1.13908 0.485619 2.87729
0.938103 -0.195845 2.91031
-0.232859 0.814696 1.92897
-0.050135 -0.97365 3.36405
1.79809 -0.151574 2.80707
-1.33571 0.566818 2.89898
1.0609 1.23179 2.73701
-0.756424 0.7275 1.87359
1.10519 -0.36602 2.88959
-0.753038 0.40207 2.98004
-0.381587 -1.29426 3.55596
0.630231 1.07743 2.88535
0.0880895 -0.355229 3.09831
-1.23118 0.374537 2.99753
0.509417 -1.28333 3.61971
0.925526 -0.302419 2.94877
1.37027 1.07649 2.61203
-0.936468 0.0353734 3.08412
-1.03941 -1.12605 3.35592
-0.89464 0.478543 2.95742
0.843659 -0.280049 2.99412
1.63044 1.00126 2.49048
