ply
format ascii 1.0
element vertex 1836
property float x
property float y
property float z
end_header
1.59931 -0.449174 2.87047
-0.760812 -1.32642 3.48794
-1.32937 0.309546 3.01652
-0.707714 0.69414 1.97161
-0.0379499 -0.43925 3.16125
0.877816 -1.71052 3.68176
1.25805 -0.646803 3.00084
-1.37872 0.118659 3.08407
-0.573888 0.833247 2.94551
1.32078 -0.584485 2.86669
-0.665245 0.643281 2.07408
1.18228 -1.7197 3.78445
-0.205451 0.182807 2.9729
0.49758 -0.605094 3.21598
1.08572 0.835842 2.83044
1.6837 0.12426 2.77892
-0.0752444 -1.57871 3.62796
-0.0610909 0.722585 2.95736
1.17354 -0.0405283 2.8472
0.0867054 1.28038 2.76926
-0.55883 0.00362542 3.03324
1.41207 -0.772678 2.93902
-0.915681 0.674446 2.93904
2.28436 0.939675 3.20625
0.88979 -0.785967 3.16662
1.4577 0.0603742 2.88381
-0.560118 -0.765481 3.28766
-0.327339 0.812226 3.01424
0.798769 -1.5537 3.73204
-0.93718 0.0422641 3.06175
-1.10954 0.229129 3.0297
-1.00851 0.775297 2.99947
0.0358782 -0.718363 3.24529
-0.101691 -0.982223 3.36304
0.314793 -1.7242 3.62437
-0.19058 -0.150936 3.03758
0.0701305 1.2372 2.78096
0.970755 0.558762 2.90735
0.268271 1.3351 2.9107
1.82323 0.887069 2.5582
-1.16353 -0.109106 3.12657
-0.512252 0.658371 3.03683
1.50211 -0.822455 2.84771
-0.283272 -0.0713458 3.03974
1.66277 -0.804698 2.9079
1.22758 0.567171 2.80936
-1.25618 -0.910625 3.26698
-1.30577 -0.114594 3.10074
1.80705 0.506242 2.66293
0.202476 0.590053 2.92965
-0.650363 0.703271 2.20442
0.593481 -0.0773987 2.95292
0.520138 1.29153 2.87733
-0.616577 0.695818 3.03846
0.267715 -0.906596 3.32529
-1.26544 -0.0421404 3.08051
1.04169 -0.862512 3.2847
0.619505 0.638443 2.99277
-1.28927 -0.287711 3.19929
-0.745702 0.752392 1.79274
-0.741381 -1.12474 3.39517
-0.288815 0.503775 2.97702
-0.211697 -0.234965 3.07736
0.438342 1.17333 2.88437
-3.40985 1.10839 7.05097
0.594144 -1.0964 3.39212
-0.790661 -1.05831 3.45265
1.00966 0.553239 2.91439
0.671828 -0.198007 2.97484
-0.32226 0.800773 2.09879
0.0621327 0.537675 2.96804
1.14865 -0.989487 3.3021
-0.30506 0.898205 1.93697
-0.764667 -0.155357 3.06446
0.869016 -1.38268 3.68798
-0.987014 -0.395842 3.14881
-0.0759487 0.358551 2.97633
-0.762932 0.706307 1.89747
1.75946 -0.345743 2.73826
1.61314 1.0079 2.54714
1.55482 0.366956 2.51135
-1.07722 -1.10437 3.08775
-0.671716 0.733013 1.92055
0.416775 -0.329633 3.08752
-0.264994 0.387155 2.92552
0.496127 -1.29355 3.69288
0.141782 -0.560115 3.1632
-0.236008 0.258915 2.97725
-0.739815 -1.46817 3.51584
1.68594 0.859149 2.56373
1.38903 0.850953 2.65218
-0.932096 -1.40715 3.47534
-0.0517946 0.220348 2.95194
0.885978 -0.510276 3.05623
-0.695661 -1.35457 3.44325
-0.793721 0.324506 3.00303
1.13826 -0.449442 2.89363
0.692276 1.03438 2.872
-0.139966 -1.37271 3.56513
0.0886476 0.284489 2.90973
-0.760127 -0.431307 3.13452
0.626204 1.00789 2.89356
-1.3923 -1.14101 3.16723
0.0605589 0.425251 2.93491
1.16652 -0.355953 2.89582
-0.784899 0.730852 1.8483
0.587996 -1.24027 3.52433
0.272319 0.378945 2.90662
-0.827717 0.716452 1.85854
1.09384 -0.318615 2.89627
0.204709 1.19132 2.94011
1.36418 0.438591 2.81461
-0.482427 -0.283465 3.07896
-0.665958 -1.11986 3.37088
1.34436 -0.482389 2.84915
-0.491105 0.701573 2.02319
1.23311 0.273276 2.86901
0.528512 -1.51723 3.67376
-1.38019 -0.494313 3.24437
0.635657 0.980879 2.91699
-0.954508 -1.40078 3.55302
0.668034 0.249095 2.93666
-0.623432 0.35239 2.94971
1.39884 -1.32532 3.36766
0.0457444 1.08205 2.91839
-0.658596 -0.437816 3.15455
0.634472 0.309464 2.92439
0.424158 -1.30758 3.49684
-0.79603 0.684459 1.88429
0.568549 -0.398488 3.05693
-0.0705097 -1.58411 3.5246
-0.534848 0.178584 2.9677
-1.44068 -0.614741 3.04716
0.785781 0.876801 2.87215
0.871944 0.131197 2.91657
-0.80886 -1.44977 3.35503
0.373827 -1.75118 3.63358
-0.561391 -0.580569 3.09327
0.362109 0.874797 2.97784
-0.45206 0.678813 2.10565
1.32704 0.198798 2.80729
1.27832 -0.535864 2.93611
0.792473 -1.72384 4.04036
1.34634 0.697037 2.74053
2.25831 -0.193114 3.58152
-0.279013 0.0322562 3.00767
0.406601 -0.81964 3.31496
-0.252948 0.747748 3.08444
0.714289 -0.0140662 2.94648
-0.813931 -0.804978 3.42042
0.920691 0.0978674 2.91001
1.67685 -0.768059 2.55868
1.04279 -0.687685 3.04469
-0.113094 0.849681 3.04998
-0.258975 0.0680628 3.02617
-0.807357 -1.60305 3.44705
1.85935 -0.499278 2.75671
1.65585 0.710813 2.65985
-0.933 -0.697482 3.29111
-0.196368 0.768722 2.10857
-0.577063 0.325187 3.00588
0.471681 -0.429618 3.06097
-1.04986 -1.25457 3.29654
0.983524 -0.390259 2.9985
-0.346634 0.766223 1.98102
1.33344 -1.23617 3.27424
0.602635 0.388088 2.95647
0.70711 -0.363628 3.03294
1.4499 0.986506 2.6435
1.49032 -1.23283 3.36292
0.518845 0.343661 2.88554
0.805775 -1.73067 3.91605
1.18873 0.204618 2.82081
0.159819 -0.599477 3.18606
-0.362012 0.918267 2.7804
-0.170946 -1.52286 3.61288
0.972211 0.165877 2.88158
1.58971 -0.502944 2.76636
1.08282 0.867839 2.83251
1.41567 -1.4119 3.38965
1.42598 0.267714 2.79179
0.66124 -0.515976 3.12645
-0.33161 0.726409 2.06491
-1.45773 -1.23005 3.06677
-1.37964 0.282463 3.08954
-0.76572 -0.474356 3.17513
0.381735 0.995104 2.96225
0.137178 0.814362 3.03915
-2.48476 -1.26761 5.22427
0.45333 0.0663334 2.94606
-0.522766 0.772862 3.01854
-0.306374 -0.715599 3.23187
-0.168852 0.0346249 2.9941
1.06925 -0.658319 3.04836
-0.50896 0.809792 2.7607
-0.0872168 -1.69275 3.63665
1.73092 0.119342 2.75311
1.84298 -0.329574 2.72798
1.56693 -0.590238 2.86236
-0.517894 0.841228 2.99795
-0.469437 0.108714 3.00703
0.705848 -1.75358 3.8792
0.737917 -1.59594 3.75267
0.409856 -0.888931 3.26694
-0.998346 0.78664 2.84642
-0.830588 0.705514 3.05706
-0.860468 -0.0690529 3.06017
0.0393259 -0.848345 3.28031
0.557749 0.638705 2.97117
-0.576946 -0.0373826 3.05886
1.26576 -1.80043 3.71481
-2.15819 -1.1022 4.39083
-0.283758 0.883733 2.43393
-0.30451 0.952959 2.74774
0.133711 -0.0052042 2.96428
-1.13198 0.724386 2.94486
-3.14285 -3.24878 6.92852
1.09646 0.784344 2.80786
1.46511 -0.639694 2.9256
-1.18674 0.118998 3.13699
-0.101769 -1.69848 3.5255
1.24705 0.832676 2.73711
-0.196301 -0.649898 3.25761
-0.0690689 0.178279 2.96761
-0.879473 -1.52634 3.42641
1.2099 -0.584537 3.02922
1.43136 0.764736 2.61646
0.181981 -1.53316 3.52447
-0.231669 0.141706 2.98933
0.297643 -0.0408072 2.96526
-0.230819 -0.0054702 3.04522
0.0168438 1.19509 2.88275
1.44081 -0.771998 2.9168
0.139525 0.736282 3.02697
2.32225 -1.52622 4.21148
1.16154 -0.779053 3.1137
-1.16223 0.670174 2.89067
0.319226 -0.788059 3.31356
1.78332 0.0594246 2.76887
-1.00428 0.79265 2.91933
1.52573 -1.5001 3.45332
1.64129 -0.827121 2.73192
1.61119 0.0261582 2.67378
-1.33561 -0.718932 3.27628
1.71726 0.700536 2.71444
0.247864 1.27357 2.91971
-1.19936 0.534979 2.76319
1.27877 1.14845 2.6848
-1.02012 -0.158169 3.15297
0.295246 -1.00566 3.39827
1.86526 0.995594 2.5519
-0.0679752 -0.112335 3.03437
0.192937 -0.936267 3.31323
-0.719695 0.641474 2.98668
-1.20111 -0.0739962 3.10071
-1.07136 0.590061 2.90579
1.32103 -0.845174 3.04711
-0.917876 0.466833 2.96074
-0.746323 -1.1734 3.39573
1.6031 -0.297401 2.73645
0.837976 1.13846 2.79875
1.49918 0.393431 2.73662
-1.05103 -1.08515 3.30185
-0.299078 -0.276496 3.06218
-0.0924804 0.832476 2.11994
-0.0205623 -1.08157 3.39028
-1.09348 0.532945 2.93606
-0.517067 -0.235452 3.07758
-0.458283 0.873202 1.89729
0.190989 -1.1147 3.61712
-1.71161 0.622165 3.63977
-1.04449 -0.197159 3.11275
-0.136412 0.84262 2.00492
0.394505 0.48559 2.93469
1.27082 -0.278333 2.86783
-0.156334 0.839289 1.99258
-1.11171 -1.1039 3.32355
-1.31312 -1.03599 3.25759
0.754914 1.13881 2.81162
1.56816 -0.24571 2.85469
-1.10344 0.460743 2.92463
0.804943 -1.07443 3.42245
-0.954982 0.557577 2.95485
-1.35381 -0.207174 3.08635
-0.607946 0.841751 1.87088
1.384 0.500399 2.8159
1.18206 -0.967463 3.22668
-0.892384 -0.162465 3.09117
0.95098 1.0365 2.80093
0.132179 1.33031 2.88447
1.06708 0.342006 2.90495
-1.06383 -0.405686 3.16621
0.622194 -1.30885 3.48011
-1.35572 -0.38201 3.17953
0.312137 1.18201 2.97577
-1.37073 -1.16416 3.25189
1.79362 0.400467 2.79806
-0.267649 0.775308 2.01052
0.506892 -0.330457 3.03857
0.403539 -1.24391 3.53091
1.50293 0.347034 2.75104
-0.0116083 -1.53879 3.63335
-0.791611 0.257131 3.02646
1.51599 -0.506263 2.73435
-0.694507 0.66973 2.04262
0.807284 -1.71793 4.13181
-0.758044 0.21633 2.94701
0.766061 -0.5182 3.07625
-0.769362 0.64648 2.0337
-0.335245 0.318416 2.96289
1.40923 -1.67936 3.55657
1.40898 -1.52531 3.74094
0.921373 -0.473837 3.02643
-0.00288469 1.05204 2.93585
0.440877 -1.41503 3.62624
0.84306 0.27589 2.90856
-1.03412 -0.441288 3.16806
1.6702 0.880542 2.56996
1.64841 0.744897 2.67758
0.0444469 0.100197 3.00044
-1.4031 -0.674426 3.15296
0.580256 0.898325 2.94809
0.133437 -0.651289 3.21541
0.639264 0.166404 2.90515
-1.04761 -1.5518 3.44299
1.25936 -2.02256 4.12208
0.993095 -0.59126 3.04998
0.740798 0.846508 2.89812
0.482008 -1.65002 3.76132
-0.745329 0.139437 2.98928
-0.278682 0.971916 2.38086
0.287505 -0.52634 3.12915
0.168198 0.280403 2.92924
-0.186634 -1.46638 3.56289
0.88733 0.98093 2.85253
-1.34522 -0.497317 3.22934
-0.197922 0.984614 2.96614
0.0971988 -1.39924 3.48509
-1.38794 0.255317 3.01369
-0.532483 0.357131 2.99965
-0.34049 -1.36319 3.52721
-1.43299 -0.458204 3.19718
-0.342576 0.746526 2.00972
-0.474161 -1.31953 3.53465
0.336167 0.308669 2.92884
-0.524983 -0.417786 3.2469
1.30824 0.983824 2.74191
-0.280464 -1.64124 3.63029
1.44707 -0.593333 2.84951
0.955465 0.12577 2.9056
-0.376002 0.892274 3.04941
0.63098 -0.605675 3.15433
0.978245 0.913154 2.86099
0.0413269 -1.54237 3.53048
1.64692 0.186444 2.70589
-0.96476 -0.564779 3.15285
-0.798739 0.638245 2.10681
-0.289869 -1.49377 3.53885
-0.309484 0.175068 2.96789
1.19872 0.0148618 2.79406
1.53737 -1.01563 3.28816
1.26201 -0.763778 3.0163
-0.238928 0.772823 3.04692
-1.19387 -0.768047 3.28022
-0.0219645 0.731588 3.04024
-0.276481 1.04846 2.86695
0.160008 -0.0140757 2.96458
-0.765852 0.107871 3.02736
-0.723058 0.822406 2.95751
1.00289 -1.74403 3.68628
-0.474526 -0.739868 3.27204
1.62316 0.601618 2.54987
-1.19012 0.0685395 2.97234
0.496147 -0.695041 3.21327
0.401978 0.801842 2.99459
1.29769 -0.887805 3.05923
1.00122 0.586055 2.93126
-0.546798 -1.61757 3.44876
-0.462809 0.717303 1.93727
1.43262 -0.126526 2.75778
1.91929 0.442671 2.65012
1.19146 -0.0799523 2.77658
0.855302 0.661274 2.91242
0.976894 -0.920828 3.32502
-0.037601 -0.0478745 3.01725
-0.679991 0.632923 2.97769
0.438828 1.30373 2.88281
1.74223 -0.735056 2.76298
0.260225 0.213414 2.96193
1.04315 -1.57692 3.57135
0.61671 0.943965 2.94574
-1.39357 -0.632391 3.33365
-1.20995 -1.41337 3.36826
-0.408308 -1.59065 3.42856
1.42123 0.158167 2.84142
-0.141924 -0.558936 3.13904
-0.460905 0.891517 2.89114
-1.09346 -1.34087 3.29325
0.896759 -1.78335 3.64982
-0.911828 -0.511207 3.14125
-0.0070623 0.25006 2.9481
-0.309023 0.744246 2.19631
1.23612 0.743655 2.77429
1.41207 -0.727324 2.98452
0.807472 0.0583 2.89852
-0.732981 -0.736575 3.2916
1.15837 0.722878 2.83773
-0.835377 0.0356702 3.06454
-1.22277 -0.714807 3.39058
1.75356 0.112746 2.74487
-1.2191 0.831896 2.82223
-0.274809 0.840913 3.0172
1.82927 -0.533561 2.79117
-1.18534 -1.561 3.4518
-0.306227 0.104304 2.95401
1.00442 -0.622091 3.02983
1.13174 -2.12039 4.84091
-0.547244 -0.95373 3.51827
-0.0248979 -0.0741359 3.00746
-0.503328 0.701964 3.07713
-0.32976 0.656553 3.07796
1.20312 -0.827059 3.12252
-1.17994 0.0101946 3.09088
1.08291 -0.0499595 2.88339
1.74889 0.987336 2.54953
-1.60794 -0.83297 3.34436
1.30039 0.667337 2.77782
-1.04972 -0.00816858 3.05202
1.8683 0.518915 2.64738
-0.383942 -0.239923 3.05475
-0.0155579 1.22639 2.64658
-1.34772 -1.00967 3.16885
0.698387 0.526931 2.95362
0.983415 1.1611 2.77231
0.0095808 -0.202702 3.04716
1.03173 1.22786 2.75272
0.149553 0.490708 2.91688
-1.286 -1.05581 3.40002
-0.592541 0.629134 3.11289
1.12449 -0.156451 2.83616
0.976921 -0.977984 3.26453
-0.146281 -0.95768 3.39389
0.315784 1.2701 2.90541
0.911983 -0.120758 2.94374
0.0206862 0.581341 3.04121
1.86829 -0.551057 2.76795
-0.38584 -0.869254 3.35012
0.457949 -0.0153001 2.98
-1.04965 -0.0402972 3.11146
-0.753693 0.723102 2.99969
-0.14897 -0.816181 3.31405
1.09817 0.657495 2.89653
-0.775642 0.0723575 3.05387
1.89559 0.142146 2.74216
-1.13864 -0.789295 3.34624
-0.779655 0.801216 3.0064
-0.34055 0.0283649 2.97031
-1.01899 0.783415 2.83075
0.952422 0.733149 2.87742
1.1225 -0.694269 3.01945
-0.601489 -0.204177 3.09868
-0.654658 0.793302 1.86477
-1.82991 -1.1823 3.78325
0.194665 0.549888 2.90949
0.909965 1.20777 2.78058
1.53978 -0.162544 2.81464
-0.595437 0.827256 1.87271
-0.991027 -0.974201 3.35144
0.886436 0.241923 1.36439
-1.0417 0.789633 2.85292
-0.415315 -0.116229 3.0115
-0.585187 0.644358 3.03331
0.277531 -0.96733 3.39466
-2.66445 -0.26506 5.76574
1.39736 -0.800715 2.8748
-1.21517 0.590349 2.90006
0.137813 0.4584 2.92652
1.49429 -1.1608 3.24629
-0.84947 -0.338101 3.17726
-0.661927 0.745041 1.84559
1.40401 -1.15681 3.38893
-0.0948008 0.430873 2.96985
0.816873 1.11529 2.82827
-1.07366 -0.285375 3.14982
-0.562837 -1.14814 3.57434
1.40819 -0.229765 2.75445
1.69393 0.471504 2.85783
0.355919 1.21572 2.90252
0.993395 1.00024 2.78174
-0.999797 -0.46836 3.0904
-0.144665 0.319037 2.97148
-0.543342 -1.36998 3.45485
0.839166 0.980112 2.83553
-0.464418 -0.451147 3.23995
1.12692 -1.33677 3.39991
-0.899243 0.291729 3.00034
0.366406 -0.407025 3.12028
0.678647 1.10412 2.88939
-1.15501 -1.23109 3.34256
0.472229 0.374764 2.89236
-0.650034 0.719997 1.92824
0.371677 -0.376 3.13302
0.121311 -1.29017 3.55797
1.55932 0.30794 2.68824
0.168059 1.08498 2.94937
0.980817 -0.4428 3.01437
-1.14966 0.352317 2.99076
0.699327 -1.41183 3.60544
-0.479905 0.715394 1.98404
1.50429 -0.38285 2.78707
0.512589 -1.36795 3.62153
-0.424326 0.309976 2.95061
0.6499 -0.36426 2.96434
-0.361401 0.764057 1.94932
0.0938115 -1.29711 3.55955
-1.2358 0.430225 2.99415
1.57473 0.983655 2.55912
-0.269255 -0.335283 3.1129
1.36205 -1.19668 3.3396
0.185745 0.373024 2.91784
1.07895 0.234118 2.90143
-1.04141 -1.38258 3.27542
-0.377589 0.708805 2.11913
1.51664 -0.53902 2.87992
0.615238 -1.53471 3.71416
0.648065 0.202729 2.90931
-0.592954 -0.532214 3.20347
-0.588185 0.654605 2.05026
1.24303 -1.49363 3.65954
1.56964 -0.449443 2.75962
1.00946 0.271725 2.91608
-0.250898 0.906655 2.58451
1.29632 -0.678836 2.90967
1.3956 0.753197 2.72049
1.71207 0.0889262 2.76223
-1.1771 0.737237 2.73776
1.36212 -0.658983 2.98838
1.6539 0.0441288 2.81737
0.742655 -0.645972 3.12785
1.06859 0.156265 2.85023
1.43724 -1.66761 3.62669
-0.829811 0.632459 2.08632
0.680079 0.861154 2.96059
1.35602 -0.569873 2.89857
2.39992 -0.963804 3.83528
-0.594802 0.132622 2.99491
1.21915 -1.70122 3.8307
-0.277238 1.08585 2.45641
0.877014 -0.857135 3.23233
-1.16591 -0.0155882 3.0874
0.519149 -1.47366 3.56738
-0.073362 -0.0496987 3.01876
1.35119 0.65001 2.72408
-0.193675 -0.811131 3.28302
1.47177 0.613235 2.74451
0.74098 -1.88569 3.97005
1.00407 -0.78683 3.24143
1.9038 0.375675 2.67774
1.58995 -1.48516 3.3997
1.63994 0.0103121 2.76315
0.049563 0.76459 3.03192
-0.760495 0.626127 2.15697
-0.21021 -1.68183 3.60839
-1.3247 0.139514 3.08831
1.64935 -0.605029 2.85045
0.210267 -1.69169 3.69772
-0.478482 0.679734 2.12436
-0.225311 -0.61407 3.19766
-1.05933 0.217397 3.02874
1.1434 -1.49493 3.36526
0.936715 -0.558602 3.02308
-1.1393 0.745894 2.45969
-1.16404 -1.40434 3.32469
-0.720967 0.171973 2.95057
1.09194 -0.787968 3.11079
-0.874254 -1.25796 4.48044
0.914801 0.016331 2.91248
1.49514 -0.0276588 2.80429
1.26649 0.698876 2.78404
-0.600229 -0.757506 3.19928
-0.251984 1.08073 2.45388
1.14784 0.681692 2.84722
0.0148392 0.0944814 2.9733
1.56844 -1.37761 3.19725
0.797021 -0.733549 3.17237
1.12283 0.779097 2.8133
0.962207 0.0495419 2.90657
-0.525982 0.78032 2.26796
0.499599 0.776422 2.92213
1.66436 -0.631511 2.82509
-0.380963 0.607208 3.04177
1.82676 1.03905 2.55017
1.36303 -0.127157 2.71252
-0.0471997 1.07 2.40805
1.37148 -0.90399 3.09314
1.88863 0.0839621 2.72741
-0.317838 0.687894 3.05663
-0.541378 -0.0845238 3.06412
1.40999 -0.849585 3.01973
1.7372 -0.0567762 2.77601
-0.0845856 -0.877636 3.33069
1.45971 0.563242 2.69178
1.02782 -1.1314 3.30995
0.569963 0.484198 2.94008
0.505214 1.26199 2.87743
0.739986 -0.289957 3.03568
1.00903 1.14808 2.75316
1.47275 0.428181 2.80494
-1.15242 -1.0486 3.28432
-0.722032 -0.246887 3.04636
0.723233 1.15702 2.86484
-0.59307 -1.11731 3.5946
1.3277 0.519878 2.79525
-0.788567 -0.205855 3.05473
-0.159899 -0.997807 3.36049
-0.767066 0.537327 3.03799
-1.43871 -0.171181 3.088
-0.443713 0.899866 1.87767
-0.114267 0.794141 2.98426
-0.360981 0.843172 1.92765
1.30752 -0.729569 2.98177
1.09791 0.0519703 2.83065
-0.58886 0.768669 3.03472
-1.35773 -0.725996 3.21653
-0.0413199 0.0240607 2.95487
-1.41057 0.136623 3.05333
1.94945 0.706511 2.58737
-0.734324 -0.693034 3.26237
-0.66917 0.857397 2.89341
-1.1116 0.112698 3.12218
-0.443625 -1.60905 3.56746
0.270646 -0.0857754 0.144047
0.638835 -0.653785 3.18812
1.50402 0.73064 2.63723
1.1109 -0.858321 3.09006
-0.185525 0.672068 2.95072
1.86681 0.107937 2.73467
0.978033 -0.0807838 2.9184
-1.28941 -0.824192 3.18784
0.783043 0.619293 2.93406
-1.47618 -1.58449 3.36436
1.48546 -0.0561482 2.8473
1.52246 0.381933 2.28516
1.79313 0.958881 2.54677
-0.861552 0.713455 2.97693
-1.00502 -0.00448218 3.07337
1.18512 -0.775076 3.07543
-1.09396 -0.249879 3.14157
-0.548552 0.819918 1.88862
0.786648 -1.09313 3.35332
1.68224 0.454492 2.60761
0.979147 -0.20803 2.93507
-0.716879 0.781934 1.86342
-0.125541 0.684598 1.64051
-0.576359 -1.05683 3.40899
-0.390341 0.497108 2.97493
-0.488524 -0.995533 3.36422
0.0963838 0.60152 2.99742
-1.46778 -0.167418 3.0931
-0.999462 -0.924416 3.2837
0.515588 0.543113 2.89796
-0.679022 -0.123681 3.04683
-0.653145 0.857668 1.86069
1.37349 -1.2261 3.32716
0.333851 -0.374392 3.09549
1.28507 0.364055 2.84974
-0.540035 0.74827 1.9445
0.0504602 -0.330994 3.0631
-0.315016 0.790245 1.968
-0.555594 0.464491 2.97363
-1.52238 -1.14864 3.26503
1.00541 1.12276 2.84948
0.120591 -0.286946 3.06022
1.82278 0.393695 2.7869
0.538184 -1.19502 3.53035
-0.248715 -0.210539 3.07959
-0.262611 0.869326 1.95665
0.443997 -1.07377 3.43086
0.377595 1.34798 2.89666
-0.860353 0.599086 3.16022
-0.283234 0.921988 1.9355
1.75991 0.733287 2.6012
-0.437718 -0.167826 3.07653
0.28061 0.514627 2.93245
0.209565 -1.05603 3.54357
-0.1962 0.654546 3.08294
-0.552623 -0.130222 3.07188
-1.3227 -0.922027 3.26124
-0.491441 -0.95894 3.50684
-0.068218 -0.0812861 3.02305
-0.12768 0.604313 2.9916
0.726336 -1.23261 3.48032
1.73151 0.420771 2.696
0.971365 -0.32402 2.91249
1.48352 1.02877 2.52998
0.487212 0.412009 2.91379
1.3566 -1.14959 3.34427
1.13386 -0.27886 2.85686
0.104752 1.13676 2.90258
1.19776 1.1289 2.69736
1.53878 0.44004 2.7069
0.989886 -0.24877 2.93859
0.198617 -1.12053 3.45771
0.886337 -0.485146 3.0707
-0.0589938 1.07045 2.98384
1.54119 0.277185 2.71805
-1.07712 -1.32779 3.33999
-0.961912 -0.461074 3.25303
-0.0428899 1.02522 2.96856
-1.44797 -1.19888 3.08482
1.72103 0.252223 2.6809
-1.12941 -0.421153 3.25361
0.0813484 0.376622 2.9138
1.52022 -1.31661 3.43018
0.279499 1.13575 2.9736
1.61328 -1.19539 3.21785
-1.48035 -0.385226 3.21888
-0.758138 0.70642 1.89606
0.183117 0.343754 2.92456
0.562823 -1.58181 3.6059
-1.2695 0.222942 3.02592
-1.4303 -0.605547 3.1667
1.57677 0.824667 2.6002
0.517132 -1.59632 3.73979
-1.1059 0.171329 2.92567
1.51377 -0.566213 3.05838
1.41134 0.815678 2.70289
0.986947 0.949508 2.86005
0.60191 0.239934 2.91046
0.0527452 -0.53298 3.1739
-1.35806 -1.32646 3.25689
0.637237 0.233039 2.93135
-1.18207 -1.36405 3.22739
0.185414 0.983235 2.99215
0.680213 -0.575758 3.12501
-0.413554 -1.47828 3.57668
-0.81943 0.20803 2.9647
-1.27442 -0.541749 3.25634
-0.268635 0.952511 3.02335
0.114473 1.01333 2.96096
-1.03163 -1.62978 3.45937
0.439404 0.272114 2.90947
-1.06118 -0.485758 3.09076
0.306275 -1.47788 3.64544
-1.12888 0.77059 2.76615
-1.08073 -0.765955 3.33729
-0.227755 0.0938943 3.01562
-0.0451853 -0.702866 3.24492
-0.0431119 0.785144 2.98038
-0.725039 0.0610666 3.01767
0.373949 -0.650158 3.15579
-0.111627 0.167296 3.00766
-0.33942 -1.59384 3.52051
-0.178026 0.90043 3.01653
0.0918518 0.706096 3.3421
-0.746459 0.862391 2.9378
-1.03317 -1.46144 3.30643
1.41954 0.111256 2.87148
1.4496 -0.5843 2.94629
-0.298409 0.858929 1.9311
-0.852413 -0.999316 3.75026
-0.958014 0.699852 2.944
-0.150177 -0.0503014 3.01318
1.51094 -0.681115 2.66972
-0.97405 0.728643 3.25019
0.310133 -0.0188093 2.97065
-0.212204 1.01318 2.76517
1.81628 0.352131 2.67871
0.708109 0.740865 2.95749
-1.20406 0.0249272 3.09143
1.51559 0.406715 2.27159
1.46233 -0.7244 2.94048
0.438992 -0.212168 3.00064
-0.129502 0.942663 2.14989
0.354894 1.28265 2.89876
-0.458452 -1.09299 3.48442
-0.987684 0.55402 2.96334
1.33712 -0.169943 2.80849
-0.633037 0.807645 1.86557
1.69799 1.11181 2.56109
-1.10889 -0.967978 3.26557
-0.356772 0.524976 2.98306
-0.592558 -0.983396 3.43431
-1.12846 0.606026 2.8669
-1.03534 -0.132677 3.16647
1.7134 -0.794403 2.8063
1.56818 0.531693 2.70264
-0.747036 -0.0852824 3.01475
0.686356 -0.808996 3.18522
1.05608 0.0123853 2.90181
2.55481 0.00281774 3.78839
0.937556 -0.0256676 2.90648
-0.304542 0.771438 3.08395
0.223449 -0.789512 3.27745
1.03533 0.687599 2.88793
1.85746 -1.40646 3.26873
-1.38592 -0.723442 3.14278
-0.869566 0.766737 2.65009
-0.361601 0.0514635 2.97141
1.3518 0.714642 2.72964
-1.38726 -0.173111 3.08305
1.35135 -0.941553 3.07197
-0.398759 0.589888 2.98186
1.89741 0.590408 2.6391
1.5518 -0.136752 2.76008
-0.547124 0.855084 1.88399
1.88152 0.371345 2.66757
-1.43748 -0.910697 3.17817
0.617249 0.546268 2.93848
0.873723 -0.0934926 2.97256
1.39757 0.5999 2.72137
-0.103857 -0.918152 3.32627
0.784743 1.27956 2.83385
0.646285 -0.058968 2.95374
-1.40452 -0.824811 3.13209
1.74007 0.563305 2.72064
1.15634 -1.16426 3.38421
1.74932 0.449847 2.74466
0.0775424 -0.293287 3.06587
-0.451032 0.775919 1.86275
-0.703526 0.473263 3.06302
0.100683 -1.15554 3.54738
0.000273956 0.844452 2.09144
0.4764 -0.258318 2.98389
1.5905 -1.00237 3.13505
1.66333 -0.205214 2.73762
0.621565 0.51213 2.93765
-0.691954 0.71162 1.91368
1.33435 -0.41562 2.75933
0.974476 1.02673 2.79145
1.2999 -1.37179 3.44831
1.40603 0.31518 2.80925
-0.256139 -0.418174 3.15438
0.527783 1.03637 2.92038
0.330993 -1.32332 3.49419
0.248597 0.303291 2.9319
1.55274 0.365891 2.65366
1.28619 -0.3641 2.87221
0.698507 -1.28932 3.50172
1.19422 1.07105 2.73515
-0.622609 -1.20205 3.42849
1.81575 -0.335614 2.83158
1.34477 1.01971 2.68419
1.2344 0.358945 2.86883
0.773543 -0.899252 3.22472
1.56153 -0.0934176 2.85501
1.93199 0.000323432 2.73698
0.0840812 0.660103 3.12465
1.03849 -1.75511 3.69463
1.26636 -0.0564079 2.80027
1.65201 1.14291 2.56437
0.369603 0.725332 3.02703
-0.482619 -0.876457 3.34111
0.786558 -0.0214972 2.93053
-1.2318 0.657128 2.88305
0.22997 -0.833102 3.31069
1.32845 0.500859 2.86492
1.24915 -0.242364 2.79455
-0.262005 0.878341 1.97248
-1.22837 -1.05677 3.3061
-1.27342 -1.01478 3.30419
-0.383125 0.779096 2.02934
0.844191 1.17105 2.80849
1.56097 -0.213831 2.8835
-0.467913 0.496448 3.00175
-0.681755 -1.00538 3.40128
-0.898634 0.596521 2.99914
0.0619232 -0.1683 3.03445
0.277451 0.546685 2.9357
-0.292273 -0.949603 3.33534
-0.607955 0.872411 1.88271
0.514137 -0.13207 2.9645
0.906455 1.06589 2.79177
-0.649131 0.384443 2.99314
-1.00888 -0.373605 3.13735
-1.15787 -1.21301 3.34447
1.6151 -0.326765 2.85373
-0.474812 0.756778 1.87749
1.12852 -1.21801 3.42331
0.60107 0.452666 2.92792
-0.76635 0.7273 1.85147
-0.511827 -0.290275 3.07643
0.807261 0.41307 2.93575
1.00985 -1.20431 3.51071
1.47427 -0.48887 2.8155
-0.58411 0.282588 2.97336
-0.443756 -1.44289 3.51769
1.08516 0.956193 2.78045
1.36671 0.891801 2.70352
0.973885 -1.54037 3.77821
-0.317333 0.246415 2.99054
1.26772 -0.478364 2.95179
-1.41191 -1.22748 3.1667
-1.09426 0.348625 2.94983
0.401102 -0.447495 3.09159
-0.695664 0.720306 1.93799
-0.176698 -1.33906 3.57037
1.00584 0.297623 2.93846
1.06759 -0.395136 2.93475
0.172002 1.03768 2.91669
0.739248 -1.16588 3.27781
0.994417 0.44734 2.9238
0.0244392 -0.339051 3.07652
-0.527989 0.42272 2.9871
0.37923 -1.20572 3.53906
1.02052 1.09203 2.78377
-0.995417 -0.29255 3.12945
0.217364 1.20946 2.89074
-0.842138 0.500292 3.02023
-1.3126 -0.258394 3.14438
1.55084 1.02937 2.55524
-0.956675 -1.02368 3.1619
-0.243443 -0.497944 3.15494
1.35485 0.958654 2.69628
0.599918 0.297866 2.91048
-0.868525 -1.41 3.52711
-1.30651 -0.452151 3.15984
1.47177 0.884135 2.58266
0.401762 -1.39113 3.55019
0.874011 0.267616 2.89624
1.66153 0.334752 2.67061
0.905875 -1.32488 3.49313
-0.185149 0.790448 2.06965
0.237247 -0.409806 3.10012
-1.07447 0.352164 3.02482
1.26205 -1.2466 3.36232
1.12009 1.01728 2.7626
1.59911 -0.361299 2.83422
-0.967213 -1.48667 3.41114
-1.33858 -0.644854 3.37301
0.397983 0.162603 2.9234
-0.401295 0.905558 3.01146
-0.478522 -1.60469 3.41447
-1.44955 -0.579636 3.18469
-0.852529 0.668017 2.01882
0.814261 -1.53478 3.57305
-0.831397 0.242296 2.98401
-1.00049 -0.544175 3.21812
1.67398 0.808478 2.5587
0.816233 -1.5775 3.78896
1.24579 0.189884 2.80774
-0.033475 0.0544026 2.95916
-0.229832 1.06848 2.45275
0.994618 0.766128 2.89507
1.68277 -0.712965 2.86469
0.987767 -0.736251 3.15706
0.0268165 0.759451 3.02927
0.685769 0.0165232 2.92658
0.765301 0.119623 2.88722
-0.298996 0.874403 3.02937
1.82588 0.723349 2.58958
0.875341 -0.687347 3.1397
0.627326 -1.79174 3.90245
0.27879 0.0899103 2.96561
1.06139 -0.640738 3.07935
2.50894 0.0254778 3.76127
0.764549 0.80842 2.91114
0.713177 -0.74007 3.17044
1.19953 0.763929 2.78582
1.07013 0.0775379 2.8278
1.39755 0.698976 2.67939
1.47778 -0.641014 2.86109
1.14826 0.0373192 2.86469
-0.607975 -1.57219 3.46118
-0.6806 0.159888 2.95922
2.06529 1.16269 2.80725
-1.37156 -0.647619 3.16487
-0.115893 0.924903 3.09283
-0.263301 0.121986 2.98473
-0.678103 -1.54497 3.51879
2.12366 1.06626 2.77484
0.22992 -0.629935 3.22304
1.64725 0.74343 2.61673
1.1188 -0.823851 3.07493
0.793669 -0.0612898 2.92487
0.591524 -1.80192 3.73617
-0.271408 0.699488 3.15382
1.91866 0.643912 2.63153
-1.4296 -0.0233483 3.08517
-0.904012 -1.61898 3.41758
0.113948 0.75556 3.03732
1.91277 -0.167541 2.73759
0.814445 -0.816234 3.19014
1.2611 0.00723114 2.78968
0.337531 0.718609 3.02886
-0.414823 -0.792442 3.3021
1.29889 0.520903 2.82736
0.167764 -0.221627 3.05262
-0.278069 0.909576 1.96615
0.0481769 -1.07174 3.40705
-0.649754 -1.00705 3.37833
-0.447503 0.756806 2.22485
-0.684305 0.801805 1.86578
0.998001 -0.182097 2.9489
0.828247 0.5165 2.98091
-0.548847 -0.956776 3.32685
1.05257 0.602497 2.90387
-0.393271 -0.141277 3.08446
0.437949 0.570427 2.91382
1.22151 -0.893417 3.16393
0.677849 1.26067 2.85675
0.415672 -0.098209 2.98065
-1.03446 -1.22229 3.49039
-0.378195 -0.348233 3.10844
-1.31516 0.420547 2.95399
-0.393525 0.7593 1.94391
1.659 -0.275912 2.63136
1.17217 1.1275 2.71434
0.297411 -1.21517 3.54648
0.360601 0.472825 2.88768
1.14452 -0.254411 2.85419
0.397061 1.14824 2.86488
-0.592125 0.454569 2.96292
0.448122 -1.15831 3.52941
1.27086 -0.174196 2.79276
-0.422397 0.723903 1.96896
0.309005 1.32346 2.9053
-0.948105 -0.991456 3.35634
1.13368 0.558752 2.86117
-0.685026 0.856499 1.8654
-0.813737 -0.136083 3.06423
-0.563046 0.560586 3.02221
1.83334 0.663591 2.60709
-0.778894 -0.953031 3.33594
-0.578648 -0.0960916 3.07842
-0.892222 -0.897462 3.27547
-0.1179 0.694551 3.12167
-0.189082 -0.899894 3.41755
-0.325132 -0.0586145 3.04493
1.39206 0.569682 2.77459
-1.42953 -1.08678 3.20487
0.0402741 0.494691 3.00399
0.828948 -0.302058 3.0053
0.62288 1.2017 2.8886
1.42057 0.419414 2.78922
-0.391302 -1.20144 3.66765
-0.338684 -0.262467 3.08832
1.42689 1.06241 2.64583
-0.369231 0.850351 2.41277
0.0968365 0.51598 2.96457
1.30093 -0.21326 2.81756
0.692944 -1.09177 3.42141
-0.912687 -0.460119 3.19551
0.825915 1.04491 2.84991
0.198803 -1.43486 3.64082
1.66635 0.300757 2.74468
-0.31038 -0.421659 3.15789
1.13073 0.992819 2.80174
0.679554 -1.3817 3.62042
0.915441 0.292473 2.88682
1.53611 0.371327 2.72032
1.64907 -1.21525 3.22763
1.53074 0.988291 2.53949
1.238 -0.373 2.93975
0.000776214 0.372242 2.95857
1.67248 -1.10337 3.06596
-0.808091 0.706946 1.87053
-0.72863 -0.346754 3.10646
-0.733988 -1.4872 3.48543
1.10365 -0.546518 2.93098
-1.36514 -1.29866 3.10457
-0.264966 0.194197 2.95592
1.65232 -0.49996 2.83564
-0.659709 0.644836 2.08339
0.739362 0.984105 2.88618
0.252179 0.273139 2.94285
-0.0403632 -0.511079 3.18034
0.96999 0.94095 2.8749
-0.588481 -1.40084 3.47846
1.51295 0.204704 2.72413
1.1214 -1.11362 3.36804
-0.517871 0.523643 2.98529
-0.0688318 -0.259379 3.07261
-0.317597 0.863958 1.94197
1.19977 0.465165 2.84898
-0.748099 -1.07002 3.43196
-1.13586 -0.220573 3.16095
1.55041 1.03476 2.48493
-1.51935 -0.956563 3.17289
1.66875 0.54268 2.77553
1.25397 1.17222 2.70328
-0.243239 -0.17627 3.06784
-1.12992 -0.915115 3.20844
-0.0233292 0.564736 3.02073
0.314729 -0.136848 2.98207
-0.515678 0.853849 1.88441
0.881097 1.07793 2.83318
-1.101 0.378381 2.99407
1.17987 1.00133 2.72708
-0.490747 -0.374904 3.07435
0.982196 0.330665 2.94313
0.0587356 -1.32751 3.62018
-1.13705 -0.361335 3.26694
1.5471 1.0065 2.50738
-1.25913 -1.15913 3.33459
0.756734 0.450414 2.94349
0.257928 1.14483 2.94074
0.450425 -0.292305 3.00271
1.32935 0.392144 2.8146
-0.618453 -1.18354 3.49006
-1.21071 -1.32634 3.24308
1.53109 0.238857 2.59003
1.31851 0.942818 2.74924
1.31544 -0.509735 2.91829
-0.676762 -1.40319 3.49744
-0.624267 0.235281 2.91259
1.00079 -0.490776 3.01987
-0.46678 0.687049 2.08122
0.729985 -1.40541 3.56679
0.69922 -0.456772 3.09478
-0.0336501 -1.34998 3.56958
0.766426 -1.81142 3.81853
1.50611 0.277896 2.77378
-0.192815 -0.417934 3.1284
-0.545804 0.699421 2.00116
-1.46123 -0.69239 3.19233
-0.647528 0.861383 2.97668
-0.122812 0.126238 2.99509
0.0629455 0.833556 3.02687
-0.723546 -0.684606 3.37482
-0.993491 0.10572 3.22786
0.0784179 -1.5883 3.47664
0.748099 -0.611499 3.12375
0.187793 0.949488 3.01604
0.63774 -1.65805 3.72989
1.53716 0.180171 2.81432
-0.178626 1.11824 2.87394
-0.734749 -0.572224 3.18319
1.59886 0.770086 2.58809
-1.34595 -1.40376 3.32542
-1.03971 0.167355 3.00203
1.00607 -0.481632 2.94973
1.08587 0.295935 2.92012
-0.69272 0.706165 1.97822
1.06961 -1.36323 3.33697
-1.09291 -1.28982 3.32474
1.24134 0.258392 2.83696
1.51538 0.88877 2.61292
0.0784962 -0.455597 3.1173
-1.48341 -1.23678 3.29133
1.09119 0.359054 2.89823
-1.3311 -0.431946 3.24046
-0.231642 0.776785 2.03586
-0.933551 -1.23993 3.41514
-1.36019 0.343717 2.99125
1.4902 -0.364073 2.83465
-0.42152 0.736629 1.99578
1.23218 0.833106 2.78313
-0.419023 0.159817 2.98697
-0.762784 -0.62467 3.2611
0.110095 -1.63548 3.69311
-0.709643 0.662478 2.00633
1.47205 -0.566847 3.02031
-0.351247 0.24043 3.04462
-0.173142 -1.5456 3.59448
-0.433843 -0.542406 3.21627
1.36077 0.849199 2.71618
0.224266 -1.47223 3.53726
-0.892228 0.197536 2.97013
-0.247113 1.01584 2.23591
0.49594 0.0470439 2.93612
-1.10227 -0.798725 3.36446
-0.621017 0.772379 2.94204
-1.07296 0.748982 2.97518
-1.41462 0.0209041 3.16808
1.39276 -0.708391 3.00069
0.391817 0.117078 2.9348
1.46709 0.330346 2.19054
0.57022 0.841947 2.9342
-0.86417 -0.699766 3.23477
0.139349 -1.58718 3.46488
-0.829593 0.0924679 3.02458
1.91672 1.13006 2.95424
-1.06975 0.787777 2.8377
0.180989 -0.663955 3.21062
1.28469 0.577672 2.78609
1.84249 0.320645 2.68443
-0.368653 -0.0915712 3.05803
0.0104174 -1.7187 3.67813
-0.990235 -0.908544 3.326
1.67293 -1.06705 2.94595
-0.661427 -0.0572678 3.0625
1.76573 0.666624 2.80549
1.48495 -0.800703 2.96284
-0.691746 -0.0204561 3.04729
-1.05359 0.661263 2.97496
-1.20345 0.238155 3.00156
-1.18662 -0.794738 3.20053
0.0177677 0.716998 3.24393
0.0351453 1.26545 2.85567
-0.473108 -0.061119 3.06337
-0.386022 0.866366 2.36069
0.115264 -0.884257 3.33415
-1.45425 -0.0286193 3.08773
-1.2 0.729524 2.91628
-1.23605 -0.789088 3.15122
1.44172 -0.0032292 2.80797
-0.699197 0.704922 3.01636
1.76109 0.932701 2.55589
-0.092019 -0.800505 3.31203
1.71195 0.48365 2.64187
0.335076 -0.228029 3.04858
-0.377161 0.846988 1.91256
-0.987382 -1.05686 3.38729
1.30808 -0.953107 3.10998
0.466689 0.498045 2.89994
-0.135685 0.992415 2.64358
1.16003 -0.17525 2.79039
-0.354958 0.869008 2.45738
1.84576 -0.861109 2.91416
-1.02252 0.611674 2.97352
0.985444 -0.148094 2.92576
-0.758999 -1.0156 3.6301
0.377645 0.566338 2.93308
0.483013 -0.102558 2.99025
0.926401 1.25351 2.77988
-0.553087 0.745637 1.90837
0.918457 0.400289 2.9387
0.472133 -0.347604 3.04478
1.22068 -1.18361 3.29298
1.58987 -0.305532 2.96688
1.64906 1.04945 2.54663
1.12308 -1.20595 3.4768
1.12158 0.466599 2.89424
1.3307 1.0617 2.64425
-1.42535 -0.270369 3.11291
-0.256107 0.456906 2.98747
0.59713 -1.12026 3.37701
0.402712 -1.44323 3.54166
1.17335 0.280662 2.82286
-0.799785 0.692975 1.96871
1.19518 -0.475496 2.88505
-0.209866 -1.40015 3.56144
-0.689285 0.270948 2.96942
-0.366517 0.720926 2.09565
0.737707 -0.452563 3.01904
0.0684913 -1.34988 3.54664
0.449634 0.357594 2.89094
0.70621 -0.418088 3.04475
-0.4521 0.741319 1.95256
-0.113346 -1.27156 3.47122
-0.969687 0.328258 2.96013
-0.239365 -0.385013 3.13126
1.50823 0.941623 2.58044
0.868732 -1.17369 3.38871
-1.50975 -0.321261 3.22292
0.455718 0.436886 2.90963
-0.294192 0.781421 1.96586
1.09117 -0.258745 2.85506
-0.696444 0.684897 1.9361
-1.35136 -1.06488 3.2319
-0.432022 0.519104 2.99761
-0.75527 -0.22102 3.05473
1.10496 1.1126 2.70602
0.914978 0.474122 2.93412
0.408079 -1.08073 3.4
1.51252 -0.434295 2.82346
1.15896 0.306599 2.83079
-0.599709 0.697547 1.94523
-0.437772 -1.36059 3.47774
-0.892595 -1.28277 3.40663
-0.03182 0.299215 2.93735
-0.660605 0.693995 1.95878
-0.588172 -0.430193 3.22118
-0.742592 -1.26224 3.44952
-0.92874 0.407329 2.95729
-1.09574 -0.37046 3.02538
0.396985 1.11055 2.8675
-1.06255 -1.18445 3.34904
1.67566 0.328864 2.71608
-0.610361 0.723529 1.91001
-0.787801 -0.354815 3.16466
0.881842 -1.50675 3.46435
0.89238 -0.574859 3.06013
0.296129 0.185536 2.94047
0.293304 0.940241 3.03592
0.818215 0.976974 2.88296
1.03376 -0.52884 3.00323
0.194923 -1.7004 3.5963
-1.53939 -1.38462 3.31474
1.14274 0.252824 2.83814
-0.179431 -0.510212 3.16447
1.11235 0.900259 2.77348
0.0161314 -1.44307 3.55344
0.360323 0.221294 2.92092
0.934441 -0.732664 3.12562
1.55999 0.0709159 2.97878
-0.537473 0.816096 2.99649
1.36556 0.697511 2.69141
0.287415 0.0395299 2.96485
1.10283 -0.675631 3.02937
0.204783 0.148649 2.96792
-0.566744 -1.56219 3.4349
1.38245 -1.36327 3.26698
0.966715 0.851432 2.87231
-1.35197 -0.665363 3.21196
-0.219705 -1.59429 3.58258
0.241442 0.114571 2.96683
-1.23651 -0.650299 3.34766
2.26793 1.07281 3.02684
-0.395113 0.872031 3.06517
0.482011 1.08291 2.86814
-1.24393 -0.418707 3.1647
1.4794 0.351241 2.87526
0.957995 -1.50298 3.92714
-0.225691 0.764304 2.06991
0.174056 -0.380329 3.07951
0.887184 0.322833 2.93247
0.932404 -1.33192 3.58245
-0.0164028 0.452528 2.9686
1.34388 -0.326114 2.77987
-0.412344 -1.25038 3.52947
0.484153 1.14682 2.8613
-0.42063 -1.19561 3.50224
1.1202 1.04721 2.6881
-1.12973 -0.303664 3.18932
0.759096 0.404133 2.92825
-0.0819331 0.273383 2.95861
0.875513 -1.50384 3.58873
-1.16299 -0.562089 3.34225
0.452289 1.00309 2.94335
-0.807219 -1.39374 3.47044
0.230133 0.227309 2.93486
-1.16686 -0.513 3.24705
0.385937 0.959664 2.942
-0.404943 -1.37759 3.52877
0.655027 -0.460192 3.08127
-1.35385 0.304563 2.95481
1.47307 0.911787 2.58653
0.401235 0.850009 2.97812
0.12645 -0.70853 3.23657
1.00276 0.108769 2.88495
0.563112 -0.669711 3.21166
0.442554 0.813659 2.95736
1.12599 -1.75788 3.7922
-0.477573 0.0861454 2.96686
-0.457944 -0.635595 3.28914
1.16115 0.175545 2.81053
-1.21103 -1.42293 3.22923
1.75848 0.0779249 3.30926
0.888843 0.910748 2.90993
1.70148 0.781828 2.63506
-1.11351 -1.41868 3.32504
-0.266667 0.15586 2.94719
-0.488228 -0.597054 3.28564
-1.24765 0.0180588 3.12593
-0.34883 -0.846364 3.37026
0.904139 0.718222 2.89375
1.71357 -0.0357628 2.72048
-1.41879 -0.77238 3.19803
-0.53851 0.718828 3.06142
-0.785016 -1.26193 4.36702
1.54789 0.0507781 2.37198
0.607672 0.789784 3.00096
-0.60953 0.0506081 3.01853
1.09865 -1.67317 3.51851
0.0273849 1.222 2.8856
-0.0902225 -0.748715 3.2529
-0.574065 0.823939 2.73082
1.13778 0.139035 2.83682
-0.52033 -0.63302 3.25109
0.257051 0.866226 3.04659
-0.804274 -1.55566 3.52023
-0.940098 -1.62989 3.44006
1.68379 0.0968661 2.77282
0.556553 -0.590959 3.18664
-0.564111 0.68391 2.09054
0.258432 -1.56355 3.6213
-1.00371 0.239867 3.01805
-1.22206 -0.560087 3.29915
1.20749 0.861822 2.77778
-0.0871619 -1.49677 3.59433
-1.42676 0.199966 3.08526
2.15052 1.06662 2.93539
0.19047 -0.797499 3.28479
1.63748 0.0315476 2.72002
-1.13093 0.781941 2.96833
-0.602589 0.0139356 3.03407
-0.696254 0.731572 2.95598
-1.18682 -0.725379 3.18959
-0.358847 0.982415 2.70355
1.6338 -0.663909 2.93501
1.56401 0.0634506 2.71096
0.668536 -1.85065 4.01866
1.97114 0.111844 2.63451
-1.25399 -0.678596 3.31223
0.0848965 0.824163 3.01548
1.61688 -0.144677 2.80231
1.44381 -0.870662 2.93821
1.07825 0.593566 2.88739
1.93481 0.547918 2.64104
1.1555 -0.098418 2.78749
0.393028 1.31822 2.89773
-0.0696632 -0.924203 3.3251
-0.645068 0.606264 3.08706
1.88897 -1.02722 2.90698
1.61944 0.61804 2.65225
-0.73803 -0.0582996 3.04199
1.53397 -0.800718 2.95596
0.872799 0.6375 2.91438
-1.38956 -0.022546 3.11351
1.52043 -0.758582 2.9275
1.18981 -1.29465 3.39942
-2.54676 -1.9648 5.52484
0.645643 0.505299 2.92648
0.624264 -0.263168 2.96677
-0.790044 0.735677 2.37372
-0.0984782 0.487555 2.96802
0.485773 -1.0943 3.45275
-0.411878 0.772542 1.87237
0.491141 -0.220178 2.98443
1.4767 -0.886608 2.87416
0.0853508 -0.17983 3.02917
-1.28686 0.532451 2.87086
0.157914 1.30261 2.89549
-1.09533 -1.01986 3.2439
0.458063 0.526634 2.90909
-0.297046 -0.228204 3.10131
-0.611645 0.896036 1.86309
-0.127707 -1.03963 3.43674
1.14357 0.494218 2.89926
0.948698 -0.191781 2.93156
-0.232859 0.814696 1.92897
-0.0546294 -0.978727 3.3494
1.79809 -0.151574 2.80707
-1.33571 0.566818 2.89898
1.06217 1.23217 2.73713
-0.756424 0.7275 1.87359
1.11301 -0.369551 2.90132
-0.75418 0.405161 2.97319
-0.397189 -1.30113 3.52934
0.634193 1.08693 2.88867
0.0895112 -0.35604 3.09787
-1.23118 0.374537 2.99753
0.519109 -1.29771 3.60583
0.935572 -0.306598 2.96438
1.37195 1.07923 2.62629
-1.04437 -1.13743 3.34552
-0.89464 0.478543 2.95742
0.852456 -0.276996 3.01229
1.63044 1.00126 2.49048
0.2674 0.431251 2.89155
0.0158854 -1.13459 3.42948
1.63132 0.259212 2.63582
1.36632 -1.42306 3.44103
-1.24316 -0.51912 3.25903
-0.483358 0.708318 2.00791
0.356391 -1.3333 3.36814
1.31715 0.249269 2.82566
-1.03961 -0.456131 3.10287
-0.512979 0.695874 2.03742
-1.12913 -1.2625 3.32975
0.80554 -0.423653 3.03868
1.46171 0.298317 2.79432
1.59568 0.944783 2.60058
0.0505018 0.900687 3.04936
-1.4203 -0.653552 3.11978
0.347955 0.149133 2.96075
1.14733 -1.66788 3.58538
0.337567 0.859515 3.02677
-0.499641 -0.648514 3.30924
0.181759 0.109998 2.95322
1.49051 -1.61079 3.54077
1.52443 -0.535061 2.79985
-1.32521 0.24053 3.06117
1.29844 -1.5809 3.61102
0.294838 0.974232 2.99843
1.437 0.821124 2.66909
0.922212 -1.53762 3.6334
1.01665 0.171077 2.85911
0.367499 -0.547621 3.14081
1.56504 -0.44345 2.8623
0.0806823 0.318948 2.91783
1.28693 -1.41587 3.53324
0.428298 1.04953 2.89353
0.567529 -1.36102 3.52953
1.24473 0.961759 2.7493
0.19402 0.290605 2.92365
-1.32449 -0.426874 3.16585
1.04884 -1.2106 3.24141
1.64465 0.362434 2.68126
0.615543 -0.385574 3.03303
0.0275656 1.11388 2.88153
-0.0890442 -1.36176 3.78919
0.227016 0.359028 2.93269
0.154229 1.10442 2.93869
-1.18231 -0.352828 3.12717
-0.064751 0.928073 3.0184
-0.963697 0.189632 3.04189
0.822973 -0.58213 3.10172
0.846731 -1.5071 3.45877
-0.600288 0.665586 1.9832
0.973023 -0.53893 3.02596
0.145477 0.266123 2.92886
0.13411 -1.54357 3.67686
1.13382 -0.482917 2.93314
1.52429 0.84911 2.6225
1.47764 -1.40673 3.37632
1.41128 0.20765 2.85734
-1.38691 -0.786558 3.32934
-1.46054 0.0835233 3.20479
0.300695 0.787011 2.91878
-0.959627 0.0448353 3.03679
-0.502138 0.797868 3.06268
0.257993 -0.725394 3.28274
0.813073 -1.74519 3.75865
1.00709 0.135451 2.87727
-0.560171 0.914472 2.86524
1.16873 -0.63204 2.95752
-0.457271 0.886417 3.00161
0.710463 0.103365 2.9072
0.150986 -1.61242 3.60199
-0.160817 0.527174 1.46593
1.48002 -0.576762 2.83151
-0.836321 0.845511 2.93985
1.1382 -0.107825 2.8065
-0.212466 0.651241 2.98145
1.19813 -1.70862 3.6648
1.24908 -0.896268 3.14696
0.379041 -0.0678063 2.95331
-1.04602 -0.875983 3.32145
0.455862 0.599927 2.95172
1.53444 0.262272 2.30669
0.604201 0.73605 2.9865
-0.756267 -0.0322553 3.0505
1.25247 -1.69848 3.5406
0.559775 0.00150283 2.97292
1.7798 0.799904 2.586
-0.943948 -0.987872 3.80054
1.27729 0.641026 2.786
-0.562182 -0.850129 3.46275
1.75939 0.906074 2.56462
0.0274995 -1.51453 3.63059
-0.276514 0.268461 2.96274
0.250084 1.01632 3.00054
0.904148 -0.540273 3.05812
-1.20355 -1.36521 3.40578
-0.869041 0.2307 3.01792
-0.688716 -0.509906 3.22133
0.702409 0.949864 2.91282
0.0622409 1.02183 2.9271
-0.96651 0.304425 3.01314
0.120584 -1.71451 3.61923
-0.0690773 -0.476599 3.18404
-1.0455 -1.31195 3.36986
1.16231 -0.673953 3.00638
0.723562 0.839842 2.95834
-0.895082 0.11964 3.04148
-0.847435 0.833223 3.04783
0.915289 -0.670311 3.17037
0.5261 0.0778673 2.91339
1.24467 -1.62242 3.48901
1.01972 -1.6227 3.61172
0.0342248 0.178416 2.94487
2.25139 1.04105 3.08159
1.55352 -0.567764 2.78373
-0.397709 0.914894 2.96707
-0.899781 0.153284 2.97939
-0.355212 -1.46747 3.42068
-1.15257 -0.602363 3.33474
0.180008 0.890099 2.99758
0.419591 -0.843064 3.29469
1.04413 -0.0364684 2.90289
1.59354 0.0469902 2.41234
0.890954 0.673223 2.88885
-0.518696 0.919414 2.87308
-0.0485927 1.11677 2.43854
-0.877039 0.768556 2.95347
-1.35356 -0.795949 3.30382
-0.105205 0.043782 2.99398
0.485609 0.734087 2.98526
0.572843 -0.758524 3.231
-0.194403 0.00999055 3.02179
-0.318966 0.66182 1.67571
0.502567 -0.182964 2.98804
1.52609 1.09894 2.5637
0.256877 -1.05604 3.48432
-0.17341 0.557145 2.84877
1.72539 0.923695 2.55819
-0.295299 -0.139625 3.01714
-0.167099 0.878306 2.01452
-1.29082 -0.936824 3.25934
1.64208 0.509526 2.81361
0.549341 -0.931329 3.30854
1.41789 -0.103657 2.73207
-1.30289 0.618041 2.80575
-0.669704 -0.915773 3.45078
1.58604 0.538515 2.65306
1.28608 -0.0684613 2.77666
0.285185 -0.819249 3.34744
0.0300657 0.038716 2.95717
0.447074 0.766692 2.95199
0.917976 -0.748416 3.16851
1.746 0.000938911 2.74405
1.01641 0.713263 2.89097
2.33948 1.02009 3.15008
1.512 -0.0325874 2.21669
0.695007 -0.702902 3.16534
-0.937551 0.083664 2.95926
1.96263 -0.00214546 2.6423
-0.508802 0.818669 3.01917
-1.13307 -0.148107 3.1015
0.756682 -0.975135 3.30556
1.70785 0.913563 2.56294
0.408168 0.56751 2.7881
0.764548 1.25197 2.83364
1.54835 -0.881175 2.80403
-1.47177 -0.104986 3.20357
-2.80831 1.13414 5.80529
-0.852832 -1.64652 3.45334
0.105213 -0.93696 3.34638
-0.911475 -0.0600278 3.08409
0.997504 -0.89228 3.29943
1.25881 0.65054 2.81087
-1.99913 -1.05163 4.04714
0.0532653 0.711404 3.21791
-0.347034 0.906233 2.60468
-0.307955 -0.029346 3.048
1.09472 -1.14538 3.43179
1.70026 0.457083 2.64536
-0.153534 -0.26638 3.05732
-0.370783 0.760643 2.17196
0.476365 0.467468 2.9011
-0.165116 -1.0852 3.43829
1.02192 -0.225253 2.91281
-0.190871 0.8113 1.96998
-0.61316 0.878672 1.86664
1.22107 0.509814 2.81529
0.435195 -0.185543 2.99771
1.50888 -0.991328 3.20694
1.31519 -0.392596 2.79891
1.47759 0.996355 2.64423
-0.276057 -1.3247 3.47291
0.702981 0.359813 2.92634
1.40167 -0.361674 2.82415
-0.532851 0.713465 1.95112
1.44756 -1.27112 3.38633
0.18586 0.320538 2.91647
-0.51888 0.445101 2.94786
1.67062 -0.325839 2.70929
-0.207876 -1.23262 3.46086
-0.362835 0.77134 1.91824
-0.129907 -1.18423 3.44163
0.323069 0.396769 2.91132
-0.187045 0.792989 2.0354
-0.647001 -0.301485 3.05296
1.70502 -0.358284 2.68887
0.736505 1.09893 2.85379
-1.32993 -1.215 3.30863
-1.34219 0.39804 2.93293
0.565435 1.08929 2.9157
-0.446605 -0.36997 3.19957
-0.124051 -1.33535 3.71285
1.71434 0.327839 2.71842
1.38659 0.443182 2.81044
0.59089 -0.320552 3.02519
-1.15063 -1.12829 3.27064
0.278804 1.20388 2.94815
0.565535 -1.179 3.51796
0.0516383 1.13044 2.84842
-0.188109 -0.27049 3.05336
-1.0465 0.424016 2.8659
1.05108 -1.4242 3.44716
1.77939 0.26938 2.79669
0.453295 -0.522516 3.1925
1.58171 0.899947 2.58004
-1.3385 -1.28067 3.27191
0.51599 0.252209 2.83269
1.44914 -0.441181 2.82127
1.58224 0.853527 2.546
-0.15244 0.901821 2.4534
-1.33553 0.338641 3.03043
-0.139353 -0.438082 3.14461
-0.828736 -1.27806 3.34957
0.645381 0.876351 2.95947
-0.069419 -1.70414 3.60473
0.620249 -0.678036 3.17585
-0.657622 0.145218 2.96921
-0.0469575 -1.68342 3.65762
1.25306 -0.611746 3.00873
-0.867396 0.824219 2.87292
0.878703 -1.73764 3.83269
-1.47654 0.124126 3.22625
-1.41107 0.228334 2.98102
-0.415355 -1.48097 3.42314
-1.18711 -0.613309 3.3322
1.31473 0.872083 2.70327
1.75187 -1.57246 3.68514
-1.29576 0.188305 3.04769
0.752167 -0.549551 3.09995
-0.777618 0.670276 2.17089
1.51502 0.0239703 2.89266
0.314347 -0.822655 3.34583
1.52978 0.6714 2.61352
-1.42728 0.00016425 3.07337
-0.915639 -0.774334 3.32244
1.54545 0.646403 2.65664
-0.348055 0.696871 2.19072
1.50311 -1.46256 3.36751
1.68094 0.708821 2.63628
1.28801 0.0596968 2.79875
1.89432 -0.281469 2.72451
0.00483379 -0.715554 3.22275
-0.93442 -0.632223 3.20236
1.14889 0.850187 2.7752
1.10372 -1.63409 3.6154
1.69064 0.156594 2.78186
0.336589 -0.589724 3.13541
-0.0448438 0.90551 3.06658
-1.34151 0.154134 3.06427
-0.618607 -1.49632 3.4637
0.768535 0.966172 2.8687
-0.663302 -0.573459 3.30844
1.15462 -1.60681 3.77087
-0.0467403 0.263412 2.93993
1.79996 -1.92808 3.96986
0.745758 -0.513464 3.11074
0.786449 0.931625 2.89415
-1.24142 -1.3056 3.23616
1.48123 0.204894 2.83347
-0.024406 -0.764214 3.24703
0.738151 0.0641923 2.92423
1.17675 0.751186 2.79407
-0.0762878 0.0335707 2.96413
0.770148 -0.712333 3.17722
-0.187127 0.77444 3.02787
1.35715 -1.69859 3.62953
1.91208 -0.329659 2.73439
1.15835 -0.65129 3.01054
-0.174692 0.108029 2.99763
0.252604 0.782365 3.57391
-0.177177 0.860413 3.06612
-0.18721 -0.109222 3.03856
0.422476 -0.935342 3.31585
1.63948 0.243643 2.74269
1.13944 0.621784 2.88733
1.74073 -0.500121 2.77987
1.22351 -0.0778662 2.79018
1.16685 0.572946 2.83737
0.601514 -0.899719 3.30474
0.756572 -0.0407748 2.92733
0.767649 -0.00685375 2.94414
0.255323 -0.854208 3.29367
-0.516175 0.741948 3.04693
-0.00133013 0.666273 3.05076
-0.365418 -0.827731 3.39215
0.0619895 0.730719 3.14408
1.5365 1.14723 2.56485
1.16182 -1.0428 3.23179
0.901377 0.52863 2.91891
-1.03232 -0.235625 3.15234
-0.647712 0.830512 1.85623
1.70566 0.467568 2.7584
0.93059 -1.00422 3.24083
1.06543 1.14738 2.73263
-1.18417 -0.194534 3.10732
-0.381037 0.762095 2.06359
-0.380945 -0.99778 3.41448
1.66966 0.52352 2.74044
0.697074 -0.155658 2.99114
1.24039 -0.668502 2.96835
-1.23187 0.113213 3.02226
0.867948 0.826156 2.93127
-0.138472 0.798519 2.96295
-1.12987 -1.56156 3.3845
1.68851 0.0550187 2.7131
-1.33902 -0.684826 3.28819
1.71229 0.154848 2.74332
-0.533737 -1.55085 3.49246
1.2647 -2.01045 4.33118
0.00639981 0.957957 3.11253
-0.922915 -0.63985 3.26626
-1.51587 -1.3737 3.1454
-1.09732 0.149953 3.0293
1.04833 -0.566282 2.97338
-1.15179 0.822378 2.76707
1.33548 -0.767575 2.93585
-0.432821 0.704115 3.0484
1.41638 -0.0430437 2.8285
-0.676783 0.719221 2.25802
1.6197 -0.92554 2.93345
-0.603002 0.769459 2.98262
1.02703 0.030018 2.89187
1.83081 -0.718928 2.86724
1.13017 -1.98359 4.13308
0.33668 0.748909 3.04286
-0.121092 0.951232 2.03463
-1.42642 -0.730469 3.12907
0.23075 0.000226032 3.00553
1.10162 0.552103 2.87142
-1.09966 -0.192273 3.13162
1.84967 -0.159163 2.73779
1.24342 1.22048 2.72539
-0.29807 -0.997463 3.29417
0.180478 -1.02925 3.50389
1.77109 0.884925 2.56759
0.218592 1.33441 2.89277
0.746243 -0.153464 2.98633
-0.437865 0.550929 3.01527
-0.018592 -0.928923 3.32542
-0.223917 -0.104992 3.0255
0.7508 0.637407 2.94494
0.329045 0.604085 2.97846
0.0642412 -0.884034 3.29488
1.12069 -0.0747243 2.84205
0.578022 1.14677 2.87365
-0.129775 0.441031 2.96082
-0.801391 -0.314692 3.16181
-0.86576 -1.155 3.36414
0.407192 -0.277413 3.10289
1.41843 1.0769 2.54014
-1.27084 -1.06687 3.27616
-0.214779 0.50695 2.93997
1.46899 1.04841 2.55361
-1.23332 -0.228035 3.13098
-0.954325 0.481918 2.97312
0.297665 -1.11028 3.48544
1.77203 0.86136 2.57028
-0.670144 -0.148854 3.03223
-1.09238 -0.961585 3.31925
0.912849 0.591045 2.91975
0.785549 -0.113305 2.93825
-0.33422 0.763739 2.0732
0.852675 -1.63579 3.8094
0.832447 -0.929716 3.26531
0.479993 0.561909 2.9262
-0.305233 -0.901293 3.36646
-0.424658 -0.0690254 3.0022
0.453979 0.67838 2.96393
1.01388 -0.856359 3.27897
-1.26646 0.625776 2.87128
-0.194625 -0.0343404 3.02205
0.835706 1.24974 2.79979
-0.107101 -1.14184 3.44046
0.151647 -0.273438 3.04218
-0.327933 0.485539 3.01565
