ply
format ascii 1.0
element vertex 1838
property float x
property float y
property float z
end_header
0.343629 1.26312 2.91138
-0.435926 -1.08833 3.51229
-0.987684 0.55402 2.96334
1.32627 -0.165818 2.79316
-0.633037 0.807645 1.86557
1.69799 1.11181 2.56109
-1.10889 -0.967978 3.26557
-0.347162 0.514614 2.99651
-0.592558 -0.983396 3.43431
-1.12846 0.606026 2.8669
-1.03534 -0.132677 3.16647
1.7134 -0.794403 2.8063
1.56028 0.521304 2.68391
-0.7329 -0.084195 3.04174
0.683534 -0.799633 3.18298
1.04514 0.0127352 2.87397
2.54035 0.0169163 3.78622
0.927963 -0.0229756 2.88173
-0.308344 0.756038 3.09463
0.224086 -0.778111 3.28401
1.02578 0.682041 2.87714
1.85746 -1.40646 3.26873
-1.38592 -0.723442 3.14278
-0.869566 0.766737 2.65009
-0.347191 0.0447416 2.97629
1.33966 0.701805 2.71164
-1.38726 -0.173111 3.08305
1.36118 -0.934863 3.05612
-0.388872 0.57746 2.99914
1.89178 0.588325 2.61632
1.54587 -0.135337 2.74459
-0.547124 0.855084 1.88399
1.88109 0.363951 2.64158
-1.43748 -0.910697 3.17817
0.603369 0.536168 2.92173
0.867081 -0.0970901 2.956
1.38693 0.592994 2.70006
-0.102692 -0.908365 3.34531
0.772605 1.2606 2.82576
0.639546 -0.0614372 2.93545
-1.40452 -0.824811 3.13209
1.72868 0.563417 2.70892
1.15809 -1.15586 3.37477
1.74932 0.449847 2.74466
0.0786356 -0.29028 3.05962
-0.451032 0.775919 1.86275
-0.690556 0.456853 3.08151
0.103992 -1.14953 3.55531
0.000273956 0.844452 2.09144
0.471448 -0.257298 2.97746
1.59056 -0.998018 3.12694
1.6616 -0.207002 2.72335
0.614219 0.501104 2.92005
-0.691954 0.71162 1.91368
1.33118 -0.41117 2.74737
0.96011 1.00656 2.78076
1.29633 -1.3609 3.43848
1.39799 0.312355 2.78735
-0.0477358 0.943565 2.15424
-0.250054 -0.414048 3.1692
0.520374 1.01788 2.91666
-0.246052 -0.223231 1.32496
0.336879 -1.31296 3.49437
0.248786 0.294097 2.91741
1.54757 0.361562 2.63453
1.27296 -0.361697 2.85933
0.701123 -1.27985 3.499
1.18498 1.05488 2.71032
-0.0243912 0.504992 1.3187
-0.613632 -1.19125 3.45441
1.81374 -0.337302 2.81671
1.33809 1.0087 2.6743
2.26994 0.30012 2.51302
1.22442 0.354635 2.84945
0.778922 -0.893401 3.21377
1.55525 -0.095504 2.84015
1.93199 0.000323432 2.73698
0.0878905 0.649507 3.13016
1.03799 -1.74578 3.68423
1.25228 -0.0631434 2.77851
1.65201 1.14291 2.56437
0.369395 0.709354 3.02882
-0.46976 -0.873581 3.36274
0.781069 -0.0258183 2.90944
-1.2318 0.657128 2.88305
0.232858 -0.826195 3.31047
1.31622 0.491088 2.84563
1.24298 -0.240513 2.77664
-0.262005 0.878341 1.97248
-1.22837 -1.05677 3.3061
-1.27342 -1.01478 3.30419
-0.383125 0.779096 2.02934
0.829933 1.15367 2.79761
1.5485 -0.212877 2.87093
-0.454053 0.490546 3.01004
-0.658308 -1.00747 3.42829
-0.898634 0.596521 2.99914
0.0662385 -0.166218 3.02634
0.276395 0.540607 2.9342
-0.285039 -0.946999 3.35427
-0.607955 0.872411 1.88271
0.507788 -0.133404 2.94531
0.893423 1.05042 2.78069
-0.635535 0.370891 3.01723
-0.072098 1.11686 2.80548
-1.00594 -0.371999 3.14344
-1.15787 -1.21301 3.34447
1.60819 -0.315393 2.83859
-0.474812 0.756778 1.87749
1.1306 -1.20858 3.4163
0.596988 0.440181 2.91032
-0.76635 0.7273 1.85147
-0.495459 -0.29278 3.09969
0.799955 0.402834 2.91948
1.00708 -1.19406 3.50194
-0.887458 0.161725 3.05646
1.46746 -0.479665 2.80415
-0.0470314 0.623768 1.34467
-0.576214 0.279385 2.9968
-0.443523 -1.43816 3.52562
1.0758 0.940705 2.76176
1.3532 0.880877 2.69027
0.953964 -1.52902 3.77375
-0.313866 0.241351 3.00827
-0.0315225 0.573543 1.30044
1.25568 -0.4728 2.93713
-1.41191 -1.22748 3.1667
-1.09426 0.348625 2.94983
0.400204 -0.442219 3.08911
-0.695664 0.720306 1.93799
2.30771 0.0363226 2.95428
-0.173589 -1.32678 3.58473
0.996356 0.28535 2.91438
-0.00829934 0.543384 1.289
1.05513 -0.391318 2.91724
0.17632 1.01874 2.91792
0.741154 -1.16168 3.27369
0.98564 0.438201 2.89599
0.0299117 -0.333529 3.08091
-0.519191 0.419129 3.00267
0.374152 -1.19075 3.53909
1.00782 1.07605 2.77248
-0.994195 -0.292343 3.13421
0.211727 1.19608 2.89357
-0.067436 -0.139358 0.845426
-0.842414 0.499781 3.0222
-1.3126 -0.258394 3.14438
1.55116 1.02826 2.54164
-0.956675 -1.02368 3.1619
2.59366 0.936353 2.86923
-0.239196 -0.489133 3.18688
1.34554 0.947563 2.685
0.593521 0.291031 2.8891
-0.869439 -1.40572 3.53442
-1.30651 -0.452151 3.15984
-0.0404019 1.00821 2.282
1.46774 0.878399 2.57004
0.392676 -1.37486 3.5595
0.863512 0.257997 2.8693
1.66153 0.334752 2.67061
0.894611 -1.32218 3.48289
-0.185149 0.790448 2.06965
-0.0174167 0.533292 1.24476
0.238656 -0.401973 3.0973
-1.07447 0.352164 3.02482
1.26074 -1.237 3.3516
1.10877 1.00044 2.74504
1.59395 -0.356382 2.82537
0.651741 -0.456962 0.857854
-0.967213 -1.48667 3.41114
-1.33858 -0.644854 3.37301
2.25861 0.213689 2.74892
0.395076 0.159103 2.91295
-0.394035 0.890818 3.02413
-0.478522 -1.60469 3.41447
2.2468 0.509373 2.64531
-0.50522 1.40404 2.96384
-1.44955 -0.579636 3.18469
-0.852529 0.668017 2.01882
0.814206 -1.52142 3.57245
-0.827997 0.235476 2.99207
-1.00049 -0.544175 3.21812
1.66574 0.805869 2.55097
0.802572 -1.5611 3.79022
1.23509 0.183836 2.79443
-0.0345011 0.0473829 2.95433
-0.229832 1.06848 2.45275
0.986917 0.755286 2.88434
1.67776 -0.712033 2.85688
0.982635 -0.731844 3.14696
0.0309954 0.744943 3.04629
2.00484 1.07237 2.6972
0.677953 0.0125662 2.91174
0.757328 0.115552 2.86474
-0.298996 0.874403 3.02937
1.82284 0.715667 2.57448
0.87398 -0.679309 3.12796
0.608082 -1.7764 3.9082
0.275606 0.085101 2.95646
1.05431 -0.635701 3.06532
2.48899 0.00882944 3.76027
0.761505 0.798303 2.91128
0.707384 -0.733582 3.1637
1.1857 0.748022 2.7687
-0.0478391 1.10918 2.91791
1.06476 0.0769323 2.7972
1.38531 0.684818 2.66276
1.47408 -0.632935 2.84992
-0.274853 -1.08215 3.44174
1.13638 0.0312703 2.84328
-0.607975 -1.57219 3.46118
-0.669196 0.152662 2.98574
2.06529 1.16269 2.80725
-1.37156 -0.647619 3.16487
-0.109128 0.909273 3.10567
-0.254871 0.119371 3.0019
-0.678103 -1.54497 3.51879
2.11356 1.06307 2.76681
0.238009 -0.627213 3.21639
1.63425 0.741893 2.61313
1.11601 -0.812674 3.06402
0.78678 -0.0644527 2.90246
0.57828 -1.76855 3.73084
-0.262384 0.684424 3.16839
1.91314 0.641975 2.61488
-1.4296 -0.0233483 3.08517
-0.904012 -1.61898 3.41758
0.111955 0.738467 3.04582
1.91833 -0.164655 2.72025
0.810319 -0.805698 3.18126
1.25045 0.00708589 2.76567
0.340066 0.706077 3.03188
-0.403021 -0.787879 3.31986
1.28132 0.513968 2.81851
0.172666 -0.227164 3.02828
-0.278069 0.909576 1.96615
0.0507143 -1.06117 3.40912
-0.621361 -1.01015 3.40918
-0.447503 0.756806 2.22485
-0.684305 0.801805 1.86578
0.992111 -0.175512 2.92579
0.82628 0.500403 2.96798
-0.548847 -0.956776 3.32685
1.04533 0.593309 2.89032
-0.383104 -0.14383 3.09408
0.443511 0.556571 2.91444
1.21758 -0.886466 3.14975
0.663892 1.24516 2.84104
0.408816 -0.0986115 2.96421
-1.02841 -1.2102 3.50716
-0.372482 -0.345837 3.13134
-1.31516 0.420547 2.95399
-0.393525 0.7593 1.94391
1.66101 -0.280544 2.62134
0.0589575 -0.222159 0.902777
1.15658 1.11495 2.70676
0.296092 -1.20727 3.54378
0.358244 0.461056 2.87949
1.1351 -0.254484 2.82533
0.391298 1.13661 2.87044
-0.583439 0.442478 2.98759
0.449573 -1.15483 3.52529
1.26217 -0.171183 2.77507
-0.422397 0.723903 1.96896
0.298314 1.30249 2.90691
-0.934778 -0.983624 3.37952
1.12195 0.552793 2.84382
-0.685026 0.856499 1.8654
-0.799576 -0.14116 3.09365
-0.551574 0.550498 3.04463
1.83187 0.658213 2.59839
-0.751386 -0.957721 3.36782
-0.562644 -0.0986445 3.09851
-0.866891 -0.904667 3.30068
-0.1179 0.694551 3.12167
-0.190977 -0.892582 3.42689
-0.320628 -0.0556002 3.05357
1.38335 0.560219 2.75302
-1.42953 -1.08678 3.20487
0.0383805 0.481988 3.00346
0.819536 -0.302042 2.98314
0.620008 1.19298 2.88643
1.41362 0.410824 2.76948
-0.395601 -1.18867 3.69787
-0.332001 -0.26284 3.10727
1.42155 1.05539 2.63417
-0.369231 0.850351 2.41277
-0.193109 1.17134 2.95696
0.0975898 0.503294 2.96754
1.29163 -0.207811 2.80598
0.694105 -1.09097 3.41007
-0.906564 -0.462125 3.20296
0.101796 1.18688 2.15406
0.813365 1.02893 2.83963
0.19377 -1.42274 3.64594
1.65854 0.293154 2.73097
-0.302767 -0.417492 3.17976
-0.251903 -0.0312492 1.42534
1.12024 0.97897 2.78389
0.689724 -1.36831 3.62079
0.906202 0.288224 2.85834
1.52321 0.363732 2.69951
1.6502 -1.20967 3.21878
1.53187 0.987237 2.52426
0.0625903 0.539621 1.29819
1.22811 -0.37201 2.92254
0.00646622 0.362037 2.95747
1.67248 -1.10337 3.06596
-0.808091 0.706946 1.87053
-0.711176 -0.350405 3.12621
2.47637 0.933195 2.90135
-0.730823 -1.47699 3.49445
1.09138 -0.542704 2.91445
2.08543 0.524066 2.60089
-1.36514 -1.29866 3.10457
-0.262308 0.187736 2.97298
1.64729 -0.50111 2.82711
-0.659709 0.644836 2.08339
0.12673 0.596058 1.33913
2.01417 0.457062 2.62414
0.739623 0.967699 2.88306
0.252605 0.266722 2.93252
-0.0323924 -0.505659 3.18711
0.964059 0.928841 2.86456
-0.585545 -1.395 3.49305
1.5104 0.203221 2.70919
1.11638 -1.10617 3.35738
-0.503197 0.51784 3.00329
-0.0719734 -0.252936 3.08459
-0.317597 0.863958 1.94197
1.18722 0.454169 2.82759
-0.738012 -1.06217 3.45737
-1.13586 -0.220573 3.16095
1.55199 1.03375 2.47217
-1.51935 -0.956563 3.17289
1.65485 0.537738 2.76034
1.2458 1.16457 2.69695
-0.235178 -0.174978 3.07747
-1.12992 -0.915115 3.20844
-0.0190799 0.551416 3.0271
0.310004 -0.1388 2.96678
-0.515678 0.853849 1.88441
0.873694 1.06197 2.82445
-1.101 0.378381 2.99407
-0.157722 -0.0882766 1.11634
1.16724 0.986521 2.71099
-0.480411 -0.374932 3.09723
0.972037 0.325321 2.9137
0.0686463 -1.31912 3.63334
-1.13705 -0.361335 3.26694
1.54825 1.00426 2.49317
2.64484 0.925798 2.85866
-1.25913 -1.15913 3.33459
0.747145 0.444601 2.91733
0.251969 1.12566 2.95594
0.445263 -0.287109 2.9997
0.1423 1.26 2.3709
1.31933 0.385684 2.79466
-0.605225 -1.17757 3.50872
-1.21071 -1.32634 3.24308
1.53109 0.238857 2.59003
0.525778 -0.304431 0.580315
1.30187 0.929055 2.73591
1.30186 -0.507343 2.90501
-0.67524 -1.39184 3.51354
-0.610935 0.226635 2.93564
0.992035 -0.485908 3.00465
-0.46678 0.687049 2.08122
1.85932 -1.89948 3.62123
0.724992 -1.39616 3.55926
0.69373 -0.451655 3.08894
-0.023744 -1.34302 3.57861
0.766426 -1.81142 3.81853
1.50052 0.275811 2.75852
0.0409081 0.59611 1.30592
-0.18996 -0.413306 3.14117
-0.545804 0.699421 2.00116
-1.46123 -0.69239 3.19233
-0.641878 0.852603 2.98504
-0.501492 1.35557 2.96346
-0.121482 0.128309 3.00043
0.0650083 0.818645 3.0386
-0.714137 -0.680738 3.40405
2.27624 0.6755 2.76214
-0.993491 0.10572 3.22786
0.077715 -1.58355 3.48226
0.742765 -0.608816 3.1112
0.188863 0.928621 3.02519
0.635602 -1.65807 3.72866
1.53165 0.182933 2.80465
-0.178626 1.11824 2.87394
-0.720835 -0.570202 3.20798
1.58743 0.762141 2.5777
-1.34595 -1.40376 3.32542
-1.03971 0.167355 3.00203
0.725024 -1.66202 3.64581
0.998174 -0.472002 2.93524
-0.0294643 0.588081 1.53196
1.07199 0.28831 2.89196
-0.69272 0.706165 1.97822
1.06797 -1.36208 3.33641
-1.08548 -1.27427 3.3397
1.23328 0.255363 2.81765
1.51342 0.876826 2.60022
0.0306028 0.847401 1.81288
0.0800618 -0.445731 3.12294
-1.48341 -1.23678 3.29133
1.07742 0.350833 2.87251
-1.3311 -0.431946 3.24046
-0.231642 0.776785 2.03586
0.0279747 0.550356 1.32358
-0.918322 -1.23047 3.44299
-1.36019 0.343717 2.99125
-0.0225437 0.5224 1.45055
1.484 -0.361329 2.8214
-0.42152 0.736629 1.99578
1.22183 0.823461 2.75976
2.26959 0.733599 2.841
-0.409284 0.156953 2.99323
-0.747274 -0.622728 3.2896
0.110095 -1.63548 3.69311
2.22414 0.52121 2.64665
-0.709643 0.662478 2.00633
1.46123 -0.558086 3.00887
-0.346414 0.23716 3.06204
-0.182243 -1.53107 3.61491
-0.426716 -0.53803 3.24159
1.34789 0.835593 2.70325
0.227458 -1.46059 3.54857
-0.892605 0.196104 2.97444
-0.215433 1.34467 2.92538
-0.247113 1.01584 2.23591
0.490846 0.0417133 2.91627
-1.08595 -0.788754 3.40039
-0.611246 0.760512 2.95351
-0.563816 -1.03293 3.58928
-1.07296 0.748982 2.97518
-1.41462 0.0209041 3.16808
1.38829 -0.699381 2.98684
0.387923 0.114655 2.92633
1.4676 0.330083 2.1891
0.563182 0.822335 2.933
-0.86417 -0.699766 3.23477
0.135154 -1.57767 3.47372
-0.820036 0.0896854 3.06132
1.90617 1.12678 2.94506
-1.06975 0.787777 2.8377
0.182912 -0.657333 3.20735
1.27496 0.569864 2.77304
1.84249 0.320645 2.68443
-0.356123 -0.0918543 3.07365
0.0146493 -1.7142 3.68333
-0.979695 -0.898246 3.35091
1.67293 -1.06705 2.94595
-0.647563 -0.0681331 3.07781
1.75632 0.659258 2.79658
1.47734 -0.800086 2.94403
-0.675038 -0.0223716 3.07847
-1.05359 0.661263 2.97496
-1.20345 0.238155 3.00156
-1.18662 -0.794738 3.20053
0.0177677 0.716998 3.24393
0.0351453 1.26545 2.85567
-0.460684 -0.0618599 3.07872
-0.386022 0.866366 2.36069
0.1186 -0.874872 3.33779
-1.45425 -0.0286193 3.08773
-1.2 0.729524 2.91628
-1.23605 -0.789088 3.15122
1.43077 -0.00255417 2.78756
-0.692451 0.698128 3.02572
1.76118 0.93223 2.53133
-0.088368 -0.790608 3.32506
1.71195 0.48365 2.64187
0.336224 -0.226284 3.03914
-0.377161 0.846988 1.91256
-0.964632 -1.05092 3.41319
1.30339 -0.948229 3.09629
0.457814 0.485485 2.88165
-0.135685 0.992415 2.64358
1.14927 -0.171438 2.77015
-0.354958 0.869008 2.45738
1.84576 -0.861109 2.91416
-1.02252 0.611674 2.97352
0.980732 -0.145543 2.89856
-0.758999 -1.0156 3.6301
0.374797 0.550692 2.93499
0.4734 -0.108379 2.96841
0.91315 1.23613 2.76469
-0.553087 0.745637 1.90837
0.912345 0.388233 2.9235
-1.15976 -0.223313 3.13143
0.469431 -0.339202 3.04582
1.22216 -1.17362 3.28824
1.57749 -0.30099 2.95666
1.65141 1.04779 2.53525
1.11729 -1.19329 3.46639
1.10794 0.460278 2.86646
1.31879 1.05092 2.63333
-1.42535 -0.270369 3.11291
-0.249837 0.448335 2.99411
0.598531 -1.10718 3.37106
-0.250982 -0.0318208 1.42345
0.403919 -1.42718 3.54252
1.16855 0.270419 2.80104
0.0668075 1.01228 1.96242
-0.799785 0.692975 1.96871
1.18692 -0.469461 2.86964
-0.19994 -1.38213 3.58117
-0.673456 0.258384 3.00162
-0.366517 0.720926 2.09565
0.0996569 1.1924 2.25617
0.736112 -0.449277 3.01335
-0.0124228 1.35421 2.88957
0.0771868 -1.33983 3.5613
0.446556 0.342949 2.87825
0.70262 -0.41182 3.04072
-0.4521 0.741319 1.95256
-0.0946057 -1.26154 3.4817
0.0935625 0.567184 1.35337
-0.969687 0.328258 2.96013
-0.229243 -0.383059 3.14767
1.49904 0.932207 2.57428
0.865632 -1.16812 3.3815
-1.50975 -0.321261 3.22292
0.449357 0.425655 2.89282
-0.294192 0.781421 1.96586
1.08211 -0.254983 2.83508
-0.696444 0.684897 1.9361
-0.140752 1.18311 2.83379
-1.35136 -1.06488 3.2319
-0.416914 0.51253 3.0154
-0.740145 -0.217965 3.08448
1.08652 1.09523 2.69529
0.90793 0.4579 2.92266
0.413191 -1.07352 3.4038
1.50681 -0.428828 2.81266
1.15355 0.29554 2.8112
-0.939593 0.0805527 3.07589
-0.599709 0.697547 1.94523
-0.432809 -1.35123 3.50055
-0.883432 -1.27527 3.42718
-0.032311 0.291378 2.92787
-0.660605 0.693995 1.95878
0.188496 1.36898 2.7346
-0.580558 -0.431504 3.24528
-0.73031 -1.25291 3.47492
-0.92874 0.407329 2.95729
-1.09574 -0.37046 3.02538
0.391336 1.09673 2.87576
0.0779516 0.555337 1.35788
-1.06255 -1.18445 3.34904
1.6737 0.322265 2.69725
0.0529072 0.702491 1.39889
-0.610361 0.723529 1.91001
-0.771552 -0.362047 3.18174
0.881842 -1.50675 3.46435
0.881145 -0.569004 3.04809
2.45898 0.73057 2.85844
0.292397 0.180367 2.9317
0.288416 0.923072 3.03924
1.88846 -0.212734 2.78544
0.814068 0.96418 2.87583
1.02435 -0.522131 2.9886
0.199122 -1.69552 3.59895
-1.53939 -1.38462 3.31474
1.13415 0.246263 2.81621
-0.173354 -0.501415 3.18332
1.098 0.882629 2.75774
0.0375472 -1.43806 3.55827
0.3517 0.206849 2.89355
0.931142 -0.723187 3.11711
1.53863 0.0726773 2.96497
-0.458653 1.05522 2.85706
2.03238 0.518798 2.61013
-0.520589 0.801678 3.00664
1.35739 0.688083 2.67282
-0.141342 1.38762 2.9068
0.282168 0.0388659 2.95452
1.09541 -0.669765 3.01758
0.198273 0.144168 2.96353
-0.566744 -1.56219 3.4349
1.3864 -1.3613 3.26012
0.962458 0.838514 2.87281
-1.35197 -0.665363 3.21196
-0.21857 -1.58627 3.59227
0.239463 0.113854 2.95784
-1.23651 -0.650299 3.34766
2.26224 1.06865 3.01923
-0.390479 0.856512 3.07577
0.467365 1.06256 2.87344
-1.24393 -0.418707 3.1647
1.47283 0.341933 2.85808
0.957995 -1.50298 3.92714
-0.160615 -0.0882845 1.12193
-0.225691 0.764304 2.06991
0.176503 -0.375889 3.07772
0.367588 1.48614 2.73707
0.875697 0.315881 2.90035
0.914815 -1.33223 3.5711
-0.0125377 0.443288 2.96421
1.34383 -0.325226 2.76583
-0.401678 -1.24554 3.55324
0.470808 1.12643 2.86788
0.124779 1.37604 2.8305
-0.401996 -1.1932 3.52924
1.11078 1.03522 2.67023
-1.12973 -0.303664 3.18932
0.75214 0.39442 2.91343
0.198381 1.43777 2.58273
-0.0793201 0.264203 2.95435
0.873442 -1.49133 3.59174
-1.16299 -0.562089 3.34225
0.444814 0.988289 2.94812
-0.805568 -1.39003 3.47951
0.228009 0.222787 2.92753
0.0338585 0.522646 1.31094
-1.16686 -0.513 3.24705
0.380508 0.945387 2.95211
-0.401082 -1.36658 3.55193
2.30768 0.46142 2.60452
0.654105 -0.456486 3.07016
-1.35385 0.304563 2.95481
0.0336594 0.557763 1.23163
1.46688 0.904268 2.57657
0.395008 0.829408 2.98127
0.129643 -0.700423 3.23626
0.989156 0.10086 2.85267
-0.00360776 1.36779 2.88465
0.557376 -0.660024 3.21509
0.439771 0.799306 2.95558
1.14078 -1.74837 3.78739
1.87257 -0.668568 3.00601
-0.468893 0.0809193 2.978
-0.440628 -0.631688 3.32112
1.15047 0.1756 2.78675
-1.21103 -1.42293 3.22923
1.74502 0.0701036 3.29693
0.881455 0.895383 2.90886
1.68857 0.779969 2.63119
-1.11351 -1.41868 3.32504
-0.258529 0.154018 2.96276
-0.666724 0.790878 2.97337
-0.478635 -0.593845 3.31315
-1.24765 0.0180588 3.12593
-0.33959 -0.841734 3.38946
0.897158 0.704937 2.88964
1.71681 -0.0389832 2.70713
-1.41879 -0.77238 3.19803
-0.533143 0.708641 3.08244
-0.785016 -1.26193 4.36702
1.54789 0.0507781 2.37198
0.601468 0.773655 2.99989
-0.601162 0.0503304 3.04316
1.10224 -1.66713 3.51441
0.0376701 1.20794 2.86879
-0.0870042 -0.744263 3.25801
-0.574065 0.823939 2.73082
2.09397 0.264032 2.64718
1.12702 0.134099 2.80926
-0.509287 -0.626964 3.28074
0.257797 0.852306 3.05853
-0.804274 -1.55566 3.52023
-0.940098 -1.62989 3.44006
1.68004 0.0912496 2.76174
0.55253 -0.584935 3.18384
-0.564111 0.68391 2.09054
2.23326 0.564305 2.69785
0.271204 -1.54909 3.63214
-1.00371 0.239867 3.01805
-0.156368 1.05874 2.98055
-1.22206 -0.560087 3.29915
1.19485 0.847158 2.75094
-0.0802747 -1.47771 3.6043
-1.42676 0.199966 3.08526
-0.349772 1.29917 2.94866
2.13884 1.06557 2.93458
0.193761 -0.786573 3.29104
1.63563 0.0299205 2.70685
-1.13093 0.781941 2.96833
-0.594426 0.012196 3.05452
-0.691887 0.725765 2.9626
-1.18682 -0.725379 3.18959
-0.358847 0.982415 2.70355
1.6244 -0.66155 2.92343
1.55778 0.0677903 2.69841
0.674344 -1.85064 4.02032
1.96877 0.113469 2.61518
-1.25399 -0.678596 3.31223
0.0795074 0.805559 3.02105
1.60827 -0.147262 2.78789
1.43088 -0.868057 2.91944
1.06975 0.586003 2.87278
1.93087 0.549064 2.62768
1.14356 -0.0964648 2.76156
0.389041 1.29812 2.91164
-0.0644258 -0.916065 3.33747
-0.647599 0.592873 3.10085
1.88897 -1.02722 2.90698
1.60785 0.61784 2.64114
-0.722967 -0.0563529 3.06738
1.53003 -0.79041 2.94413
0.866216 0.628995 2.90523
-1.38956 -0.022546 3.11351
1.51608 -0.749669 2.91614
1.19004 -1.28556 3.38584
-2.54676 -1.9648 5.52484
0.642809 0.495617 2.90928
0.61882 -0.263986 2.95482
-0.790044 0.735677 2.37372
-0.0960035 0.480211 2.97025
0.481889 -1.09054 3.44995
-0.411878 0.772542 1.87237
0.487976 -0.21669 2.97903
1.4767 -0.886608 2.87416
0.0897389 -0.179652 3.01976
-1.28686 0.532451 2.87086
0.15329 1.28179 2.89561
-1.09533 -1.01986 3.2439
0.451081 0.514163 2.89429
-0.292419 -0.223907 3.11371
-0.611645 0.896036 1.86309
-0.126763 -1.02347 3.45454
1.13302 0.480974 2.88093
0.936442 -0.193893 2.91099
-0.232859 0.814696 1.92897
-0.0435598 -0.975392 3.35692
1.79809 -0.151574 2.80707
-1.33571 0.566818 2.89898
1.0609 1.23179 2.73701
-0.756424 0.7275 1.87359
1.103 -0.360131 2.88969
-0.753038 0.40207 2.98004
-0.38076 -1.29672 3.55546
0.626493 1.07227 2.8892
0.0919972 -0.349487 3.09515
-0.188693 1.19271 2.95924
-1.23118 0.374537 2.99753
0.507093 -1.2808 3.61032
0.924301 -0.294302 2.94987
1.36608 1.07383 2.61392
-0.936468 0.0353734 3.08412
-1.03941 -1.12605 3.35592
-0.89464 0.478543 2.95742
0.842961 -0.275883 2.99468
1.63044 1.00126 2.49048
-0.299991 1.03031 2.8438
0.271312 0.422992 2.89717
0.0259433 -1.12652 3.4337
1.63132 0.259212 2.63582
1.359 -1.41356 3.43349
-0.0513549 0.543199 1.31693
-1.24316 -0.51912 3.25903
-0.483358 0.708318 2.00791
0.354594 -1.32453 3.37257
1.30817 0.246699 2.80734
-1.03961 -0.456131 3.10287
-0.512979 0.695874 2.03742
-1.1226 -1.25301 3.33821
2.16665 0.424292 2.61747
0.800063 -0.421531 3.02357
2.40538 1.01723 2.9253
1.45047 0.29181 2.77449
1.59319 0.93996 2.58217
0.0462397 0.88278 3.0588
-1.4203 -0.653552 3.11978
0.344014 0.146299 2.94938
0.0862003 1.34618 2.87858
1.14733 -1.66788 3.58538
2.23163 0.605834 2.72297
0.335522 0.844653 3.03199
-0.491224 -0.644942 3.33588
0.180936 0.107141 2.94651
1.49051 -1.61079 3.54077
1.52268 -0.527653 2.7895
-1.32521 0.24053 3.06117
1.29321 -1.56441 3.60446
0.0470405 1.30302 2.88093
0.298529 0.963547 3.00729
1.42939 0.812331 2.65751
0.927921 -1.52595 3.63019
1.00569 0.163376 2.82927
-0.362595 1.41212 2.93686
0.364967 -0.539931 3.14656
1.55486 -0.441526 2.85684
0.0839788 0.311027 2.90838
-0.0209377 0.930456 2.26333
1.28797 -1.40723 3.52323
0.423372 1.03562 2.90054
-0.188448 1.05495 2.77586
0.571117 -1.34929 3.5353
1.23563 0.946863 2.7297
0.194628 0.28036 2.90947
-1.32449 -0.426874 3.16585
2.21379 -0.805176 3.33758
1.04959 -1.19073 3.22568
1.64465 0.362434 2.68126
0.614229 -0.378592 3.03194
0.0300006 1.08924 2.87839
-0.0970681 -1.34446 3.80117
2.17262 0.89064 2.92686
0.228782 0.348994 2.9262
0.153571 1.08028 2.93633
-1.18231 -0.352828 3.12717
-0.0607939 0.906154 3.02361
1.67087 0.616736 2.63224
-0.963697 0.189632 3.04189
0.820992 -0.573339 3.09748
0.846731 -1.5071 3.45877
2.20475 0.381215 2.60972
-0.600288 0.665586 1.9832
0.962893 -0.536113 3.0064
0.145232 0.261738 2.92698
0.125714 -1.52381 3.68945
1.12484 -0.471087 2.92112
1.51605 0.843177 2.60959
1.48013 -1.40121 3.36658
1.4018 0.203178 2.83729
2.3896 0.16784 2.84304
-1.38691 -0.786558 3.32934
-0.237162 1.31917 2.93399
-1.46054 0.0835233 3.20479
0.298726 0.771086 2.92105
-0.0742749 1.34839 2.89815
-0.957952 0.0432359 3.04365
-0.494953 0.787768 3.07618
0.258136 -0.716611 3.28268
0.795129 -1.73298 3.76316
0.99524 0.124937 2.84256
-0.560171 0.914472 2.86524
1.15502 -0.625608 2.946
-0.441347 0.862232 3.01238
0.701646 0.0993601 2.88562
0.151879 -1.59773 3.60884
-0.160817 0.527174 1.46593
1.47205 -0.573365 2.8178
-0.836321 0.845511 2.93985
1.12754 -0.106314 2.78176
-0.205068 0.638327 2.99133
1.19904 -1.69054 3.66382
1.24411 -0.888057 3.13153
0.375021 -0.0641869 2.93858
-1.02443 -0.873367 3.34811
0.462427 0.587358 2.94003
1.53444 0.262272 2.30669
0.594027 0.722451 2.98656
-0.739238 -0.0373868 3.08745
1.26006 -1.67978 3.53772
0.550087 0.00301346 2.9557
1.77136 0.79508 2.58066
-0.943948 -0.987872 3.80054
1.26741 0.635744 2.77051
-0.556436 -0.852835 3.47422
1.75851 0.907162 2.54349
0.043832 -1.49986 3.64694
-0.272756 0.262555 2.97893
0.24546 0.999019 3.00953
0.894379 -0.537756 3.03936
-1.19915 -1.35146 3.4139
-0.869336 0.229103 3.01951
-0.678002 -0.507011 3.25034
0.698664 0.938326 2.90993
0.626101 -0.401086 0.777847
0.0620718 1.00503 2.92719
2.23993 0.181998 2.86032
-0.96651 0.304425 3.01314
0.126516 -1.71044 3.62312
-0.0612384 -0.475798 3.18987
2.27922 0.802996 2.88092
-1.03966 -1.29573 3.38423
1.15387 -0.670765 2.99272
0.713778 0.823194 2.95682
-1.00854 -0.689762 3.33678
-0.893621 0.119007 3.04437
-0.843293 0.829985 3.05153
0.912428 -0.66095 3.15892
2.39149 0.743055 2.85826
0.517226 0.0748676 2.89474
1.22945 -1.60397 3.48563
1.01529 -1.60783 3.61029
0.0359543 0.172343 2.93472
2.23447 1.03488 3.07859
1.5499 -0.567083 2.77049
-0.382736 0.900076 2.98026
-0.899308 0.151441 2.98334
-0.352644 -1.4632 3.42671
0.0625861 1.32381 2.8847
-1.14762 -0.597559 3.34151
0.177089 0.874396 3.00885
0.421659 -0.834938 3.29505
1.03462 -0.0354179 2.87968
1.59427 0.0463106 2.41192
0.888751 0.66147 2.87845
-0.518315 0.916026 2.87685
-0.0485927 1.11677 2.43854
-0.877039 0.768556 2.95347
-1.35356 -0.795949 3.30382
-0.107013 0.0466439 2.99334
0.48404 0.717218 2.98488
0.569491 -0.751189 3.22691
-0.189114 0.00829268 3.0362
-0.318966 0.66182 1.67571
0.499944 -0.176857 2.98269
1.52609 1.09894 2.5637
0.25167 -1.04347 3.48664
-0.160335 0.545011 2.85767
1.72415 0.920038 2.53333
-0.291962 -0.140921 3.02632
-0.167099 0.878306 2.01452
-1.29082 -0.936824 3.25934
1.63529 0.502451 2.79617
0.548553 -0.922416 3.30846
1.40949 -0.110028 2.71419
-1.30289 0.618041 2.80575
-0.669704 -0.915773 3.45078
1.58092 0.533462 2.63667
1.27135 -0.0708955 2.75282
0.288042 -0.805233 3.35017
0.02773 0.0386891 2.94747
0.446155 0.746881 2.95562
0.916238 -0.736693 3.1616
1.746 0.000938911 2.74405
1.00661 0.705003 2.8806
2.32085 1.01318 3.15279
1.512 -0.0325874 2.21669
0.694299 -0.693082 3.16863
-0.937551 0.083664 2.95926
1.96588 -0.00168689 2.62198
-0.491885 0.803772 3.03305
-1.13307 -0.148107 3.1015
0.75999 -0.968714 3.29635
1.70609 0.914772 2.5432
0.406346 0.566023 2.78793
0.751992 1.23465 2.82796
1.54835 -0.881175 2.80403
-1.47177 -0.104986 3.20357
-2.80831 1.13414 5.80529
-0.852832 -1.64652 3.45334
0.114067 -0.929495 3.34574
-0.909192 -0.0592617 3.0917
0.993585 -0.883349 3.29094
1.25164 0.64868 2.79608
-1.99913 -1.05163 4.04714
0.0532653 0.711404 3.21791
-0.347034 0.906233 2.60468
-0.298965 -0.0308176 3.06283
1.08471 -1.13499 3.42168
1.70026 0.457083 2.64536
-0.1527 -0.261633 3.06612
-0.370783 0.760643 2.17196
0.469465 0.454488 2.88612
-0.159638 -1.07258 3.4564
1.01245 -0.225768 2.8932
-0.190871 0.8113 1.96998
-0.61316 0.878672 1.86664
1.21156 0.499812 2.79665
0.434831 -0.179979 2.99437
1.5005 -0.981345 3.20246
0.204265 1.39155 2.66318
1.30811 -0.387288 2.78578
1.47214 0.985833 2.6338
-0.265052 -1.3232 3.49102
0.695554 0.34749 2.91282
-1.00142 0.0128766 3.1031
1.39424 -0.352337 2.81994
-0.532851 0.713465 1.95112
1.45411 -1.26776 3.37396
0.18605 0.309838 2.91221
-0.509181 0.437308 2.96554
1.67416 -0.325082 2.70286
-0.207877 -1.22114 3.48116
-0.362835 0.77134 1.91824
0.0560785 0.68346 1.41155
-0.127287 -1.17051 3.45732
0.323668 0.38374 2.90413
-0.187045 0.792989 2.0354
-0.633177 -0.303331 3.07435
2.52401 -1.75722 3.5457
1.70701 -0.360974 2.68016
0.726645 1.07951 2.85217
-1.32993 -1.215 3.30863
-1.34219 0.39804 2.93293
0.0830743 1.36106 2.62549
0.557709 1.0704 2.91463
-0.447289 -0.360764 3.21993
-0.113925 -1.32273 3.71994
1.71434 0.327839 2.71842
1.37862 0.436477 2.78857
0.584871 -0.322473 3.00955
-1.15063 -1.12829 3.27064
0.269454 1.18949 2.95282
-0.0217702 0.963539 2.29977
0.574209 -1.17119 3.51632
0.0561377 1.10775 2.84664
-0.185741 -0.265535 3.06745
-1.0465 0.424016 2.8659
1.05508 -1.40866 3.44562
1.7748 0.27255 2.78253
-1.22649 -0.379259 3.19348
0.460912 -0.522075 3.18897
1.57472 0.895392 2.56463
-1.3385 -1.28067 3.27191
0.513972 0.245113 2.80433
1.44534 -0.442583 2.80551
1.57674 0.847479 2.53267
-1.14198 -0.591481 3.31255
-0.15244 0.901821 2.4534
2.51429 1.02088 2.85914
-1.33553 0.338641 3.03043
-0.132534 -0.437191 3.14963
1.99565 -0.503889 2.78342
-0.81805 -1.27034 3.36777
0.639058 0.861199 2.95405
-0.069419 -1.70414 3.60473
0.618228 -0.670535 3.17773
-0.646959 0.135657 2.99565
2.04832 0.583864 2.662
-0.0445689 -1.67795 3.66283
1.24532 -0.606411 2.99763
2.04824 0.253838 2.66295
-0.867396 0.824219 2.87292
0.870106 -1.72844 3.83113
-1.47654 0.124126 3.22625
-1.41107 0.228334 2.98102
-0.4155 -1.47666 3.42654
-1.18711 -0.613309 3.3322
1.30305 0.862677 2.68334
-0.376637 1.06704 2.87906
1.75187 -1.57246 3.68514
-1.29576 0.188305 3.04769
0.749049 -1.5816 3.62345
0.751503 -0.543527 3.09557
-0.777618 0.670276 2.17089
1.50177 0.0236637 2.87608
0.315432 -0.814699 3.34755
1.52143 0.665889 2.59963
-1.42728 0.00016425 3.07337
-0.913754 -0.77377 3.32641
1.53785 0.639615 2.64188
-0.348055 0.696871 2.19072
1.50774 -1.45563 3.3619
1.67471 0.705954 2.62618
1.27707 0.0520631 2.78408
1.89878 -0.290027 2.71183
0.0123967 -0.717321 3.2261
-0.921309 -0.626276 3.22531
1.13333 0.839425 2.75379
1.10401 -1.63051 3.61385
1.69279 0.154694 2.7643
2.09185 0.208638 2.86974
2.27602 0.846421 2.91158
0.33283 -0.579318 3.14658
-0.047639 0.883587 3.07614
-1.34151 0.154134 3.06427
-0.616568 -1.48724 3.4722
0.762852 0.948296 2.86103
-0.653398 -0.574397 3.33517
1.16113 -1.59773 3.76382
-0.0422451 0.258126 2.93762
1.79525 -1.90392 3.96585
0.743214 -0.506719 3.10378
0.779841 0.916603 2.89012
0.698218 -1.50374 3.57524
-1.24142 -1.3056 3.23616
1.46739 0.205197 2.81446
2.34281 0.766567 2.87409
-0.0208906 -0.756611 3.25899
0.729931 0.0608659 2.903
0.241409 0.636304 3.00084
1.16639 0.737777 2.77266
-0.081577 0.0306209 2.96395
0.772312 -0.699558 3.176
-0.182231 0.75459 3.03891
1.35715 -1.69859 3.62953
1.92152 -0.325363 2.72267
1.15329 -0.64436 2.99916
-0.176665 0.107489 3.00592
0.252604 0.782365 3.57391
-0.169429 0.838641 3.08201
-0.186712 -0.104342 3.04777
0.413727 -0.927656 3.31828
1.63905 0.239608 2.72885
1.13201 0.611647 2.8754
1.73976 -0.504322 2.76752
1.20954 -0.0863781 2.76736
1.15503 0.569456 2.82094
0.600212 -0.893306 3.29654
0.75164 -0.038691 2.90727
0.767535 -0.00593638 2.92374
0.256786 -0.847204 3.29318
-0.507199 0.717611 3.06205
-0.0177158 0.653117 3.0584
-0.356073 -0.822685 3.4128
0.0619895 0.730719 3.14408
1.5365 1.14723 2.56485
1.16417 -1.03254 3.22104
0.889425 0.51904 2.90153
-1.02914 -0.236158 3.16062
-0.647712 0.830512 1.85623
1.70451 0.462936 2.74113
0.93321 -0.998957 3.22881
1.05341 1.12983 2.72175
-1.18417 -0.194534 3.10732
-0.381037 0.762095 2.06359
-0.378838 -0.986962 3.43189
1.66332 0.515895 2.72471
0.695933 -0.152115 2.97285
1.23294 -0.656511 2.95323
-1.23187 0.113213 3.02226
-0.298814 1.03096 2.96473
0.858849 0.810754 2.92968
-0.134574 0.786524 2.96992
-1.12987 -1.56156 3.3845
1.98058 0.731688 2.73244
1.68537 0.054934 2.69998
-1.33902 -0.684826 3.28819
1.71277 0.148778 2.7257
-0.533737 -1.55085 3.49246
1.26717 -2.0082 4.32766
0.00819393 0.940585 3.12015
-0.911933 -0.631969 3.29626
-1.51587 -1.3737 3.1454
-1.09732 0.149953 3.0293
1.04045 -0.56266 2.9587
0.973123 -1.40229 3.53496
-1.15179 0.822378 2.76707
1.33306 -0.757664 2.91935
-0.419501 0.696944 3.07228
1.40402 -0.0462545 2.80717
-0.676783 0.719221 2.25802
1.62973 -0.916373 2.91931
-0.595409 0.760351 2.99765
1.01448 0.0269916 2.86123
1.83081 -0.718928 2.86724
1.13393 -1.98327 4.13191
0.339081 0.736843 3.04486
-0.121092 0.951232 2.03463
-1.42642 -0.730469 3.12907
0.223178 -0.00302994 2.9968
1.10074 0.542565 2.86684
-1.09966 -0.192273 3.13162
1.84987 -0.158691 2.72294
1.2397 1.21603 2.72411
-0.304883 -0.994193 3.29703
0.179865 -1.02008 3.50561
1.76553 0.883561 2.55044
0.218592 1.33441 2.89277
0.747086 -0.152844 2.96588
-0.427343 0.541213 3.03462
-0.0147299 -0.91988 3.33322
-0.21744 -0.105515 3.02508
0.751271 0.626112 2.93965
0.333916 0.596581 2.97607
0.0677977 -0.876977 3.29704
1.10444 -0.0736223 2.81429
0.574984 1.13165 2.8706
-0.124542 0.429575 2.97515
-0.795718 -0.311708 3.17861
-0.844635 -1.14354 3.39904
0.401043 -0.273293 3.09788
1.41843 1.0769 2.54014
-1.27084 -1.06687 3.27616
-0.208025 0.49685 2.94777
1.46891 1.04993 2.54137
-1.23332 -0.228035 3.13098
-0.954325 0.481918 2.97312
0.2971 -1.09896 3.48659
-0.203562 1.16592 2.95817
1.76884 0.857282 2.55119
-0.650668 -0.155854 3.05556
-1.071 -0.953616 3.34243
0.908125 0.575394 2.9165
0.771056 -0.114259 2.9163
-0.33422 0.763739 2.0732
0.851123 -1.63002 3.80174
0.835536 -0.921538 3.25692
0.475643 0.548865 2.90614
-0.300444 -0.8912 3.38595
-0.415962 -0.0705125 3.01355
0.457833 0.66042 2.97551
1.00838 -0.847199 3.27221
-1.26646 0.625776 2.87128
-0.188951 -0.0379916 3.03232
0.823737 1.23378 2.79179
-0.105731 -1.12935 3.44882
0.150774 -0.271008 3.03127
-0.322915 0.474238 3.02343
0.9968 1.09945 2.71774
0.287536 -0.220818 3.01774
-0.635246 0.852292 1.86649
-0.563971 -1.06422 3.39211
1.65225 0.51621 2.80705
1.41443 -0.184802 2.71278
0.648003 1.17967 2.84651
1.5208 -0.944444 3.02917
-0.589871 0.512637 3.02669
0.0725842 1.22106 2.38482
1.10101 -0.411551 2.92814
-0.39067 0.744753 1.99181
-0.619226 -1.28202 3.40956
-1.25765 0.369735 2.97885
-1.21094 -0.397319 3.21537
1.23881 0.993806 2.71927
-0.987968 -0.00630516 3.10059
-0.0759481 -1.28266 3.52515
-0.383383 0.314545 2.98899
0.943727 0.416893 2.9139
0.913866 -1.26073 3.47283
0.904326 -0.346471 2.98566
-0.0106972 0.58643 1.27934
-0.791739 0.724279 1.81225
-0.340064 0.386926 2.97188
1.45677 -1.13423 3.21387
0.0160173 0.979387 2.14771
0.355459 -0.327696 3.14751
1.14121 1.03884 2.70061
-0.990569 -1.41516 3.37849
0.0315657 -0.552347 3.17325
2.35796 0.859503 2.93661
-0.526004 0.220991 3.00335
-0.300159 0.885006 2.78705
1.9533 -0.508649 2.7956
-0.104934 1.01432 2.99665
0.574922 -0.512532 3.15525
2.092 0.32136 2.74128
-0.30668 -1.38611 3.45042
-1.09983 0.297048 2.96837
-0.380639 -0.473518 3.22299
1.27239 0.927112 2.76994
-0.623735 -1.3343 3.43393
-0.520987 0.265582 3.04732
-1.27887 -1.3069 3.21711
1.38218 -0.489901 2.85377
2.41098 -0.134574 3.04574
1.60667 0.234976 2.80507
1.41266 0.885048 2.66362
0.190527 1.35004 2.90247
0.112201 1.04166 2.952
0.125071 -0.462523 3.10825
1.84072 -0.43305 2.72344
-1.18474 0.327168 2.98267
1.40886 -1.34893 3.32183
0.21898 1.04049 3.03057
-1.06954 -0.434863 3.15442
-0.531064 -1.30438 3.4362
-0.102684 0.283592 2.96116
-0.493737 -0.674718 3.26252
0.876841 0.845887 2.90761
-0.944875 -0.367989 3.1766
0.25096 -1.64456 3.59253
-0.97428 0.139631 3.00337
-0.268044 -0.635426 3.23264
0.816259 0.799459 2.90432
2.55753 0.109704 2.92326
1.58011 0.0848944 2.74135
-1.4382 -1.4373 3.18643
-0.505896 0.214317 2.99386
-0.518926 -1.47975 3.36903
0.0927247 0.960196 3.03081
1.06095 -0.570572 2.96297
-0.222756 1.10923 2.95753
-0.342204 0.173898 3.00928
-1.50522 -1.38454 3.3085
0.491658 -1.52178 3.59347
-0.682691 -0.568737 3.32882
0.993299 0.862523 2.85846
0.636562 -0.794084 3.20633
-0.270796 0.920094 2.4051
0.802622 -0.0231257 2.89036
1.61559 0.639728 2.64685
2.27599 -1.51769 4.20889
1.32847 -1.40176 3.07655
-1.27801 0.786317 2.89602
-0.279819 -0.787418 3.33658
0.13104 0.061825 2.9297
1.49013 0.658983 2.60283
1.45105 -0.68087 2.99085
0.453502 0.021403 2.92045
1.27159 -1.87596 3.86449
1.73789 0.545519 2.75457
0.779722 -0.164584 2.97131
-1.04646 -0.646473 3.33748
1.37321 -0.89623 3.00448
-0.362264 0.914314 2.63936
-0.264014 -0.945011 3.42923
0.541979 1.26076 2.87111
-0.276943 -0.113549 3.01259
0.652346 0.560101 2.943
0.834609 -0.892017 3.26517
-1.33177 -0.078308 3.13209
0.59155 0.671118 2.98828
1.09682 0.608723 2.86493
1.33421 1.15415 2.63935
1.23347 -0.812877 3.11162
-0.251513 -0.0496588 3.07234
-0.300942 0.0716704 3.00733
-0.890995 -0.783536 3.38398
1.49329 0.692401 2.59951
-0.785944 0.0238923 3.10785
0.157691 0.770307 3.07768
0.352956 -0.724045 3.24683
-1.10897 -0.605024 3.30562
1.82972 -0.494125 2.74206
-0.222171 0.852699 3.13704
0.588753 0.0992374 2.91281
1.82155 -2.35519 4.99907
-1.12491 -0.697337 3.34899
0.924421 -1.73138 3.70868
1.09099 -0.110617 2.82501
-0.0515423 1.13726 2.62315
1.39705 -0.857175 2.97675
-0.153033 0.647631 3.07702
0.0250192 -0.0694819 3.00534
1.37322 -1.55522 3.36669
0.335853 -0.892535 3.31507
-0.537067 0.608481 3.10837
0.886616 -0.824807 3.17444
-0.787748 -0.0158717 3.10033
1.13559 1.1821 2.71905
1.18002 -0.0511353 2.77137
0.803971 -1.68529 3.45602
-0.83746 0.751874 3.10987
-1.28083 -0.798533 3.29133
1.77802 0.98298 2.53545
0.435366 0.654383 2.95997
-0.890026 -1.07931 3.4523
-0.17081 0.544913 3.06266
1.08441 -0.227753 2.81653
-0.329225 0.894969 2.56584
1.02737 -1.03156 3.3153
-1.10988 0.499104 2.93933
-1.15123 -0.199426 3.08633
-0.792549 0.747866 1.77808
0.91725 1.21492 2.77449
0.826173 0.53423 2.89177
-0.846958 -0.162109 3.14124
1.03058 -0.970672 3.23838
-1.46082 -0.407527 3.19917
-1.18699 -0.258073 3.14075
-0.711113 0.723728 1.8857
0.579268 -1.32735 3.58404
-0.84793 0.395275 3.00132
1.58757 0.963087 2.59721
1.68179 -0.338287 2.67757
-1.1417 -1.12164 3.18288
-0.395959 0.3478 3.00535
1.64537 0.40127 2.61632
-1.28105 -1.11472 3.24187
0.293474 -0.325738 3.09535
0.648861 1.16071 2.88549
2.46503 1.01579 2.91112
0.54262 0.411689 2.93805
-0.939688 -1.05528 3.17782
0.519236 -0.268982 2.98122
-0.696844 0.733035 1.8656
-0.309357 0.936619 2.71642
-1.15876 0.720471 3.12758
0.100327 1.33735 2.88583
1.11432 -0.0475423 2.80853
-0.446313 -0.825002 3.33347
0.015008 1.19248 2.8557
-1.00982 0.755728 2.92578
1.43595 -0.732461 2.93345
-1.05255 0.0346429 3.04201
1.09756 0.687535 2.83646
1.33873 -0.705299 2.94655
1.58573 -0.911738 2.90462
1.05095 0.54388 2.8874
1.10855 1.23561 2.7272
-0.405678 -0.00503268 3.00335
-0.0810884 -0.191192 3.05818
1.196 1.17689 2.72349
1.76379 -0.502019 2.78645
0.567649 -0.972742 3.29787
-0.646833 0.543562 3.06633
1.81389 0.528939 2.66749
0.573404 -0.157147 2.94841
-0.240387 0.895025 1.98875
-0.098985 0.692184 3.15997
-1.44874 -0.878135 3.11168
-0.750301 -0.10604 3.05125
-1.12287 -0.893063 3.37339
-0.777561 0.60293 2.98236
-1.09225 -0.0730341 3.21475
1.014 -0.348754 2.89793
1.08173 1.04856 2.66746
-0.91308 0.432026 2.94896
1.60665 -1.14338 3.10874
0.168806 1.1006 2.92336
-0.876409 -0.315947 3.13752
-0.688143 0.394712 3.05957
-0.204008 -1.16011 3.35127
0.202778 -0.276234 3.04852
-0.019376 0.866621 2.05224
0.0201556 1.20999 2.31709
0.282698 -1.21147 3.63811
0.188262 0.487286 2.92943
1.12116 -0.226119 2.81928
1.0282 1.0993 2.73254
0.208927 1.58133 2.74708
1.24703 0.428591 2.79758
0.902261 -1.05958 3.32273
-0.535321 0.319355 3.01781
-1.28091 -1.31675 3.36496
0.0537018 0.575919 1.37399
0.386426 1.06086 2.9825
1.15223 -0.438205 2.81181
-0.798186 -1.31981 3.4961
-0.620989 0.275496 2.95712
0.280167 1.0243 3.01081
1.55976 -0.407294 2.82129
-1.03541 -1.25548 3.476
2.26085 -0.105104 3.20478
0.935259 -0.392563 3.06462
0.0888622 1.12166 2.34249
1.72033 0.30601 2.65918
-0.692261 0.708697 1.9142
0.656554 1.14466 2.85267
0.139222 -1.17825 3.55731
-1.20978 0.465291 2.93066
-0.639053 -0.277919 3.08493
0.784228 -0.233699 2.9762
-0.514021 0.822693 1.891
-1.44091 -1.01354 3.16522
0.840362 0.513948 2.93114
-0.310587 0.795494 1.90381
1.12699 -0.189577 2.81274
1.16119 0.474092 2.82699
-0.0578229 -1.03565 3.39735
0.0162092 -0.42887 3.12462
-0.0186522 0.346797 2.94789
0.216158 1.48449 2.73161
0.787792 -1.35519 3.48758
0.84212 1.04135 2.82657
-1.21958 -0.291701 3.16711
0.990499 -1.32001 3.54387
0.756582 1.01048 2.8294
-0.543927 -0.401643 3.1734
-0.589627 0.307209 2.96177
-0.820246 -1.20964 3.40047
-1.09938 0.419196 2.84549
-0.982735 -0.37076 3.17356
-0.648662 0.747234 1.87781
2.04238 -1.13006 3.47929
2.73198 0.77583 2.8089
1.18643 -1.14484 3.26604
0.0608778 0.376239 2.92826
-0.402854 0.752616 1.94618
1.39908 -0.306015 2.79819
1.40491 0.842414 2.6345
2.23236 0.423497 2.61242
0.735222 0.207346 2.88908
0.621415 -0.550845 3.12509
-0.567352 -1.43672 3.46314
2.36538 -0.120669 2.96124
0.3507 -0.506625 3.12282
0.645902 0.99449 2.89562
0.488174 0.278982 2.86136
0.583384 -1.60151 3.92804
1.4318 -0.444503 2.83069
0.788782 -1.74747 3.61393
-0.746513 0.672673 1.98539
2.36145 0.58872 2.76236
0.881586 -1.40229 3.51592
-0.743832 0.261093 3.02458
-0.905404 -0.449309 3.20679
-1.15252 0.11496 3.13369
-0.638719 -0.745004 3.45096
1.51405 0.730796 2.61708
2.29232 0.771951 2.88117
-1.16796 0.0796389 3.12967
-1.28332 -1.56066 3.35114
-0.372849 0.801843 3.06587
0.231723 -0.689706 3.26076
-0.468982 -1.55168 3.47187
0.730276 0.160954 2.87469
0.769539 -1.66616 3.82941
0.52767 -0.644083 3.19718
1.25961 0.809556 2.68571
0.631166 0.12733 2.89536
0.31056 -1.54439 3.57276
-0.734637 1.05373 2.87714
-0.38375 -0.604171 3.3086
-1.24329 0.840496 2.83033
1.11835 -0.651487 3.00439
1.21853 0.108644 2.74576
-0.912182 -0.30347 3.15643
-0.217202 0.872796 3.04074
-0.42544 0.824221 3.07326
0.499349 -1.652 3.67523
1.93032 -0.609196 2.9775
-0.0525307 0.0923158 2.98465
-0.397761 -0.659823 3.324
-0.927736 0.217161 2.99181
0.445501 -1.59447 3.67658
-1.48489 1.0495 3.25054
0.109138 0.163697 2.94405
0.652644 -0.593144 3.08031
-0.0391621 -1.48282 3.5392
0.312919 0.162632 2.92673
1.00749 -1.61571 3.63525
1.37348 -0.525751 2.86578
0.492092 0.885155 2.95425
1.20369 0.680659 2.82254
0.424309 -0.0181943 2.95726
-0.476087 0.891972 2.65533
-1.16202 -0.816629 3.37777
1.95592 -2.17242 4.75469
1.31357 0.723028 2.74384
-1.17896 -0.782616 3.37869
-1.05468 0.0668302 3.06161
0.167112 -0.727881 3.22896
0.839082 -1.71371 3.67293
-0.0638288 0.74082 2.98307
1.67775 -0.0846063 2.59074
1.72982 0.00970334 2.70524
-1.27846 -0.987527 3.38078
-1.47276 0.634702 3.11604
1.73735 1.09761 2.5503
0.331055 -0.159629 2.98225
-0.457736 -1.00505 3.57366
-0.138712 0.565591 3.03097
1.92778 0.157917 2.73643
-1.33405 -0.123039 3.0735
-0.0280085 1.13278 2.68823
1.32199 -0.827524 2.98377
0.994706 0.647783 2.90989
1.63476 -0.0899343 2.81383
-0.696046 -0.890704 3.39352
-0.628128 0.624508 3.01755
1.17107 1.19395 2.7179
-1.20897 -0.0449224 3.05706
1.32304 1.03808 2.57131
-0.749882 0.465545 3.01135
1.66613 -0.276669 2.832
1.35245 -1.16843 3.45118
-0.985068 -0.246221 3.13302
-0.575993 0.855943 1.86488
-1.23073 -1.02998 3.24622
1.62777 0.472356 2.63461
1.93665 0.55058 2.63364
0.797584 -0.194295 2.94815
-0.108604 0.85246 2.04575
1.32064 -0.969538 3.06838
0.818725 0.478688 2.95742
-0.850431 0.657494 3.09093
1.22818 -0.122777 2.80149
1.88499 0.475948 2.63827
0.616354 -0.944282 3.311
1.60386 -0.733202 2.58151
1.06604 -0.0816031 2.81462
-1.31375 -0.873844 3.23386
0.594227 0.586447 2.97372
-0.0803871 -0.0151301 2.97573
1.72233 -0.765807 2.8725
-1.38879 -0.0461606 3.10924
-0.192402 0.701559 2.99266
1.38933 1.17997 2.60754
1.80061 0.489584 2.64025
1.18062 -0.74031 2.97303
0.324667 0.677243 3.0273
1.02208 -1.09019 3.36928
-0.013774 -0.241857 3.06892
0.322449 0.465419 2.86834
-0.476557 0.780619 1.86418
1.52518 -0.202568 2.75315
-0.380329 0.858638 1.90478
0.165106 -1.03618 3.38039
1.18209 0.523968 2.81302
-1.25485 -0.16424 3.15477
-0.0330442 1.16628 2.68483
-0.469233 -1.00447 3.39554
-0.720647 0.519715 3.02739
0.3099 -0.395313 3.06277
1.32992 0.351635 2.75291
-1.15753 -0.530335 3.20861
0.285255 -1.3221 3.55353
-0.298418 0.769289 1.99384
1.61377 -1.21925 3.27845
0.81686 -0.366364 3.00446
-0.195784 0.779159 2.08982
0.139034 0.338351 2.90254
-1.25856 -1.12348 3.25302
0.829999 0.438134 2.90931
0.328292 -0.334866 3.13723
0.951779 1.11508 2.78079
2.69447 0.664784 2.73183
1.03924 0.40631 2.86089
1.66089 -1.08498 3.16831
0.174978 1.44482 2.64688
0.154013 1.12622 2.92048
0.322027 -0.289077 3.11783
-0.052854 -1.43023 3.51534
0.0592889 0.967406 2.96153
2.40169 -0.054992 3.12047
-1.26932 0.260538 3.02758
0.526895 -0.523438 3.12637
0.774146 -0.579362 1.10486
-0.839325 -0.489162 3.25467
1.35205 0.943594 2.65584
0.45808 0.296994 2.88093
0.69378 -1.56633 3.91529
0.909195 -0.433537 3.00997
1.3541 0.925839 2.71101
2.16309 -1.19019 3.69534
0.322171 -1.38002 3.57665
0.549059 0.259177 2.83642
-1.38514 -0.995328 3.22788
1.4998 1.16179 2.57473
-0.456757 0.560787 3.01446
-0.360937 -0.210504 3.09186
0.992687 1.23396 2.74271
0.0160239 0.521188 2.9969
0.616228 -0.975948 3.31572
-0.515578 0.899135 1.877
-0.691352 -0.158791 3.07944
0.93948 -0.944758 3.3021
-0.308644 -0.112813 3.01944
-0.911172 0.579903 2.89156
0.500991 -0.360221 3.02566
0.857281 1.07537 2.75716
0.260446 -1.34377 3.7011
0.0276741 0.415336 2.9369
0.947824 1.05105 2.78042
-0.475002 -0.332295 3.0719
0.104249 -1.23424 3.57531
0.864569 0.364525 2.91028
-0.990935 0.497501 2.9841
1.26947 -0.262835 2.78935
0.102349 1.35977 2.65323
0.684767 1.17359 2.84315
-1.17326 -1.06957 3.234
-1.37208 -1.00299 3.14638
0.0901267 1.15164 2.9069
-0.913162 -0.238336 3.11053
0.539919 0.44792 2.91203
-1.07611 -0.279381 3.14041
0.551425 0.298894 2.8479
1.37942 -1.38469 3.41207
-2.46735 -0.866256 5.30022
1.41294 0.95943 2.66412
-0.670616 -1.29127 3.40969
-0.368887 0.279419 2.97645
1.72294 -1.75533 3.42841
1.65795 -0.40398 2.79642
1.29261 0.954633 2.78354
-1.04177 -1.2215 3.37901
-0.526288 0.727349 1.94803
1.96082 -0.416499 2.71057
-0.094152 -0.406869 3.12945
1.6872 0.319133 2.71087
0.0121715 0.628708 1.31139
0.0628247 0.896522 3.02729
1.245 -0.576401 2.81756
1.58717 0.149785 2.79406
-0.822793 -1.53368 3.43297
-0.992978 -0.608539 3.22393
2.13365 0.22139 2.85862
-0.703676 0.864534 2.8957
1.57504 -1.34261 3.30913
-1.38784 -1.41672 3.28912
-0.0142196 0.138538 2.95699
-0.388558 -0.572759 3.2869
0.204084 0.249338 2.93935
-0.800857 -1.42938 3.4471
-0.683738 0.887033 2.94855
0.325 1.01175 3.06043
0.755394 0.933173 2.93898
-1.0013 -1.33515 3.32316
0.702393 0.202653 2.90058
1.30064 -1.70019 3.67765
-0.752994 -0.509191 3.15544
1.26096 0.32789 2.83657
1.00787 -1.33133 3.42727
0.0321104 1.13612 2.46837
-0.72703 0.714499 1.92129
-0.539154 -0.442175 3.19487
1.27374 -1.25091 3.31128
-0.24881 0.31443 2.99356
0.857484 1.00123 2.83198
0.095061 -0.399112 3.10634
0.0303392 0.633825 1.30997
-0.518789 -1.26174 3.54843
-0.869095 0.423098 2.94147
0.264227 -0.369647 3.09158
0.68025 1.1044 2.83201
1.14314 -1.19345 3.3855
2.4298 0.512696 2.63815
-0.807361 0.389801 3.01681
-0.272049 0.773947 2.02491
-1.32328 -0.334799 3.15541
1.01327 -0.580821 3.00439
0.544063 0.931469 2.95717
1.01852 -1.63373 3.71452
-0.119212 0.214514 2.96804
2.23117 0.447946 2.60618
-0.574677 -0.566344 3.29307
1.46598 0.793458 2.6451
0.54916 -1.53441 3.63985
1.20388 0.152649 2.80695
-1.39902 -0.534648 3.25485
2.36075 -0.0341707 2.97584
-0.576718 0.694509 1.99466
-1.12942 -1.33682 3.32616
1.01844 0.257393 2.85261
-0.807025 -0.479776 3.19451
1.07848 -0.463483 2.90487
1.49174 0.870148 2.61407
0.468746 -1.44281 3.63131
-1.13758 0.263515 3.05432
1.8924 0.0626571 2.91207
-0.406256 0.0988048 2.97049
1.04756 -1.56557 3.58386
-0.992406 0.808705 2.85991
-1.14786 -0.743821 3.39251
-0.561164 0.0613505 3.01589
-1.32277 -0.705649 3.33825
0.0551962 0.793973 3.02943
-1.46883 -1.44599 3.19557
2.36433 0.37377 3.7007
0.945697 -0.644346 3.12599
0.155687 0.13624 2.97053
-0.306051 0.818593 1.93444
1.48659 0.754181 2.5793
-1.10883 -0.0752852 3.07372
1.32003 0.617285 2.76158
-1.25406 -0.876517 3.25813
0.025089 1.27804 2.88422
0.516347 -0.0471007 2.96146
1.81919 -0.5773 2.82113
0.920998 -0.822059 3.1676
-0.400425 0.635899 3.06609
1.45239 -1.69364 3.58677
1.07463 0.0183869 2.83312
1.10964 0.711768 2.81941
1.02908 -0.758698 3.0597
0.730008 0.69821 2.95435
-1.24088 0.294279 3.00838
-1.31666 -0.0107134 3.04072
1.11038 -1.74923 3.59714
0.860225 -0.770241 3.20654
1.87223 0.152408 2.70934
-0.962609 -0.0423929 3.02932
1.3081 0.644356 2.73582
-0.670845 0.869879 2.71368
-1.4714 -0.829777 3.15577
1.7598 -0.0274366 2.72132
1.13348 0.646955 2.87478
1.36408 -0.736774 2.93163
2.4826 -0.0412973 3.84798
0.572148 0.772264 2.95105
-0.14977 0.058665 3.00002
1.84543 0.389815 2.64078
0.453671 -0.802236 3.33906
1.70064 0.644849 2.59271
-0.502477 -0.716585 3.24276
1.64103 0.0111651 2.8157
1.72863 -0.788401 2.86158
0.106335 -1.0073 3.43475
-0.923038 0.76831 2.73717
-0.291777 0.598576 3.08789
-1.18864 -0.168009 3.10306
1.67385 0.479869 2.65207
-1.45158 -0.868001 3.01947
-0.496653 0.869902 1.89266
-1.22406 -0.127388 3.10482
-1.34894 -0.864617 3.15437
1.72892 -0.0844525 2.75809
1.12974 1.24709 2.72966
-0.889186 0.650459 3.08337
0.533109 -0.331696 3.02406
1.20238 1.08919 2.70975
1.62654 0.398522 2.58363
0.0591878 -1.19563 3.42606
-0.120464 0.797058 2.02176
0.76073 -0.287433 3.00125
0.10358 0.401992 2.91155
1.21273 -1.10912 3.23737
-0.448386 0.522546 3.00748
0.132835 -0.245439 3.02986
-0.168548 0.942032 1.98468
-0.793162 -1.11079 3.51514
0.26687 1.38994 2.73391
0.133645 1.1819 2.8797
-0.566477 -0.21753 3.11042
-0.377381 -1.03856 3.32766
1.3535 0.45381 2.80244
1.09485 -1.33747 3.40872
0.0644018 0.33603 2.90255
0.0136299 1.1002 2.36197
-2.43969 -0.98378 5.54671
0.890563 1.03394 2.81782
0.765339 -1.30688 3.47704
0.0595953 0.300615 2.93514
-1.43407 -0.420991 3.22443
-0.169836 0.843024 2.32921
0.880637 -1.35866 3.71693
-0.0274586 0.556217 1.39059
1.60942 -0.356678 2.80758
2.69653 0.74915 2.79814
-0.577104 0.376761 2.9924
0.234708 1.10242 2.93671
0.85901 1.14732 2.7834
0.00764593 0.482437 2.95635
1.28186 -0.236853 2.8049
0.143621 -1.13364 3.53601
1.58531 -0.20944 2.79241
-0.317639 0.860877 1.939
-0.669558 -1.04504 3.444
1.15816 0.522402 2.84612
-0.666839 0.809359 1.86461
1.22737 -0.162666 2.79614
-1.24735 0.520572 2.91571
-0.552971 -0.98489 3.31334
-0.128129 0.368563 2.95687
0.133289 -1.31394 3.52845
0.852807 1.30414 2.79181
1.54641 0.997339 2.62686
1.25485 -0.380534 2.82294
-0.457982 0.340723 3.00621
-0.542686 -1.23167 3.44043
-0.295929 0.754494 2.0271
0.12804 -0.366008 3.08563
2.60173 0.693249 2.7669
1.30421 -1.18238 3.32066
1.09531 0.439214 2.86832
-0.30514 -0.343582 3.1343
-0.171933 0.817002 2.02557
-1.06746 -0.118734 3.11721
0.825396 0.40359 2.91937
-0.907872 -1.10492 3.36318
-0.620961 0.740384 1.90139
0.689018 -0.286803 3.02977
-0.437409 0.690213 2.0747
0.690391 0.232075 2.91679
-0.000380172 0.548712 1.29838
-1.01397 -0.523778 3.13299
1.59976 0.802382 2.57706
