ply
format ascii 1.0
element vertex 1837
property float x
property float y
property float z
end_header
1.07504 -1.3846 3.48229
0.114211 0.252136 2.91596
-1.18319 -0.438917 3.20612
0.870911 0.340335 2.91141
0.538244 -1.37424 3.59003
0.0112942 1.06982 2.91716
2.10088 0.449162 2.62462
-0.996521 -1.26538 3.48144
0.714418 1.01327 2.85051
2.18517 -0.117367 3.17943
1.62393 -0.364873 2.75169
-1.37809 0.325444 2.95922
1.72243 0.163525 2.74575
-1.27042 -1.42184 3.16121
1.47859 0.791704 2.5971
0.0728133 -0.634475 3.20604
-0.486912 -1.49098 3.47915
-1.17535 0.145745 2.95695
1.69824 -0.542191 2.78336
2.15516 0.195016 2.87049
0.157514 0.863208 2.98993
1.24958 -1.59036 3.75036
0.701201 -1.46033 3.57662
-0.0874097 0.950494 3.02805
-0.0318253 -0.55122 3.17187
1.73175 0.202174 2.74677
2.1105 0.333116 2.6386
1.48646 0.424884 2.6915
1.00263 -0.310439 2.92608
-0.638768 0.757717 1.86741
1.53779 -1.15102 3.25495
0.221933 -1.14887 3.5094
-0.20215 0.785191 1.96111
0.913364 -0.267792 2.974
-1.03093 0.454822 3.04756
-0.265604 -1.05315 3.36279
-0.883192 0.563884 3.08191
1.38548 -0.222906 2.82042
-0.567785 0.835244 1.87882
-0.537858 0.502961 2.99636
-0.489941 -1.08907 3.56818
1.08072 1.13546 2.69783
1.76074 -0.202087 2.79472
-0.354374 -1.31959 3.50175
0.255046 1.06361 2.9744
1.4332 -0.399123 2.8339
0.070856 0.610833 1.40337
-0.207144 0.321807 2.99178
0.196786 1.48422 2.64501
1.23792 1.05127 2.73035
0.0364491 -0.378807 3.10527
1.47538 0.382899 2.91376
0.245803 -1.30585 3.55534
1.40732 0.979301 2.62125
1.24766 -0.346489 2.84812
0.057259 0.933164 1.87593
-0.986813 0.36266 2.96189
-0.866822 -1.1946 3.40977
-0.9402 -0.577934 3.15033
2.08272 0.421314 2.63028
-0.0957909 0.217192 2.96704
-1.00141 -1.42265 3.30924
1.27298 0.876838 2.73759
-0.312756 0.915155 3.05101
1.0125 -1.58471 3.746
2.44059 1.08278 2.91808
1.7395 0.155498 2.73204
0.340915 -0.540923 3.13661
-0.601513 -1.63086 3.42236
-0.156023 0.29025 2.96892
0.926666 -1.56371 3.82068
2.43923 1.10903 2.8632
1.03987 -0.475419 2.9255
-0.074092 1.02822 3.00207
2.32817 0.619669 2.75649
0.538926 -1.48015 3.75127
-0.319654 0.265053 2.99091
-0.212015 -0.464436 3.1685
-0.728359 0.676287 1.98476
-0.0095077 0.787028 2.97767
-0.681825 0.0717343 3.03132
-0.98882 -0.569167 3.306
-0.682523 -0.735731 3.39626
-0.112716 1.35311 2.90413
-0.822781 0.668905 2.25702
0.452111 -0.657607 3.14994
-0.555015 0.13883 2.98685
0.391158 -1.63783 3.5652
-0.909745 -0.658534 3.41208
1.33362 0.755378 2.69053
-0.508302 -1.55867 3.50559
0.474366 0.0985967 2.90418
1.2207 0.914654 2.73831
-1.34141 -0.561384 3.2301
2.18857 0.964096 3.04347
1.9439 -0.486939 2.78234
-1.75037 -1.50448 3.52941
1.483 0.242644 2.84302
0.481908 -0.513808 3.14764
-0.413754 0.684936 2.10552
0.0875241 0.695948 1.45821
-2.22352 -1.91726 4.62604
-1.12509 0.233411 3.05333
-0.836245 0.320761 2.96648
-0.998941 -1.37561 3.46272
0.372914 1.06602 2.97297
2.32476 0.964036 2.93273
1.59123 -0.445703 2.86245
-0.755642 -1.31873 3.50478
-1.32937 0.309546 3.01652
-0.707714 0.69414 1.97161
-0.0301575 -0.435109 3.17093
2.10896 0.355052 2.62418
0.876392 -1.69812 3.68166
1.25146 -0.639286 2.98439
0.774829 -1.68134 3.65223
-1.37872 0.118659 3.08407
-0.566742 0.821726 2.95681
2.22302 0.269465 2.63273
1.28753 1.02864 2.71121
1.31007 -0.58166 2.85049
-0.665245 0.643281 2.07408
1.18228 -1.7197 3.78445
-0.203999 0.1885 2.98976
0.498332 -0.598891 3.21356
1.07644 0.82325 2.81124
1.6836 0.120982 2.76186
-0.0800245 -1.56893 3.63691
-0.0567034 0.707621 2.96888
1.16263 -0.0411089 2.82171
0.0867054 1.28038 2.76926
-0.552054 0.00361424 3.05101
1.4067 -0.761563 2.92225
-0.915681 0.674446 2.93904
2.26489 0.937399 3.2062
0.883879 -0.778189 3.15522
1.44224 0.0506992 2.86804
-0.544074 -0.769838 3.30862
-0.315789 0.794643 3.02911
0.791389 -1.53893 3.73518
-0.935249 0.041765 3.06704
-1.10954 0.229129 3.0297
-1.00851 0.775297 2.99947
0.0430745 -0.710842 3.24901
-0.0991107 -0.966251 3.38098
0.314537 -1.72296 3.62573
-0.187711 -0.14837 3.04256
0.0701305 1.2372 2.78096
0.964637 0.548375 2.88879
0.259272 1.31665 2.90828
1.82176 0.885538 2.54455
-1.16353 -0.109106 3.12657
-0.502294 0.648216 3.05937
1.5036 -0.820715 2.83317
-0.277911 -0.0742296 3.05298
1.65444 -0.805063 2.89427
1.21631 0.554721 2.79286
-1.25618 -0.910625 3.26698
-1.30577 -0.114594 3.10074
1.79994 0.513348 2.63879
0.206006 0.582687 2.93287
-0.650363 0.703271 2.20442
0.590006 -0.0755121 2.94523
0.513015 1.27957 2.88082
-0.601369 0.682116 3.06401
0.264941 -0.899465 3.32503
-1.26544 -0.0421404 3.08051
1.03721 -0.852319 3.27511
0.609129 0.626944 2.98387
-1.28927 -0.287711 3.19929
-0.745702 0.752392 1.79274
-0.720501 -1.11883 3.42454
-0.283969 0.493615 2.98363
-0.208321 -0.231554 3.09112
0.435633 1.15879 2.89397
-3.40985 1.10839 7.05097
0.594658 -1.09008 3.39162
-0.774323 -1.05643 3.48412
1.00086 0.541753 2.89745
0.664036 -0.19829 2.96178
-0.32226 0.800773 2.09879
0.0629363 0.531089 2.96709
1.14705 -0.98426 3.28865
-0.30506 0.898205 1.93697
-0.753135 -0.15075 3.08419
0.862323 -1.36966 3.68136
-0.985182 -0.392723 3.15349
-0.276079 -1.12121 3.50148
-0.0699705 0.354307 2.97429
-0.762932 0.706307 1.89747
1.76116 -0.354538 2.72873
1.61288 1.00729 2.53237
2.50311 0.700273 2.7952
1.55482 0.366956 2.51135
-1.06231 -1.09054 3.10158
-0.671716 0.733013 1.92055
0.408762 -0.321219 3.08113
-0.256545 0.378389 2.93793
0.490218 -1.28205 3.70458
0.146353 -0.554521 3.15969
2.34637 -0.158037 3.01658
-0.235689 0.252017 2.98801
-0.736645 -1.45796 3.52486
1.67921 0.853867 2.54614
1.38123 0.843452 2.63816
-0.92822 -1.39539 3.48539
0.284651 1.38091 2.90421
-0.0500295 0.2177 2.94764
0.880162 -0.507645 3.03925
-0.685478 -1.35064 3.46463
-0.794763 0.32562 3.00606
1.13249 -0.439707 2.8809
0.685436 1.01749 2.86487
2.28079 0.630687 2.7609
-0.13894 -1.35205 3.57831
0.089325 0.275941 2.9038
2.38332 0.898159 2.93454
-0.740929 -0.429703 3.15938
0.623654 0.99713 2.89078
-1.3923 -1.14101 3.16723
0.0610118 0.420501 2.92617
1.15802 -0.356014 2.87314
-0.784899 0.730852 1.8483
0.588036 -1.2306 3.52819
0.270699 0.369448 2.89563
-0.827717 0.716452 1.85854
1.08179 -0.316707 2.87418
0.198014 1.17611 2.944
0.0795434 1.31176 2.44144
1.35704 0.430809 2.79182
-0.468328 -0.288143 3.09325
-0.652718 -1.11454 3.39485
0.394307 -1.42705 3.55973
1.33397 -0.477186 2.83764
-0.491105 0.701573 2.02319
1.22674 0.272512 2.84738
0.528371 -1.50204 3.68224
-1.38019 -0.494313 3.24437
0.633197 0.971828 2.91647
0.0596662 0.941967 1.95725
-0.952135 -1.38858 3.56705
0.661522 0.236367 2.91531
-0.60758 0.34736 2.96968
1.39949 -1.31877 3.36026
0.0518613 1.06668 2.91903
2.34283 0.238089 2.73957
-0.642792 -0.443773 3.1787
0.629729 0.295808 2.90725
0.434996 -1.29851 3.49952
-0.79603 0.684459 1.88429
0.56554 -0.393882 3.04792
1.09745 -1.67628 3.62667
-0.0694101 -1.58 3.53295
-0.524856 0.172348 2.98676
-1.44068 -0.614741 3.04716
0.782344 0.867513 2.86311
0.863481 0.122556 2.89553
-0.80886 -1.44977 3.35503
0.374582 -1.74562 3.63813
-0.550295 -0.571883 3.1148
0.354844 0.861017 2.97965
2.01602 -0.793498 3.26259
0.65896 -1.61767 3.6241
-0.45206 0.678813 2.10565
1.31695 0.194817 2.7871
1.8274 0.316518 2.80513
1.26695 -0.531721 2.9204
0.78132 -1.71833 4.0414
1.33289 0.683906 2.719
2.23502 -0.194587 3.58078
-0.275814 0.0295782 3.02196
0.407652 -0.813383 3.31791
-0.242918 0.735395 3.09802
-0.0797909 1.09528 2.96017
0.712317 -0.013717 2.93273
-0.7915 -0.799153 3.4525
0.911751 0.0947894 2.88809
1.67685 -0.768059 2.55868
1.03768 -0.67967 3.03726
-0.102384 0.835362 3.06057
-0.253337 0.0643252 3.04217
-0.807357 -1.60305 3.44705
1.86485 -0.507792 2.73795
1.64943 0.700962 2.65152
-0.918519 -0.690562 3.31601
-0.196368 0.768722 2.10857
-0.562887 0.322398 3.02735
-0.935795 0.0182341 3.08657
0.467513 -0.42528 3.058
0.102176 1.24749 2.43893
-1.05064 -1.25213 3.29652
0.974738 -0.381746 2.98595
-0.346634 0.766223 1.98102
1.34005 -1.22935 3.26193
0.591662 0.376803 2.93883
0.705091 -0.360609 3.02589
1.44445 0.975505 2.63061
1.49107 -1.22694 3.35457
0.51249 0.334622 2.86227
2.51103 0.305211 2.64924
0.78843 -1.71313 3.91551
1.17959 0.20211 2.80084
2.26865 0.141098 2.96102
0.162537 -0.592703 3.18414
-0.362012 0.918267 2.7804
-0.177478 -1.50669 3.62968
0.958127 0.158125 2.85006
2.36778 -0.0922209 2.97879
1.58531 -0.497501 2.75904
1.07647 0.853266 2.82038
1.41567 -1.4119 3.38965
1.41172 0.268295 2.77347
2.18178 0.284891 2.63262
0.655238 -0.509611 3.11934
-0.33161 0.726409 2.06491
-1.45773 -1.23005 3.06677
-1.37964 0.282463 3.08954
-0.0141412 1.32403 2.89494
-0.749856 -0.473866 3.19875
0.382746 0.98306 2.97192
0.136525 0.797233 3.04413
-2.48476 -1.26761 5.22427
-0.100307 1.32773 2.89586
0.446875 0.0591375 2.92348
-0.513952 0.767913 3.03684
-0.300052 -0.713076 3.24402
-0.677152 -0.984667 3.57578
-0.165621 0.032407 3.00711
1.05935 -0.653202 3.03388
-0.499786 0.799854 2.76914
-0.0872168 -1.69275 3.63665
1.73458 0.118695 2.73343
1.84983 -0.322263 2.71044
1.56127 -0.588031 2.84876
-0.501827 0.819167 3.00729
-0.455222 0.101484 3.02024
0.695348 -1.74145 3.88721
0.714934 -1.58537 3.76221
0.403278 -0.877715 3.26813
-0.998346 0.78664 2.84642
-0.829224 0.704887 3.05935
-0.848346 -0.0659849 3.0909
0.0401219 -0.838138 3.29121
0.560262 0.627708 2.94996
-0.566098 -0.0379876 3.08028
1.26532 -1.78766 3.71359
-2.15819 -1.1022 4.39083
-0.283758 0.883733 2.43393
-0.30451 0.952959 2.74774
0.133961 -0.00566299 2.95146
-1.13198 0.724386 2.94486
-3.14285 -3.24878 6.92852
1.08506 0.770592 2.79107
1.46142 -0.628528 2.91461
-1.18674 0.118998 3.13699
-0.101769 -1.69848 3.5255
0.60773 -1.47308 3.58822
2.18843 0.315222 2.62561
1.23599 0.816758 2.71494
-0.186633 -0.639417 3.27302
-0.070302 0.177898 2.96677
-0.879473 -1.52634 3.42641
1.20484 -0.57951 3.01009
1.42254 0.754649 2.60221
0.190644 -1.52669 3.5244
-0.226668 0.13692 3.00439
-0.216828 1.15673 2.95841
0.294484 -0.0375333 2.95688
-0.227977 -0.00824615 3.05473
0.0146518 1.17257 2.87589
1.43874 -0.767541 2.90073
0.14007 0.72299 3.03287
2.30988 -1.52763 4.22037
1.1538 -0.770787 3.10307
-1.16223 0.670174 2.89067
0.32043 -0.781025 3.31382
1.78332 0.0594246 2.76887
-1.00428 0.79265 2.91933
1.52868 -1.49049 3.44327
1.64143 -0.827721 2.7296
1.61119 0.0261582 2.67378
-1.33561 -0.718932 3.27628
1.71726 0.700536 2.71444
0.24042 1.25788 2.92739
-1.19936 0.534979 2.76319
1.27267 1.14238 2.67673
-1.01839 -0.158023 3.15434
0.287443 -0.99703 3.40229
1.86285 0.998359 2.54569
-0.0667137 -0.110553 3.03546
0.194083 -0.92573 3.3092
-0.711208 0.636835 2.99344
-1.20111 -0.0739962 3.10071
-1.07136 0.590061 2.90579
1.31446 -0.840302 3.03485
-0.917876 0.466833 2.96074
-0.738232 -1.16403 3.41774
1.6031 -0.297401 2.73645
0.827649 1.12077 2.7879
1.48503 0.386388 2.71341
-1.04235 -1.07057 3.32585
-0.298691 -0.276079 3.076
-0.0924804 0.832476 2.11994
-0.0133506 -1.07139 3.40131
-1.09348 0.532945 2.93606
-0.507614 -0.240871 3.08739
-0.458283 0.873202 1.89729
0.186486 -1.09913 3.62399
-1.71161 0.622165 3.63977
-1.04449 -0.197159 3.11275
-0.136412 0.84262 2.00492
0.392876 0.477911 2.92735
1.26082 -0.274827 2.8531
-0.156334 0.839289 1.99258
-1.11054 -1.09282 3.32988
-1.31312 -1.03599 3.25759
0.748352 1.12239 2.80794
1.55951 -0.243083 2.84116
-1.10344 0.460743 2.92463
0.80217 -1.06406 3.41797
-0.954982 0.557577 2.95485
-1.35381 -0.207174 3.08635
-0.607946 0.841751 1.87088
1.37611 0.493219 2.7942
1.18139 -0.958218 3.21658
-0.880776 -0.165301 3.12003
0.940681 1.02047 2.79005
0.132179 1.33031 2.88447
1.05321 0.336755 2.87463
-0.0172135 1.07931 2.36594
-1.06383 -0.405686 3.16621
0.624767 -1.29815 3.48736
-1.35572 -0.38201 3.17953
0.305357 1.1687 2.98144
-1.37073 -1.16416 3.25189
1.79204 0.399779 2.78138
-0.267649 0.775308 2.01052
0.50378 -0.325445 3.03466
2.64931 0.641449 2.72403
0.389466 -1.23191 3.53494
1.49659 0.340543 2.73062
-0.00771569 -1.51845 3.64619
-0.783616 0.257017 3.04228
2.1558 -1.09647 3.51997
1.51361 -0.501447 2.72164
-0.694507 0.66973 2.04262
0.7904 -1.71231 4.13595
-0.754966 0.218073 2.96575
1.31578 -1.7209 3.72193
0.760051 -0.515188 3.06794
-0.769362 0.64648 2.0337
-0.327443 0.314605 2.9812
1.40923 -1.67936 3.55657
1.40466 -1.51689 3.73781
2.06562 0.268098 2.75688
0.916045 -0.463317 3.02348
-0.00455408 1.03444 2.9334
0.436077 -1.40106 3.63311
0.836147 0.27128 2.87585
1.8782 0.675516 2.64674
-1.03086 -0.438148 3.17508
1.66535 0.873305 2.5619
1.64366 0.739082 2.66668
1.01294 -1.58765 3.62228
0.0428862 0.10319 2.9952
-1.4031 -0.674426 3.15296
0.495935 0.629428 2.94333
0.574235 0.882466 2.93971
0.136192 -0.641235 3.21829
0.633859 0.15853 2.87681
-1.04761 -1.5518 3.44299
1.25977 -2.00828 4.11895
0.98203 -0.584812 3.03672
0.73141 0.831105 2.89435
0.473758 -1.63551 3.76729
-0.734939 0.137954 3.01642
-0.278682 0.971916 2.38086
0.288921 -0.522628 3.11847
-0.0767301 0.481252 1.47176
0.167544 0.270848 2.91462
-0.186052 -1.4502 3.58013
0.882992 0.969114 2.84901
-1.34522 -0.497317 3.22934
-0.194642 0.973505 2.98314
2.66214 0.871705 2.8345
0.104691 -1.38944 3.49648
-1.38794 0.255317 3.01369
-0.516123 0.349409 3.02397
-0.328476 -1.34882 3.5488
-1.43299 -0.458204 3.19718
-0.342576 0.746526 2.00972
2.09344 0.491495 2.59784
-0.457155 -1.31141 3.56059
0.330123 0.295713 2.90161
2.01118 -0.457292 2.77738
-0.511913 -0.412417 3.27229
1.29608 0.970948 2.72859
-0.280476 -1.63233 3.63736
1.44086 -0.587502 2.83697
-0.885437 -0.319363 3.16383
0.945706 0.125489 2.87772
-0.368122 0.878443 3.06277
2.00961 0.299062 2.76673
-0.692726 0.958431 2.94597
0.628331 -0.598595 3.1536
0.968245 0.899497 2.84915
0.0331465 -1.53156 3.54493
1.65205 0.184805 2.68466
-0.96476 -0.564779 3.15285
-0.798739 0.638245 2.10681
-0.290676 -1.48155 3.55485
-0.307559 0.168149 2.98224
1.18682 0.00946706 2.7717
1.52613 -1.00668 3.28219
1.25373 -0.7602 2.99687
-0.226155 0.763968 3.06262
-1.19387 -0.768047 3.28022
-0.0235588 0.723902 3.05437
-0.276481 1.04846 2.86695
0.160855 -0.0156003 2.95045
-0.757718 0.103517 3.05458
-0.723058 0.822406 2.95751
0.996191 -1.733 3.68553
-0.458517 -0.733437 3.29172
1.62329 0.601115 2.54735
-1.19012 0.0685395 2.97234
0.494941 -0.689157 3.21356
0.402762 0.789265 2.99405
1.29561 -0.884582 3.04742
0.995137 0.570932 2.91975
-0.546798 -1.61757 3.44876
-0.462809 0.717303 1.93727
1.4242 -0.1317 2.74078
1.91852 0.436128 2.63544
1.17821 -0.0855733 2.75352
0.846928 0.649608 2.89884
0.970968 -0.913963 3.31618
-0.0353101 -0.0502619 3.02225
-0.669666 0.620994 2.99429
0.428398 1.29101 2.87694
1.74223 -0.735056 2.76298
0.255262 0.208079 2.95488
1.04511 -1.56244 3.57361
1.77039 -0.441554 2.73683
0.617663 0.926067 2.93825
-1.39357 -0.632391 3.33365
-1.20995 -1.41337 3.36826
-0.408308 -1.59065 3.42856
1.40971 0.155322 2.82395
-0.141314 -0.55298 3.15485
-0.4542 0.876377 2.90144
-1.08899 -1.32682 3.30135
-0.845584 -0.503112 3.19896
0.896759 -1.78335 3.64982
-0.890875 -0.50819 3.16254
-0.00388576 0.240852 2.9439
2.359 0.107879 2.94871
-0.309023 0.744246 2.19631
1.22856 0.730938 2.75471
1.40386 -0.722021 2.97159
0.801189 0.0528941 2.87611
-0.155675 0.935814 3.03055
-0.721764 -0.733145 3.3149
1.15176 0.718486 2.82116
0.647571 -1.46049 3.56133
-0.821829 0.0299178 3.09692
-1.22277 -0.714807 3.39058
1.75546 0.106813 2.72615
-1.2191 0.831896 2.82223
-0.266396 0.828199 3.03022
1.82927 -0.533561 2.79117
-1.18534 -1.561 3.4518
-0.294712 0.105977 2.96694
0.998888 -0.6152 3.01931
1.12856 -2.10723 4.84
-0.529787 -0.951955 3.54826
-0.0211477 -0.0673613 3.01214
-0.49745 0.687912 3.09959
-0.333502 0.644881 3.09691
1.19491 -0.821375 3.11041
-1.17994 0.0101946 3.09088
1.06723 -0.0464918 2.85641
1.74759 0.986223 2.53273
-1.60794 -0.83297 3.34436
1.29052 0.658686 2.7592
-1.04972 -0.00816858 3.05202
1.86624 0.516442 2.63052
-0.375054 -0.240412 3.06508
-0.0155579 1.22639 2.64658
-1.34772 -1.00967 3.16885
0.690946 0.518642 2.93967
0.974358 1.14559 2.76313
0.0184534 -0.203899 3.05048
1.02136 1.21037 2.74412
0.147177 0.480288 2.91673
-1.286 -1.05581 3.40002
-0.592925 0.620282 3.12571
1.10911 -0.155574 2.81032
0.976715 -0.969543 3.25269
-0.136994 -0.940764 3.41077
0.305532 1.25281 2.90866
0.901612 -0.12464 2.91536
0.0240318 0.577676 3.03772
1.87133 -0.558935 2.74742
-0.385312 -0.856619 3.37719
0.454006 -0.0211915 2.96283
-1.04965 -0.0402972 3.11146
-0.749517 0.719222 3.00594
-0.147593 -0.808143 3.32413
1.08996 0.650152 2.88254
-0.765312 0.074329 3.08592
1.89559 0.142146 2.74216
-1.13768 -0.787706 3.34771
-0.77722 0.799162 3.00818
-0.328418 0.0243253 2.97802
-1.01899 0.783415 2.83075
0.942661 0.724482 2.86573
1.11126 -0.690161 3.00479
-0.589602 -0.20373 3.12194
-0.654658 0.793302 1.86477
-1.82991 -1.1823 3.78325
0.19868 0.546006 2.9084
0.899256 1.19155 2.77359
1.53112 -0.160315 2.79932
-0.595437 0.827256 1.87271
-0.991027 -0.974201 3.35144
0.886436 0.241923 1.36439
-1.0417 0.789633 2.85292
-0.409269 -0.118328 3.0261
-0.578572 0.629586 3.05809
0.271272 -0.960242 3.39505
-2.66445 -0.26506 5.76574
1.38968 -0.794995 2.86041
-1.21517 0.590349 2.90006
0.138523 0.444497 2.92724
1.49303 -1.15894 3.23734
-0.837582 -0.341472 3.1977
-0.661927 0.745041 1.84559
1.40999 -1.15629 3.37836
-0.0941269 0.422816 2.96707
0.806711 1.0981 2.81671
-1.07366 -0.285375 3.14982
-0.540085 -1.14219 3.60272
1.40041 -0.229573 2.73967
1.69393 0.471504 2.85783
0.352314 1.20015 2.91113
0.981641 0.986436 2.76416
-0.998786 -0.462707 3.09405
-0.139285 0.310723 2.9806
-0.538357 -1.35948 3.47391
0.834 0.966218 2.8288
2.37654 0.464663 2.59385
-0.455604 -0.448028 3.26344
0.119932 1.4193 2.54877
1.11845 -1.3343 3.38512
-0.898196 0.290462 3.00438
0.364482 -0.400746 3.11229
0.675748 1.08475 2.88769
-1.145 -1.22162 3.3547
2.33547 0.000346342 2.87764
0.466281 0.364369 2.87438
-0.650034 0.719997 1.92824
0.367349 -0.370726 3.1269
0.113378 -1.27689 3.56524
1.7255 -0.147984 2.82082
1.55473 0.294725 2.66942
0.164776 1.06597 2.95332
0.971463 -0.440411 2.99756
-1.14966 0.352317 2.99076
0.699109 -1.40223 3.60282
-0.479905 0.715394 1.98404
0.00962844 1.13174 2.31639
1.49839 -0.382275 2.77364
0.506581 -1.35913 3.62422
-0.413767 0.307892 2.96228
1.87668 0.532561 2.63244
0.649275 -0.36367 2.95752
-0.361401 0.764057 1.94932
-0.0447284 0.538021 1.37143
0.0963373 -1.2842 3.57487
-1.2358 0.430225 2.99415
1.57473 0.983655 2.55912
-0.263399 -0.330131 3.13199
1.36648 -1.19111 3.32945
2.63194 0.690525 2.76086
0.186154 0.363105 2.92273
1.06824 0.225927 2.87536
-1.04141 -1.38258 3.27542
-0.0149509 0.560813 1.28744
-0.377589 0.708805 2.11913
1.50734 -0.536287 2.86665
0.622238 -1.53172 3.71207
0.637644 0.196089 2.88737
-0.581105 -0.531396 3.23163
-0.588185 0.654605 2.05026
1.23758 -1.48193 3.66239
2.05043 0.35088 2.64392
1.57106 -0.448601 2.74777
0.997263 0.261836 2.8911
2.23039 0.470678 2.60393
-0.250898 0.906655 2.58451
1.288 -0.675324 2.89291
1.38765 0.741788 2.70134
0.559907 -1.46218 3.59225
1.71207 0.0889262 2.76223
-1.1771 0.737237 2.73776
1.35445 -0.654608 2.97301
-0.666929 0.79171 2.97624
1.65007 0.0415457 2.8025
0.736795 -0.642208 3.12309
1.05669 0.150647 2.82134
1.43724 -1.66761 3.62669
-0.829811 0.632459 2.08632
0.673033 0.845715 2.95644
1.34386 -0.569768 2.88398
2.39885 -0.953887 3.83426
-0.582009 0.126693 3.01886
1.20782 -1.68677 3.83133
-0.277238 1.08585 2.45641
0.868798 -0.848122 3.22374
-1.16591 -0.0155882 3.0874
0.511198 -1.46151 3.58175
-0.0722217 -0.0521645 3.02109
1.33877 0.640811 2.70174
-0.19244 -0.796457 3.30197
1.46036 0.605147 2.72541
0.74098 -1.88569 3.97005
0.994413 -0.783113 3.23173
1.9038 0.375675 2.67774
1.59303 -1.47888 3.39666
1.62954 0.00941657 2.7493
0.05283 0.754332 3.04526
-0.760495 0.626127 2.15697
-0.21021 -1.68183 3.60839
-1.3247 0.139514 3.08831
-0.486514 1.38187 2.96069
1.64471 -0.604943 2.8384
2.22776 0.231523 2.74886
0.205112 -1.67541 3.70433
-0.478482 0.679734 2.12436
-0.215939 -0.61745 3.20379
-1.05933 0.217397 3.02874
1.1434 -1.49493 3.36526
0.926494 -0.557869 3.00767
-1.1393 0.745894 2.45969
-1.16404 -1.40434 3.32469
-0.71279 0.169831 2.97591
1.86463 0.995941 2.54951
1.0835 -0.783337 3.10056
-0.864382 -1.26664 4.49831
0.907935 0.0151808 2.88976
1.48694 -0.0333536 2.78475
1.26017 0.694351 2.7669
-0.586911 -0.757146 3.22487
-0.251984 1.08073 2.45388
1.14049 0.677568 2.83588
0.0179271 0.0937417 2.96965
1.56844 -1.37761 3.19725
0.794834 -0.722794 3.16798
1.11072 0.761555 2.79652
0.956811 0.0508369 2.8841
-0.525982 0.78032 2.26796
0.497839 0.762681 2.9197
1.66029 -0.631148 2.8154
-0.379325 0.595952 3.05945
1.82676 1.03905 2.55017
1.35493 -0.126823 2.69383
-0.0471997 1.07 2.40805
1.37064 -0.900155 3.07836
1.88828 0.0767306 2.70459
-0.316822 0.672388 3.07431
-0.526664 -0.0896851 3.08426
1.40092 -0.841664 3.00013
1.7372 -0.0567762 2.77601
-0.0830034 -0.869124 3.34288
1.45916 0.560193 2.66594
1.0235 -1.12316 3.30281
0.566251 0.473216 2.9194
0.499765 1.24891 2.87905
0.732951 -0.281061 3.02779
0.997547 1.13143 2.7434
1.46464 0.417521 2.78602
-1.14221 -1.03321 3.30316
-0.709382 -0.241997 3.07021
0.715297 1.1419 2.85807
-0.584949 -1.10695 3.62199
1.31397 0.513425 2.77882
-0.779267 -0.204448 3.07234
-0.15143 -0.989601 3.37438
-0.769785 0.526621 3.04543
-1.43871 -0.171181 3.088
-0.443713 0.899866 1.87767
-0.114266 0.778968 2.99211
-0.360981 0.843172 1.92765
1.30022 -0.721889 2.96473
1.09009 0.0489412 2.803
-0.575653 0.757718 3.05287
-1.35773 -0.725996 3.21653
0.5247 -1.46216 3.58035
-0.0393278 0.0239338 2.9678
-1.41057 0.136623 3.05333
1.94812 0.712646 2.569
-0.725184 -0.685313 3.29082
-0.66917 0.857397 2.89341
-1.1116 0.112698 3.12218
-0.443625 -1.60905 3.56746
0.270646 -0.0857754 0.144047
0.640047 -0.646974 3.18627
1.49711 0.723625 2.61802
1.1053 -0.848681 3.0795
-0.175794 0.660592 2.96096
1.87119 0.105424 2.70882
0.962202 -0.0782431 2.89382
-1.28941 -0.824192 3.18784
0.778599 0.606781 2.92583
-1.47618 -1.58449 3.36436
1.47353 -0.0555116 2.82912
1.5268 0.377351 2.27681
1.79454 0.957757 2.52724
-0.861552 0.713455 2.97693
-1.00502 -0.00448218 3.07337
1.1783 -0.768845 3.06379
-1.09396 -0.249879 3.14157
-0.548552 0.819918 1.88862
0.785069 -1.08344 3.34828
1.67849 0.4508 2.58989
0.970567 -0.202932 2.91553
-0.716879 0.781934 1.86342
-0.125541 0.684598 1.64051
-0.549637 -1.06284 3.43679
-0.382537 0.491916 2.98146
-0.488524 -0.995533 3.36422
0.0948769 0.5959 3.00171
-1.46778 -0.167418 3.0931
-0.983951 -0.917942 3.30818
0.510021 0.528961 2.88208
-0.663936 -0.129627 3.05986
-0.653145 0.857668 1.86069
1.37866 -1.2229 3.31522
0.259106 1.39255 2.73573
0.328977 -0.367788 3.08982
1.28147 0.357091 2.82871
-0.540035 0.74827 1.9445
0.0508183 -0.323287 3.06482
-0.315016 0.790245 1.968
0.273908 1.5143 2.7925
-0.545481 0.456292 2.99313
-1.52238 -1.14864 3.26503
0.998628 1.11038 2.83693
0.123734 -0.281987 3.05809
1.81979 0.387041 2.76803
0.536909 -1.18276 3.52989
-0.245347 -0.207831 3.08937
-0.262611 0.869326 1.95665
0.446127 -1.06581 3.43341
0.373319 1.3301 2.89565
-0.858306 0.594701 3.16789
-0.283234 0.921988 1.9355
1.75444 0.726397 2.58691
-0.423586 -0.166368 3.09283
0.277417 0.510765 2.93051
0.204086 -1.04377 3.54816
-0.196252 0.642014 3.09235
-0.542738 -0.135626 3.09002
-1.3227 -0.922027 3.26124
-0.476347 -0.958286 3.53333
-0.069149 -0.0843731 3.01639
-0.121172 0.594635 3.00235
0.72239 -1.22502 3.47804
1.73151 0.420771 2.696
0.960552 -0.319732 2.89723
1.48352 1.02877 2.52998
0.482155 0.402068 2.89449
1.362 -1.14333 3.33325
1.1245 -0.277506 2.83519
0.100365 1.11423 2.90476
1.1848 1.11599 2.6909
2.4856 0.372264 2.60422
1.53984 0.420414 2.69732
0.980704 -0.244956 2.92266
0.204789 -1.1113 3.46218
0.880915 -0.481784 3.05428
-0.053874 1.05288 2.9903
1.54135 0.274764 2.70543
-1.07499 -1.30943 3.3488
2.50956 0.0255549 2.93116
0.247896 1.52102 2.73192
-0.941692 -0.461596 3.27755
-0.0470763 1.01234 2.96126
-1.44797 -1.19888 3.08482
1.72103 0.252223 2.6809
-1.12941 -0.421153 3.25361
0.0796962 0.363474 2.91541
1.52248 -1.31254 3.42094
0.277815 1.1184 2.98145
-0.00549808 0.530909 1.21694
1.61769 -1.18905 3.20534
-1.48035 -0.385226 3.21888
-0.758138 0.70642 1.89606
0.0289735 0.582558 1.46442
0.182023 0.334851 2.9193
0.572013 -1.56911 3.61144
-1.2695 0.222942 3.02592
-1.4303 -0.605547 3.1667
1.57091 0.811761 2.58679
0.506051 -1.57745 3.75221
-1.1059 0.171329 2.92567
2.43949 0.653367 2.78886
1.50168 -0.563957 3.04715
1.40074 0.802433 2.68797
-0.49019 1.44518 2.95956
0.977568 0.931612 2.84438
0.593448 0.230025 2.89068
0.0546385 -0.52381 3.177
2.15814 -0.713257 3.22177
-1.35806 -1.32646 3.25689
0.626572 0.226561 2.91147
-1.18207 -1.36405 3.22739
0.18904 0.960858 2.99583
0.673773 -0.57269 3.11706
-0.413194 -1.46965 3.59166
-0.817738 0.206167 2.97199
-1.27442 -0.541749 3.25634
-0.261146 0.936781 3.03967
0.022995 0.710353 1.80127
0.116821 0.994628 2.96307
2.49773 0.818581 2.88013
-1.03163 -1.62978 3.45937
0.435623 0.262471 2.87869
-1.06118 -0.485758 3.09076
2.26934 0.0227839 2.96617
0.31515 -1.4677 3.65239
-1.12888 0.77059 2.76615
-1.08073 -0.765955 3.33729
-0.224549 0.0915724 3.03312
0.056574 1.31679 2.88024
-0.0396584 -0.694295 3.25374
-0.412033 1.31602 2.95314
-0.0353378 0.768895 2.98976
-0.716929 0.0628617 3.04685
0.373081 -0.643804 3.15573
-0.107604 0.168459 3.01236
-0.33942 -1.59384 3.52051
-0.175523 0.881262 3.03164
0.0839109 0.69505 3.3482
-0.743605 0.861899 2.93904
-1.03317 -1.46144 3.30643
1.40625 0.10372 2.85187
1.43899 -0.577254 2.93368
-0.298409 0.858929 1.9311
-0.838886 -0.995208 3.80012
-0.958014 0.699852 2.944
-0.144423 -0.0523862 3.02166
1.51094 -0.681115 2.66972
-0.97405 0.728643 3.25019
0.308184 -0.0178612 2.96755
-0.212204 1.01318 2.76517
1.81412 0.348766 2.65662
0.700473 0.729845 2.94673
-1.20406 0.0249272 3.09143
1.51559 0.406715 2.27159
1.45309 -0.717647 2.92865
0.430613 -0.20707 2.99171
-0.129502 0.942663 2.14989
0.345498 1.26487 2.91109
-0.4381 -1.08755 3.514
-0.987684 0.55402 2.96334
1.32597 -0.16748 2.79208
-0.633037 0.807645 1.86557
1.69799 1.11181 2.56109
-1.10889 -0.967978 3.26557
-0.346454 0.514545 2.99672
-0.592558 -0.983396 3.43431
-1.12846 0.606026 2.8669
-1.03534 -0.132677 3.16647
1.7134 -0.794403 2.8063
1.56223 0.520911 2.68256
-0.732644 -0.0837371 3.04134
0.681563 -0.800212 3.18356
1.04496 0.0123311 2.87441
2.54616 0.0136191 3.78307
0.927943 -0.0240476 2.88144
-0.313735 0.759031 3.09093
0.223142 -0.777459 3.28509
1.02645 0.682245 2.87549
1.85746 -1.40646 3.26873
-1.38592 -0.723442 3.14278
-0.869566 0.766737 2.65009
-0.348416 0.0459026 2.97776
1.34094 0.701839 2.71051
-1.38726 -0.173111 3.08305
1.36002 -0.935472 3.05582
-0.388991 0.579659 2.9988
1.89746 0.589788 2.61122
1.54617 -0.136758 2.74401
-0.547124 0.855084 1.88399
1.8809 0.363698 2.64249
-1.43748 -0.910697 3.17817
0.604597 0.537187 2.92146
0.86637 -0.0977312 2.95392
1.38777 0.592506 2.69835
-0.102692 -0.908365 3.34531
0.774815 1.26163 2.82693
0.640167 -0.0609389 2.93656
-1.40452 -0.824811 3.13209
1.73126 0.561354 2.70748
1.15597 -1.15727 3.37435
1.74932 0.449847 2.74466
0.0775932 -0.28966 3.06111
-0.451032 0.775919 1.86275
-0.693052 0.460068 3.07885
0.10559 -1.14936 3.55594
0.000273956 0.844452 2.09144
0.470626 -0.257178 2.97703
1.59179 -0.998799 3.12636
1.66252 -0.207738 2.72182
0.615048 0.502474 2.91968
-0.691954 0.71162 1.91368
1.33081 -0.412072 2.74614
0.962181 1.00758 2.78087
1.29425 -1.36241 3.43871
1.3988 0.311172 2.78647
-0.0477358 0.943565 2.15424
-0.250917 -0.412913 3.17029
0.521507 1.01945 2.91627
-0.246052 -0.223231 1.32496
0.334993 -1.31209 3.49611
0.248145 0.294946 2.91876
1.54859 0.360283 2.63381
1.27282 -0.363176 2.85839
0.699451 -1.28041 3.49993
1.18742 1.0559 2.7124
-0.0243912 0.504992 1.3187
-0.613632 -1.19125 3.45441
1.81515 -0.340508 2.81456
1.33871 1.00972 2.67348
2.26994 0.30012 2.51302
1.22567 0.353903 2.84808
0.776749 -0.893376 3.21501
1.5548 -0.0970033 2.8393
1.93199 0.000323432 2.73698
0.086818 0.650922 3.12911
1.03761 -1.74793 3.68666
1.25321 -0.0640421 2.77804
1.65201 1.14291 2.56437
0.369739 0.710835 3.02763
-0.469456 -0.873644 3.36287
0.78097 -0.0254918 2.9104
-1.2318 0.657128 2.88305
0.232274 -0.825353 3.31181
1.31709 0.491483 2.84435
1.24195 -0.241421 2.77636
-0.262005 0.878341 1.97248
-1.22837 -1.05677 3.3061
-1.27342 -1.01478 3.30419
-0.383125 0.779096 2.02934
0.83198 1.1544 2.79773
1.54847 -0.21508 2.86963
-0.455953 0.49208 3.00958
-0.662116 -1.00843 3.42819
-0.898634 0.596521 2.99914
0.0657636 -0.165627 3.02735
0.276497 0.543177 2.93346
-0.284066 -0.945119 3.35536
-0.607955 0.872411 1.88271
0.507715 -0.133008 2.94649
0.895225 1.05099 2.78093
-0.634644 0.373725 3.01598
-0.0707789 1.11873 2.80691
-1.00594 -0.371999 3.14344
-1.15787 -1.21301 3.34447
1.60814 -0.318872 2.83774
-0.474812 0.756778 1.87749
1.12877 -1.21008 3.41576
0.597621 0.441352 2.91091
-0.76635 0.7273 1.85147
-0.497561 -0.291432 3.10027
0.800499 0.40349 2.91887
1.00593 -1.19438 3.50243
-0.885296 0.160472 3.05709
1.46722 -0.4819 2.80328
-0.0470314 0.623768 1.34467
-0.575406 0.279625 2.99582
-0.443523 -1.43816 3.52562
1.0778 0.94131 2.76236
1.35563 0.880269 2.68989
0.952937 -1.52655 3.78109
-0.313708 0.242674 3.00796
-0.0315225 0.573543 1.30044
1.25495 -0.474278 2.93667
-1.41191 -1.22748 3.1667
-1.09426 0.348625 2.94983
0.399294 -0.441318 3.08888
-0.695664 0.720306 1.93799
2.31092 0.0389549 2.95419
-0.173589 -1.32678 3.58473
0.996994 0.286034 2.91474
-0.00829934 0.543384 1.289
1.0547 -0.392059 2.91731
0.176582 1.02074 2.91834
0.738908 -1.16213 3.27448
0.986257 0.438572 2.89673
0.0289858 -0.332815 3.082
-0.520059 0.419321 3.002
0.372052 -1.19071 3.5414
1.00982 1.0764 2.77287
-0.994195 -0.292343 3.13421
0.213239 1.19788 2.89388
-0.067436 -0.139358 0.845426
-0.842414 0.499781 3.0222
-1.3126 -0.258394 3.14438
1.55116 1.02826 2.54164
-0.956675 -1.02368 3.1619
2.59366 0.936353 2.86923
-0.239198 -0.487575 3.18704
1.34716 0.947664 2.68425
0.593713 0.291167 2.89052
-0.869439 -1.40572 3.53442
-1.30651 -0.452151 3.15984
-0.0404019 1.00821 2.282
1.46743 0.878369 2.56986
0.392734 -1.3754 3.55971
0.864521 0.258734 2.87059
1.66153 0.334752 2.67061
0.895051 -1.3219 3.48438
-0.185149 0.790448 2.06965
-0.0174167 0.533292 1.24476
0.237241 -0.40163 3.09736
-1.07447 0.352164 3.02482
1.25985 -1.23902 3.35159
1.1103 1.00142 2.74605
1.59362 -0.358908 2.82377
0.651741 -0.456962 0.857854
-0.967213 -1.48667 3.41114
-1.33858 -0.644854 3.37301
2.26 0.212416 2.74848
0.394236 0.159187 2.91275
-0.394476 0.891841 3.02357
-0.478522 -1.60469 3.41447
2.24813 0.509213 2.64656
-0.50522 1.40404 2.96384
-1.44955 -0.579636 3.18469
-0.852529 0.668017 2.01882
0.816175 -1.51961 3.57395
-0.827997 0.235476 2.99207
-1.00049 -0.544175 3.21812
1.66574 0.805869 2.55097
0.801983 -1.56179 3.79041
1.23586 0.18306 2.79298
-0.0341032 0.0486577 2.95557
-0.229832 1.06848 2.45275
0.987888 0.755617 2.88327
1.67818 -0.711757 2.8562
0.981652 -0.731882 3.14719
0.0310289 0.746469 3.04453
2.00484 1.07237 2.6972
0.678942 0.0129825 2.91166
0.7582 0.116576 2.8662
-0.298996 0.874403 3.02937
1.82284 0.715667 2.57448
0.872551 -0.679777 3.12839
0.608082 -1.7764 3.9082
0.275158 0.0859542 2.95627
1.05347 -0.636571 3.06503
2.49155 0.012347 3.76018
0.762614 0.799249 2.90954
0.706459 -0.73403 3.16371
1.18746 0.749016 2.76787
-0.0477921 1.11072 2.91945
1.0641 0.0768327 2.79833
1.38643 0.684915 2.66129
1.47381 -0.634044 2.84938
-0.280312 -1.07668 3.44349
1.13647 0.0314282 2.84301
-0.607975 -1.57219 3.46118
-0.669101 0.153265 2.98424
2.06529 1.16269 2.80725
-1.37156 -0.647619 3.16487
-0.109762 0.911065 3.10508
-0.25496 0.119783 3.00172
-0.678103 -1.54497 3.51879
2.11356 1.06307 2.76681
0.236402 -0.626401 3.21802
1.63642 0.740732 2.61011
1.11492 -0.814082 3.06365
0.786941 -0.064282 2.90345
0.575778 -1.76782 3.73177
-0.263482 0.685402 3.16692
1.91554 0.639296 2.61312
-1.4296 -0.0233483 3.08517
-0.904012 -1.61898 3.41758
0.113016 0.740109 3.04483
1.91833 -0.164655 2.72025
0.808744 -0.806758 3.18125
1.25077 0.00679594 2.76561
0.340139 0.707304 3.03103
-0.403189 -0.78679 3.32042
1.28246 0.51291 2.81649
0.172021 -0.225677 3.03205
-0.278069 0.909576 1.96615
0.0512234 -1.06073 3.41079
-0.621361 -1.01015 3.40918
-0.447503 0.756806 2.22485
-0.684305 0.801805 1.86578
0.991238 -0.176666 2.92517
0.828364 0.500829 2.96677
-0.548847 -0.956776 3.32685
1.04595 0.592948 2.88858
-0.383798 -0.14397 3.0951
0.44386 0.558698 2.91354
1.21724 -0.888062 3.14907
0.666235 1.24629 2.8433
0.408737 -0.0983639 2.96519
-1.02841 -1.2102 3.50716
-0.372348 -0.344788 3.13178
-1.31516 0.420547 2.95399
-0.393525 0.7593 1.94391
1.66201 -0.281947 2.62004
0.0589575 -0.222159 0.902777
1.15905 1.11519 2.7077
0.295855 -1.20771 3.54582
0.359738 0.463431 2.87945
1.13483 -0.255099 2.82639
0.393133 1.13743 2.87042
-0.582317 0.449248 2.97972
0.449396 -1.15434 3.52743
1.26139 -0.172846 2.77435
-0.422397 0.723903 1.96896
0.300294 1.30453 2.90664
-0.934778 -0.983624 3.37952
1.12305 0.551461 2.84237
-0.685026 0.856499 1.8654
-0.800517 -0.139284 3.09298
-0.549536 0.552846 3.04489
1.83523 0.66152 2.60272
-0.751386 -0.957721 3.36782
-0.563708 -0.0975957 3.09956
-0.866891 -0.904667 3.30068
-0.1179 0.694551 3.12167
-0.190899 -0.891629 3.42833
-0.321089 -0.0555466 3.05481
1.3841 0.560189 2.75209
-1.42953 -1.08678 3.20487
0.0387368 0.483672 3.00356
0.818941 -0.302276 2.98341
0.621222 1.1929 2.88667
1.41402 0.410745 2.76828
-0.395919 -1.18898 3.69858
-0.332419 -0.26207 3.10749
1.42155 1.05539 2.63417
-0.369231 0.850351 2.41277
0.0968994 0.504833 2.96675
1.29122 -0.209079 2.80518
0.692799 -1.09045 3.41173
-0.906564 -0.462125 3.20296
0.101796 1.18688 2.15406
0.815363 1.02975 2.83932
0.192973 -1.42113 3.64706
1.66014 0.292167 2.72864
-0.304175 -0.416605 3.18025
-0.251478 -0.0314685 1.42563
1.1223 0.979544 2.78461
0.688249 -1.36859 3.6208
0.906853 0.288656 2.85952
1.52565 0.364097 2.69934
1.64782 -1.21246 3.21852
1.53187 0.987237 2.52426
0.0625903 0.539621 1.29819
1.22753 -0.373252 2.92225
0.00530264 0.363001 2.95815
1.67248 -1.10337 3.06596
-0.808091 0.706946 1.87053
-0.713345 -0.347001 3.1269
2.47637 0.933195 2.90135
-0.730823 -1.47699 3.49445
1.09116 -0.543854 2.91415
2.08543 0.524066 2.60089
-1.36514 -1.29866 3.10457
-0.261714 0.188816 2.9727
1.64807 -0.501863 2.82548
-0.659709 0.644836 2.08339
0.12673 0.596058 1.33913
2.01731 0.456072 2.62254
0.740226 0.968514 2.88302
0.251765 0.267136 2.93321
-0.0337608 -0.50392 3.18817
0.96518 0.928872 2.86424
-0.585545 -1.395 3.49305
1.51118 0.20274 2.7073
1.11565 -1.10729 3.35729
-0.504185 0.519027 3.00331
-0.0723824 -0.252867 3.08421
-0.317597 0.863958 1.94197
1.18826 0.453909 2.82671
-0.738012 -1.06217 3.45737
-1.13586 -0.220573 3.16095
1.55199 1.03375 2.47217
-1.51935 -0.956563 3.17289
1.6572 0.539146 2.76003
1.2458 1.16457 2.69695
-0.23614 -0.174438 3.07782
-1.12992 -0.915115 3.20844
-0.0193716 0.55268 3.02616
0.31071 -0.137763 2.96751
-0.515678 0.853849 1.88441
0.874689 1.06254 2.8244
-1.101 0.378381 2.99407
-0.157722 -0.0882766 1.11634
1.16923 0.987502 2.71133
-0.480584 -0.373893 3.09804
0.972667 0.325565 2.91495
0.0685854 -1.31887 3.63462
-1.13705 -0.361335 3.26694
1.54825 1.00426 2.49317
2.64484 0.925798 2.85866
-1.25913 -1.15913 3.33459
0.748416 0.445611 2.91868
0.253312 1.12715 2.9547
0.444259 -0.287192 2.99918
0.1423 1.26 2.3709
1.3203 0.385273 2.79374
-0.605225 -1.17757 3.50872
-1.21071 -1.32634 3.24308
1.53109 0.238857 2.59003
0.525778 -0.304431 0.580315
1.30376 0.929286 2.73501
1.30223 -0.508296 2.90429
-0.67524 -1.39184 3.51354
-0.612207 0.228027 2.93422
0.991651 -0.486875 3.00378
-0.46678 0.687049 2.08122
1.85932 -1.89948 3.62123
0.723785 -1.39675 3.56077
0.692492 -0.452916 3.08814
-0.0254596 -1.3423 3.57897
0.766426 -1.81142 3.81853
1.50109 0.274574 2.75686
0.0409081 0.59611 1.30592
-0.189726 -0.412016 3.14271
-0.545804 0.699421 2.00116
-1.46123 -0.69239 3.19233
-0.641878 0.852603 2.98504
-0.501492 1.35557 2.96346
-0.12195 0.128425 3.00095
0.0656882 0.820246 3.03797
-0.71429 -0.67904 3.40475
2.27624 0.6755 2.76214
-0.993491 0.10572 3.22786
0.077715 -1.58355 3.48226
0.742161 -0.608832 3.11193
0.189987 0.931139 3.02411
0.635602 -1.65807 3.72866
1.53208 0.180933 2.80253
-0.178626 1.11824 2.87394
-0.721567 -0.569506 3.20869
1.58935 0.761796 2.57622
-1.34595 -1.40376 3.32542
-1.03971 0.167355 3.00203
0.724193 -1.66039 3.64807
0.997337 -0.472929 2.93462
-0.0294643 0.588081 1.53196
1.07344 0.288209 2.89284
-0.69272 0.706165 1.97822
1.06797 -1.36208 3.33641
-1.08548 -1.27427 3.3397
1.23442 0.254151 2.81643
1.51264 0.87749 2.59983
0.0306028 0.847401 1.81288
0.0794006 -0.445394 3.12356
-1.48341 -1.23678 3.29133
1.07853 0.35121 2.87262
-1.3311 -0.431946 3.24046
-0.231642 0.776785 2.03586
0.0279747 0.550356 1.32358
-0.918322 -1.23047 3.44299
-1.36019 0.343717 2.99125
-0.0225437 0.5224 1.45055
1.48346 -0.363156 2.82023
-0.42152 0.736629 1.99578
1.22323 0.823161 2.75965
2.26959 0.733599 2.841
-0.410107 0.157324 2.99373
-0.746613 -0.622598 3.29006
0.110095 -1.63548 3.69311
2.22553 0.521487 2.64761
-0.709643 0.662478 2.00633
1.46064 -0.559178 3.00827
-0.346559 0.237735 3.06173
-0.182243 -1.53107 3.61491
-0.42786 -0.537586 3.24147
1.34981 0.835743 2.70159
0.228151 -1.4598 3.5487
-0.892605 0.196104 2.97444
-0.215433 1.34467 2.92538
-0.247113 1.01584 2.23591
0.490849 0.0423471 2.91751
-1.08595 -0.788754 3.40039
-0.611246 0.760512 2.95351
-0.563683 -1.03217 3.58958
-1.07296 0.748982 2.97518
-1.41462 0.0209041 3.16808
1.38717 -0.701576 2.9864
0.387505 0.114753 2.92634
1.4676 0.330083 2.1891
0.564015 0.823333 2.93099
-0.86417 -0.699766 3.23477
0.135154 -1.57767 3.47372
-0.819961 0.08922 3.05956
1.90617 1.12678 2.94506
-1.06975 0.787777 2.8377
0.181731 -0.6568 3.20877
1.27567 0.568788 2.77035
1.84249 0.320645 2.68443
-0.357229 -0.0914052 3.07453
0.0146493 -1.7142 3.68333
-0.979695 -0.898246 3.35091
1.67293 -1.06705 2.94595
-0.648835 -0.0670499 3.07968
1.75883 0.657597 2.79522
1.47697 -0.800995 2.94337
-0.675952 -0.0217141 3.07747
-1.05359 0.661263 2.97496
-1.20345 0.238155 3.00156
-1.18662 -0.794738 3.20053
0.0177677 0.716998 3.24393
0.0351453 1.26545 2.85567
-0.461236 -0.0623184 3.07989
-0.386022 0.866366 2.36069
0.118734 -0.874308 3.33882
-1.45425 -0.0286193 3.08773
-1.2 0.729524 2.91628
-1.23605 -0.789088 3.15122
1.43082 -0.0043607 2.78713
-0.692451 0.698128 3.02572
1.76118 0.93223 2.53133
-0.0884308 -0.789434 3.32627
1.71195 0.48365 2.64187
0.33561 -0.226042 3.03952
-0.377161 0.846988 1.91256
-0.964632 -1.05092 3.41319
1.30291 -0.949335 3.09626
0.458483 0.487222 2.88315
-0.135685 0.992415 2.64358
1.14919 -0.1724 2.77029
-0.354958 0.869008 2.45738
1.84576 -0.861109 2.91416
-1.02252 0.611674 2.97352
0.979734 -0.146313 2.89817
-0.758999 -1.0156 3.6301
0.37605 0.553246 2.93435
0.473608 -0.107902 2.97037
0.914513 1.23679 2.76582
-0.553087 0.745637 1.90837
0.912654 0.388755 2.92254
0.469042 -0.339668 3.04496
1.2208 -1.17502 3.28759
1.57703 -0.30348 2.95563
1.65141 1.04779 2.53525
1.11737 -1.19457 3.46645
1.10904 0.460056 2.86649
1.31879 1.05092 2.63333
-1.42535 -0.270369 3.11291
-0.25176 0.448793 2.99261
0.597098 -1.10754 3.37225
-0.250558 -0.0320402 1.42374
0.407668 -1.42652 3.54251
1.16878 0.270173 2.80103
0.0668075 1.01228 1.96242
-0.799785 0.692975 1.96871
1.1862 -0.470797 2.86932
-0.19994 -1.38213 3.58117
-0.673388 0.260102 2.99945
-0.366517 0.720926 2.09565
0.0996569 1.1924 2.25617
0.73435 -0.450447 3.01261
-0.0124228 1.35421 2.88957
0.0781087 -1.33963 3.56191
0.446471 0.344812 2.87845
0.701353 -0.412805 3.04016
-0.4521 0.741319 1.95256
-0.0973011 -1.26001 3.48314
0.0935625 0.567184 1.35337
-0.969687 0.328258 2.96013
-0.229906 -0.381751 3.14875
1.49904 0.932207 2.57428
0.866164 -1.16878 3.38168
-1.50975 -0.321261 3.22292
0.449784 0.427359 2.89416
-0.294192 0.781421 1.96586
1.08174 -0.255654 2.8354
-0.696444 0.684897 1.9361
-1.35136 -1.06488 3.2319
-0.418379 0.51391 3.01382
-0.741171 -0.216528 3.08432
1.08937 1.09643 2.6964
0.90937 0.458944 2.92085
0.412218 -1.07433 3.40514
1.507 -0.430487 2.81133
1.15406 0.295831 2.81044
-0.936871 0.0772094 3.07768
-0.599709 0.697547 1.94523
-0.432809 -1.35123 3.50055
-0.883432 -1.27527 3.42718
-0.0330635 0.292216 2.92905
-0.660605 0.693995 1.95878
0.191185 1.36816 2.7361
-0.581791 -0.430801 3.24544
-0.73031 -1.25291 3.47492
-0.92874 0.407329 2.95729
-1.09574 -0.37046 3.02538
0.392691 1.09781 2.87491
0.0779516 0.555337 1.35788
-1.06255 -1.18445 3.34904
1.67532 0.322735 2.69526
0.0529072 0.702491 1.39889
-0.610361 0.723529 1.91001
-0.773617 -0.358613 3.18354
0.881842 -1.50675 3.46435
0.880884 -0.5699 3.04769
2.45898 0.73057 2.85844
0.291848 0.181092 2.93217
0.289661 0.924644 3.03869
1.88861 -0.21563 2.78427
0.81442 0.964498 2.8756
1.02405 -0.522663 2.98814
0.199122 -1.69552 3.59895
-1.53939 -1.38462 3.31474
1.13458 0.246083 2.81602
-0.174028 -0.500713 3.18371
1.10041 0.883707 2.7576
0.0316822 -1.43686 3.56214
0.351546 0.208259 2.89623
0.930176 -0.723772 3.11721
1.53861 0.0739076 2.96362
-0.458653 1.05522 2.85706
2.03427 0.51925 2.6101
-0.520589 0.801678 3.00664
1.35876 0.688188 2.67172
-0.141342 1.38762 2.9068
0.281785 0.0392915 2.95388
1.09453 -0.670669 3.01685
0.197617 0.144894 2.96339
-0.566744 -1.56219 3.4349
1.38651 -1.35717 3.26176
0.962838 0.838465 2.87003
-1.35197 -0.665363 3.21196
-0.21857 -1.58627 3.59227
0.238747 0.114083 2.95709
-1.23651 -0.650299 3.34766
2.26224 1.06865 3.01923
-0.390251 0.858897 3.07573
0.468996 1.06417 2.87298
-1.24393 -0.418707 3.1647
1.47287 0.340458 2.85687
0.957995 -1.50298 3.92714
-0.160615 -0.0882845 1.12193
-0.225691 0.764304 2.06991
0.175194 -0.375157 3.0787
0.876665 0.316599 2.90266
0.917116 -1.33172 3.57316
-0.0125007 0.445069 2.965
1.34307 -0.32672 2.76479
-0.397569 -1.24298 3.55171
0.473662 1.12843 2.86727
0.126716 1.37414 2.83226
-0.404952 -1.19098 3.53042
1.11312 1.03609 2.6712
-1.12973 -0.303664 3.18932
0.752667 0.395278 2.91219
0.198381 1.43777 2.58273
-0.0802022 0.264706 2.95552
0.873442 -1.49133 3.59174
-1.16299 -0.562089 3.34225
0.445441 0.98948 2.94744
-0.805568 -1.39003 3.47951
0.227651 0.223188 2.92765
0.0338585 0.522646 1.31094
-1.16686 -0.513 3.24705
0.381155 0.947071 2.95079
-0.401082 -1.36658 3.55193
2.31024 0.460731 2.60584
0.652233 -0.456826 3.0703
-1.35385 0.304563 2.95481
0.0336594 0.557763 1.23163
1.46688 0.904268 2.57657
0.395714 0.831002 2.98075
0.128002 -0.699806 3.23761
0.989799 0.101261 2.85401
-0.00360776 1.36779 2.88465
0.556547 -0.660806 3.21452
0.439993 0.800087 2.95484
1.14041 -1.74991 3.78694
1.87464 -0.668973 3.00419
-0.469747 0.0819783 2.97857
-0.444265 -0.629334 3.3214
1.15111 0.174298 2.78703
-1.21103 -1.42293 3.22923
1.74424 0.0681047 3.29676
0.882061 0.895692 2.90731
1.69024 0.777932 2.62735
-1.11351 -1.41868 3.32504
-0.258589 0.1548 2.96272
-0.666724 0.790878 2.97337
-0.479725 -0.592142 3.31364
-1.24765 0.0180588 3.12593
-0.342496 -0.840148 3.39039
0.897988 0.705604 2.88752
1.71755 -0.0405616 2.70549
-1.41879 -0.77238 3.19803
-0.533224 0.708596 3.08195
-0.785016 -1.26193 4.36702
1.54789 0.0507781 2.37198
0.60185 0.774187 2.99874
-0.601143 0.0504479 3.04287
1.10068 -1.66706 3.51532
0.0371829 1.21054 2.87196
-0.0880975 -0.742815 3.25961
-0.574065 0.823939 2.73082
2.09651 0.262849 2.64635
1.12764 0.133875 2.81009
-0.509079 -0.62482 3.28115
0.258846 0.854006 3.05742
-0.804274 -1.55566 3.52023
-0.940098 -1.62989 3.44006
1.68111 0.0908538 2.75964
0.552592 -0.585214 3.18353
-0.564111 0.68391 2.09054
2.23326 0.564305 2.69785
0.269639 -1.54965 3.63099
-1.00371 0.239867 3.01805
-0.155108 1.06154 2.98146
-1.22206 -0.560087 3.29915
1.19664 0.847734 2.75152
-0.0802747 -1.47771 3.6043
-1.42676 0.199966 3.08526
-0.349772 1.29917 2.94866
2.13884 1.06557 2.93458
0.192835 -0.785955 3.29219
1.63686 0.0282978 2.70513
-1.13093 0.781941 2.96833
-0.594311 0.0115185 3.05437
-0.691887 0.725765 2.9626
-1.18682 -0.725379 3.18959
-0.358847 0.982415 2.70355
1.62437 -0.66324 2.92257
1.55734 0.0676847 2.69826
0.673892 -1.85168 4.02056
1.96882 0.114164 2.6158
-1.25399 -0.678596 3.31223
0.0810736 0.807423 3.0211
1.60909 -0.149247 2.78643
1.43222 -0.868232 2.91867
1.0707 0.585011 2.87182
1.93467 0.541801 2.63359
1.14351 -0.0970382 2.76213
0.390534 1.29967 2.91121
-0.0652428 -0.91495 3.33909
-0.647599 0.592873 3.10085
1.88897 -1.02722 2.90698
1.60972 0.616124 2.63931
-0.723851 -0.0568818 3.06774
1.52849 -0.792898 2.94302
0.867077 0.629734 2.90446
-1.38956 -0.022546 3.11351
1.51412 -0.752045 2.91557
1.18815 -1.28665 3.38671
-2.54676 -1.9648 5.52484
0.642728 0.497227 2.9094
0.618874 -0.263984 2.9552
-0.790044 0.735677 2.37372
-0.0961332 0.481705 2.96987
0.481863 -1.08999 3.45148
-0.411878 0.772542 1.87237
0.487325 -0.216777 2.97856
1.4767 -0.886608 2.87416
0.0891549 -0.178628 3.02088
-1.28686 0.532451 2.87086
0.154258 1.28435 2.89668
-1.09533 -1.01986 3.2439
0.451795 0.516156 2.89521
-0.29234 -0.223585 3.11477
-0.611645 0.896036 1.86309
-0.128664 -1.02077 3.45726
1.13406 0.481308 2.88022
0.935989 -0.193766 2.91016
-0.232859 0.814696 1.92897
-0.0447865 -0.973563 3.35835
1.79809 -0.151574 2.80707
-1.33571 0.566818 2.89898
1.0609 1.23179 2.73701
-0.756424 0.7275 1.87359
1.10269 -0.361577 2.88894
-0.753038 0.40207 2.98004
-0.381739 -1.29508 3.55609
0.627706 1.07334 2.88854
0.0909134 -0.34918 3.09674
-1.23118 0.374537 2.99753
0.508025 -1.28246 3.61075
0.923845 -0.295766 2.94898
1.36608 1.07383 2.61392
-0.936468 0.0353734 3.08412
-1.03941 -1.12605 3.35592
-0.89464 0.478543 2.95742
0.84265 -0.276737 2.99418
1.63044 1.00126 2.49048
-0.299991 1.03031 2.8438
0.272259 0.424384 2.89658
0.0242545 -1.12605 3.43547
1.63132 0.259212 2.63582
1.35765 -1.41529 3.43388
-0.0513549 0.543199 1.31693
-1.24316 -0.51912 3.25903
-0.483358 0.708318 2.00791
0.356512 -1.32513 3.37235
1.30865 0.245833 2.80592
-1.03961 -0.456131 3.10287
-0.512979 0.695874 2.03742
-1.1226 -1.25301 3.33821
2.16665 0.424292 2.61747
0.798738 -0.421976 3.02391
2.40538 1.01723 2.9253
1.45134 0.291191 2.7733
1.59319 0.93996 2.58217
0.0472759 0.884756 3.05809
-1.4203 -0.653552 3.11978
0.343287 0.146479 2.94961
0.0877462 1.34662 2.88207
1.14733 -1.66788 3.58538
2.23163 0.605834 2.72297
0.335908 0.845336 3.03034
-0.49128 -0.643181 3.33708
0.17976 0.107538 2.94766
1.49051 -1.61079 3.54077
1.52168 -0.52974 2.7888
-1.32521 0.24053 3.06117
1.29611 -1.56686 3.60462
0.0470405 1.30302 2.88093
0.298785 0.964039 3.00589
1.43096 0.812235 2.65585
0.925746 -1.5274 3.63278
1.00699 0.164855 2.83033
-0.362595 1.41212 2.93686
0.363323 -0.539862 3.146
1.55575 -0.442601 2.85488
0.0828611 0.312174 2.91019
-0.0209377 0.930456 2.26333
1.28612 -1.40918 3.52316
0.424095 1.0369 2.89946
-0.182647 1.05553 2.77643
0.568776 -1.3494 3.53705
1.23693 0.947493 2.72996
0.19379 0.281506 2.91103
-1.32449 -0.426874 3.16585
2.21508 -0.807275 3.33668
1.04775 -1.19013 3.2261
1.64465 0.362434 2.68126
0.613585 -0.378883 3.03164
0.0301601 1.09192 2.87958
-0.0982411 -1.34384 3.80328
2.17262 0.89064 2.92686
0.22838 0.350464 2.92674
0.15541 1.08353 2.93709
-1.18231 -0.352828 3.12717
-0.0604152 0.908391 3.02375
1.67203 0.615808 2.6309
-0.963697 0.189632 3.04189
0.819575 -0.574313 3.09689
0.846731 -1.5071 3.45877
2.20522 0.380843 2.61165
-0.600288 0.665586 1.9832
0.96228 -0.536892 3.00649
0.144423 0.262283 2.92802
0.125714 -1.52381 3.68945
1.1241 -0.472893 2.92046
1.51703 0.842486 2.60872
1.47627 -1.40301 3.3678
1.40217 0.2017 2.8358
2.39039 0.162639 2.84419
-1.38691 -0.786558 3.32934
-0.237162 1.31917 2.93399
-1.46054 0.0835233 3.20479
0.2989 0.770772 2.92112
-0.0742749 1.34839 2.89815
-0.957952 0.0432359 3.04365
-0.495536 0.786978 3.07536
0.257246 -0.715776 3.28401
0.795129 -1.73298 3.76316
0.996177 0.125808 2.84447
-0.560171 0.914472 2.86524
1.15479 -0.62699 2.94513
-0.441347 0.862232 3.01238
0.70256 0.100366 2.88689
0.151879 -1.59773 3.60884
-0.160817 0.527174 1.46593
1.47145 -0.574464 2.81728
-0.836321 0.845511 2.93985
1.12727 -0.106935 2.78204
-0.206512 0.640197 2.99018
1.19804 -1.69147 3.66348
1.24409 -0.889047 3.13162
0.374697 -0.0642266 2.93908
-1.02443 -0.873367 3.34811
0.463749 0.588814 2.94165
1.53444 0.262272 2.30669
0.594895 0.723197 2.9838
-0.73995 -0.036492 3.08693
1.25881 -1.68231 3.53789
0.550451 0.00280287 2.95656
1.77136 0.79508 2.58066
-0.943948 -0.987872 3.80054
1.26837 0.634099 2.76893
-0.557117 -0.852258 3.47386
1.75851 0.907162 2.54349
0.043832 -1.49986 3.64694
-0.273258 0.263539 2.97798
0.246853 1.00039 3.00911
0.894002 -0.538303 3.03965
-1.19915 -1.35146 3.4139
-0.869336 0.229103 3.01951
-0.67793 -0.505233 3.25103
0.69966 0.938932 2.9094
0.626101 -0.401086 0.777847
0.0627894 1.00772 2.92796
2.24156 0.18023 2.85996
-0.96651 0.304425 3.01314
0.126516 -1.71044 3.62312
-0.0619147 -0.474297 3.19099
2.27922 0.802996 2.88092
-1.03966 -1.29573 3.38423
1.15353 -0.672208 2.992
0.7152 0.824041 2.95568
-1.01458 -0.682596 3.33414
-0.893621 0.119007 3.04437
-0.843293 0.829985 3.05153
0.910891 -0.661261 3.15934
2.39149 0.743055 2.85826
0.517382 0.0747519 2.89554
