ply
format ascii 1.0
element vertex 1837
property float x
property float y
property float z
end_header
0.0454329 1.32001 2.85232
1.22602 0.0249708 2.79611
0.877746 0.748961 2.90089
0.833877 -0.69857 3.155
-0.233683 1.00447 2.74478
-0.319845 0.759712 2.98265
0.0869576 -0.802527 3.29016
0.351331 0.0266241 2.96788
-0.279432 0.568599 1.83388
0.411845 0.733996 3.03556
-1.11805 -1.03136 3.33893
1.04071 -0.739442 3.09502
1.70898 -0.012628 3.10524
-0.0755715 -0.7168 3.27154
1.03612 0.0942862 2.85989
0.162075 0.840496 3.02048
1.37875 0.194669 2.01439
1.57422 0.698587 2.59831
-0.844097 -1.59814 3.44969
1.87745 -0.279458 2.71138
0.89776 0.0626394 2.91023
-1.00936 -0.678618 3.29565
1.4945 0.573609 2.66164
0.702211 -0.930527 3.28936
0.622207 -0.11452 2.9895
0.553646 -1.77498 3.73845
-0.949831 -0.878836 3.35122
1.42506 0.544368 2.69274
-0.622039 -0.0740113 3.07812
1.78258 -1.06049 3.00016
1.20424 1.24161 2.72863
0.100515 0.685042 3.00338
1.29621 -0.0459105 2.81314
-0.97316 -1.35311 3.41087
0.558253 -0.863154 3.33811
-0.0457918 -0.268328 3.05555
-0.56364 0.777648 1.84839
0.675547 -1.14336 3.43237
-0.819362 0.521573 3.05848
-0.685388 -0.233028 3.10384
0.318728 1.18202 2.92151
0.653912 0.459252 2.91806
1.25804 -1.03688 3.20696
-0.914603 0.624577 3.23344
-0.197607 -0.194248 3.05876
1.28152 1.20453 2.69332
-0.87612 -1.02189 3.41663
0.445165 -1.00485 3.42969
0.942229 0.520854 2.88627
1.46861 -0.153896 2.77481
0.000739425 1.23032 2.72951
-1.16069 -1.1756 3.26927
-1.00723 0.395383 2.91775
-1.3304 -0.39815 3.1872
0.0660077 1.12307 2.93056
0.427403 -1.27062 3.54913
-1.38763 0.370538 3.00213
-0.54373 0.734232 1.95064
0.292702 -0.363679 3.08751
0.921202 1.09656 2.76156
0.906539 0.429681 2.92945
-1.35598 -0.326762 3.16853
-0.0351425 -1.19984 3.48364
1.35642 -0.227966 2.81111
-0.483744 0.824693 1.89043
1.15078 -1.07551 3.32953
-0.335734 0.543318 3.04239
-0.0381278 -0.197249 3.06483
0.754679 1.1772 2.81548
1.14993 1.24295 2.72779
0.819396 -1.00994 3.26317
1.27676 0.479311 2.82835
0.648531 -0.157063 2.98709
1.75892 -0.898849 3.02171
-0.0440549 0.660722 3.21301
-0.451149 -0.111836 3.04743
0.502694 1.31226 2.87641
-1.4067 -0.903221 3.23041
1.50244 0.51123 2.68425
-1.50475 -1.18762 3.29819
-0.80847 0.438791 3.01068
1.05652 -0.353616 2.92882
-0.472112 0.747648 1.89724
0.00327402 -1.18847 3.44679
1.62447 0.350012 2.67566
0.655275 1.10694 2.89507
0.188786 -0.322805 3.08048
0.407098 -1.1858 3.57051
1.05429 -0.270784 2.89001
-0.510678 0.463379 2.96443
0.138771 1.16374 2.88544
0.383624 1.03047 2.97122
0.252706 -0.507861 3.12863
1.35523 0.267278 2.79618
1.02017 -1.42882 3.47509
1.30842 -0.449406 2.88126
1.02459 0.940031 2.78249
1.07304 -1.38982 3.48676
0.109939 0.253081 2.92389
-1.18319 -0.438917 3.20612
0.876061 0.346308 2.91355
0.54108 -1.37907 3.59374
0.00905241 1.08014 2.91945
2.11131 0.447047 2.61898
-0.996521 -1.26538 3.48144
0.719369 1.02499 2.85066
2.18874 -0.113927 3.17816
1.6313 -0.365861 2.75151
-1.37809 0.325444 2.95922
1.72243 0.163525 2.74575
-1.27042 -1.42184 3.16121
1.49018 0.795805 2.59705
0.0709911 -0.638064 3.21168
-0.486912 -1.49098 3.47915
-1.17535 0.145745 2.95695
1.70485 -0.542564 2.78473
2.16632 0.192969 2.86756
0.15402 0.872945 2.98745
1.2528 -1.6 3.7498
0.705158 -1.47107 3.57583
-0.0903151 0.964396 3.02945
-0.0416239 -0.551253 3.17516
1.73175 0.202174 2.74677
2.12138 0.331308 2.63671
1.49196 0.427787 2.69582
1.00925 -0.311902 2.93493
-0.638768 0.757717 1.86741
1.53898 -1.15246 3.26225
0.224627 -1.15566 3.51038
-0.20215 0.785191 1.96111
0.916998 -0.272484 2.97622
-1.03093 0.454822 3.04756
-0.271218 -1.05548 3.35913
-0.883192 0.563884 3.08191
1.39157 -0.225989 2.82513
-0.567785 0.835244 1.87882
-0.546687 0.50847 2.98514
-0.489941 -1.08907 3.56818
1.08712 1.14077 2.70079
1.76901 -0.193045 2.79368
-0.361455 -1.32225 3.49512
0.257199 1.07484 2.97056
1.43858 -0.404195 2.83481
-0.214978 0.321575 2.98376
1.2492 1.05405 2.72267
0.0307417 -0.387611 3.09758
1.48552 0.388971 2.91839
0.247286 -1.31149 3.55561
1.41589 0.985566 2.6207
1.25569 -0.34672 2.85469
-0.986813 0.36266 2.96189
-0.875068 -1.19437 3.40179
-0.9402 -0.577934 3.15033
2.09208 0.420413 2.62291
-0.100792 0.219674 2.97558
-1.00141 -1.42265 3.30924
1.28221 0.88614 2.74207
-0.31981 0.924419 3.04357
1.0125 -1.58471 3.746
2.44339 1.08337 2.91605
1.74633 0.157121 2.73361
0.337292 -0.546185 3.13999
-0.601513 -1.63086 3.42236
-0.161649 0.289293 2.97126
0.931893 -1.5691 3.82153
2.43923 1.10903 2.8632
1.04404 -0.483155 2.92994
-0.0798215 1.0407 2.99936
2.33862 0.615873 2.75179
0.533722 -1.4837 3.75185
-0.329129 0.26239 2.98178
-0.215433 -0.467636 3.16701
-0.728359 0.676287 1.98476
-0.0124213 0.795042 2.97419
-0.6915 0.07574 3.01398
-0.991745 -0.577566 3.289
-0.689964 -0.735769 3.38495
-0.112716 1.35311 2.90413
-0.822781 0.668905 2.25702
0.454153 -0.662677 3.14835
-0.564464 0.141874 2.97997
0.369351 -1.63757 3.57655
-0.916237 -0.660766 3.39521
1.33985 0.760905 2.69713
-0.508302 -1.55867 3.50559
0.477882 0.0993064 2.91871
1.23355 0.921657 2.73865
-1.34141 -0.561384 3.2301
2.19469 0.971952 3.0372
1.95655 -0.466577 2.79027
-1.75037 -1.50448 3.52941
1.49349 0.247088 2.84678
0.480962 -0.514053 3.15517
-0.413754 0.684936 2.10552
-2.22352 -1.91726 4.62604
-1.12509 0.233411 3.05333
-0.836245 0.320761 2.96648
-0.998941 -1.37561 3.46272
0.372324 1.07169 2.96567
2.33033 0.962522 2.93143
1.59651 -0.450191 2.86229
-0.755642 -1.31873 3.50478
-1.32937 0.309546 3.01652
-0.707714 0.69414 1.97161
-0.0424776 -0.436136 3.16561
2.11838 0.356165 2.62868
0.881695 -1.70571 3.68257
1.25451 -0.646645 2.9901
0.774829 -1.68134 3.65223
-1.37872 0.118659 3.08407
-0.567899 0.828878 2.9537
2.23383 0.270181 2.63036
1.29801 1.03132 2.71754
1.31781 -0.584137 2.85518
-0.665245 0.643281 2.07408
1.18228 -1.7197 3.78445
-0.209058 0.180019 2.98353
0.494568 -0.602366 3.21597
1.08459 0.830317 2.81827
1.68923 0.124854 2.76404
-0.0800245 -1.56893 3.63691
-0.0585156 0.717182 2.96236
1.16898 -0.0426015 2.83418
0.0867054 1.28038 2.76926
-0.557699 0.000356098 3.04618
1.4102 -0.76997 2.92886
-0.915681 0.674446 2.93904
2.2812 0.936616 3.20315
0.886156 -0.783386 3.16157
1.45239 0.057988 2.87122
-0.559114 -0.762448 3.3024
-0.325801 0.808194 3.02066
0.798846 -1.54686 3.73352
-0.935249 0.041765 3.06704
-1.10954 0.229129 3.0297
-1.00851 0.775297 2.99947
0.0343408 -0.713909 3.25275
-0.102284 -0.973916 3.37794
0.314537 -1.72296 3.62573
-0.193868 -0.152766 3.0428
0.0701305 1.2372 2.78096
0.969753 0.554055 2.89423
0.263427 1.32629 2.90678
1.82358 0.884759 2.54548
-1.16353 -0.109106 3.12657
-0.510306 0.652575 3.05172
1.50775 -0.820764 2.8358
-0.285595 -0.0747181 3.05062
1.6629 -0.806215 2.89605
1.22643 0.563136 2.79575
-1.25618 -0.910625 3.26698
-1.30577 -0.114594 3.10074
1.81134 0.508439 2.64405
0.200991 0.584734 2.93533
-0.650363 0.703271 2.20442
0.589768 -0.0787487 2.94838
0.516511 1.28559 2.87916
-0.612758 0.688926 3.05123
0.264463 -0.902527 3.33031
-1.26544 -0.0421404 3.08051
1.03728 -0.860079 3.27997
0.62015 0.63087 2.98771
-1.28927 -0.287711 3.19929
-0.745702 0.752392 1.79274
-0.736343 -1.11664 3.40882
-0.290545 0.501358 2.97957
-0.214144 -0.236174 3.08524
0.438052 1.16729 2.88557
-3.40985 1.10839 7.05097
0.592631 -1.09094 3.39593
-0.783621 -1.05129 3.46759
1.00756 0.548814 2.9019
0.667535 -0.199111 2.96849
-0.32226 0.800773 2.09879
0.0584802 0.532979 2.97029
1.1469 -0.988889 3.29614
-0.30506 0.898205 1.93697
-0.763294 -0.153748 3.07668
0.86486 -1.37614 3.68573
-0.985182 -0.392723 3.15349
-0.07853 0.352581 2.97826
-0.762932 0.706307 1.89747
1.7671 -0.348031 2.72591
1.61391 1.00509 2.53452
1.55482 0.366956 2.51135
-1.06231 -1.09054 3.10158
-0.671716 0.733013 1.92055
0.412087 -0.327717 3.08718
-0.265348 0.381499 2.93325
0.488734 -1.28699 3.7
0.140556 -0.556746 3.16694
2.34954 -0.157293 3.0159
-0.239434 0.253049 2.98796
-0.736645 -1.45796 3.52486
1.68647 0.857374 2.54707
1.38839 0.848203 2.6401
-0.92822 -1.39539 3.48539
-0.0552983 0.215367 2.9535
0.882744 -0.509615 3.04833
-0.685478 -1.35064 3.46463
-0.794763 0.32562 3.00606
1.13517 -0.448642 2.88413
0.690601 1.02687 2.86623
2.28966 0.630715 2.75743
-0.143541 -1.36198 3.58009
0.0847422 0.27831 2.912
2.38839 0.894878 2.93226
-0.754267 -0.429903 3.14953
0.626505 1.00163 2.88939
-1.3923 -1.14101 3.16723
0.057117 0.420643 2.93522
1.16251 -0.357443 2.88324
-0.784899 0.730852 1.8483
0.583915 -1.23354 3.53099
0.269013 0.374099 2.90325
-0.827717 0.716452 1.85854
1.08915 -0.318709 2.88487
0.203139 1.18442 2.94299
1.36496 0.436044 2.79881
-0.480881 -0.285549 3.09102
-0.66035 -1.11123 3.38937
1.34189 -0.481614 2.84077
-0.491105 0.701573 2.02319
1.23194 0.272201 2.85513
0.525205 -1.51105 3.68267
-1.38019 -0.494313 3.24437
0.6358 0.975629 2.91455
-0.952135 -1.38858 3.56705
0.663305 0.243187 2.92674
-0.620354 0.350081 2.96014
1.4013 -1.32247 3.36244
0.0463886 1.0753 2.92098
2.34819 0.226115 2.73814
-0.655906 -0.43966 3.16929
0.630707 0.30327 2.91595
0.423385 -1.30005 3.50361
-0.79603 0.684459 1.88429
0.565311 -0.396754 3.05402
1.09129 -1.67523 3.63518
-0.0694101 -1.58 3.53295
-0.534279 0.17485 2.9805
-1.44068 -0.614741 3.04716
0.784885 0.873949 2.86611
0.86924 0.127382 2.90481
-0.80886 -1.44977 3.35503
0.374582 -1.74562 3.63813
-0.55858 -0.575018 3.10788
0.360629 0.867655 2.97764
2.02521 -0.794575 3.26357
0.67394 -1.62838 3.62119
-0.45206 0.678813 2.10565
1.32598 0.196824 2.79405
1.83673 0.324447 2.8063
1.27332 -0.535659 2.92631
0.78132 -1.71833 4.0414
1.34582 0.693186 2.72638
2.25463 -0.198165 3.57333
-0.282126 0.0289646 3.01972
0.403337 -0.814198 3.31915
-0.249807 0.746357 3.09022
-0.0870448 1.09958 2.94977
0.711652 -0.0152268 2.93903
-0.80766 -0.80093 3.43652
0.917537 0.0947212 2.89803
1.67685 -0.768059 2.55868
1.0395 -0.686704 3.03894
-0.111301 0.844992 3.05635
-0.260627 0.0635777 3.03753
-0.807357 -1.60305 3.44705
1.86912 -0.500344 2.74193
1.65748 0.707469 2.64701
-0.929104 -0.691027 3.30484
-0.196368 0.768722 2.10857
-0.575935 0.321791 3.02003
0.468082 -0.427143 3.06264
-1.05064 -1.25213 3.29652
0.978055 -0.388899 2.98956
-0.346634 0.766223 1.98102
1.33655 -1.23379 3.26807
0.596987 0.381897 2.94811
0.70516 -0.362298 3.03128
1.45063 0.982792 2.63212
1.49329 -1.23089 3.35569
0.514827 0.338884 2.87623
0.793033 -1.71581 3.91343
1.18758 0.202807 2.80816
2.28075 0.136926 2.95772
0.157379 -0.596331 3.18895
-0.362012 0.918267 2.7804
-0.175785 -1.50973 3.62781
0.968043 0.161531 2.86694
2.37904 -0.0945949 2.97628
1.592 -0.501913 2.75764
1.08224 0.861658 2.82206
1.41567 -1.4119 3.38965
1.42529 0.267259 2.77749
2.19188 0.285907 2.62966
0.657252 -0.513358 3.12336
-0.33161 0.726409 2.06491
-1.45773 -1.23005 3.06677
-1.37964 0.282463 3.08954
-0.00512191 1.32817 2.88913
-0.7617 -0.472406 3.18894
0.38352 0.990998 2.96573
0.138134 0.80658 3.04106
-2.48476 -1.26761 5.22427
-0.100307 1.32773 2.89586
0.448138 0.0613218 2.93741
-0.519469 0.76794 3.03039
-0.307125 -0.713138 3.24472
-0.675677 -0.987055 3.56828
-0.17249 0.0309551 3.00351
1.06545 -0.658673 3.04025
-0.502831 0.803236 2.7682
-0.0872168 -1.69275 3.63665
1.73838 0.121052 2.73761
1.85379 -0.325127 2.71446
1.56656 -0.591176 2.85214
-0.513376 0.834158 3.00718
-0.468166 0.103765 3.01716
0.700293 -1.74569 3.88027
0.725692 -1.58467 3.75757
0.407079 -0.884427 3.27269
-0.998346 0.78664 2.84642
-0.829224 0.704887 3.05935
-0.857096 -0.0676162 3.07793
0.0366972 -0.843011 3.2892
0.559964 0.634764 2.96285
-0.581976 -0.0376445 3.07234
1.26515 -1.794 3.71444
-2.15819 -1.1022 4.39083
-0.283758 0.883733 2.43393
-0.30451 0.952959 2.74774
0.129487 -0.00805915 2.96166
-1.13198 0.724386 2.94486
-3.14285 -3.24878 6.92852
1.09452 0.778686 2.79604
1.46398 -0.638284 2.91621
-1.18674 0.118998 3.13699
-0.101769 -1.69848 3.5255
0.61411 -1.47691 3.58572
2.19803 0.311546 2.62127
1.24684 0.82716 2.72302
-0.197843 -0.645944 3.26826
-0.0732931 0.174237 2.9719
-0.879473 -1.52634 3.42641
1.20619 -0.584935 3.01967
1.43151 0.761898 2.60328
0.180886 -1.52359 3.53325
-0.234535 0.137208 2.99995
-0.220516 1.15888 2.95801
0.293075 -0.0430963 2.96347
-0.233244 -0.00983404 3.05464
0.016131 1.18477 2.88104
1.44087 -0.770777 2.90685
0.139408 0.730112 3.03146
2.32426 -1.52616 4.21113
1.15756 -0.778342 3.10648
-1.16223 0.670174 2.89067
0.315661 -0.784964 3.31654
1.78332 0.0594246 2.76887
-1.00428 0.79265 2.91933
1.52924 -1.49735 3.44973
1.64143 -0.827721 2.7296
1.61119 0.0261582 2.67378
-1.33561 -0.718932 3.27628
1.71726 0.700536 2.71444
0.245561 1.26707 2.92106
-1.19936 0.534979 2.76319
1.27461 1.14353 2.67615
-1.02012 -0.158169 3.15297
0.293013 -0.999573 3.40687
1.86457 0.994254 2.54489
-0.0722338 -0.114504 3.03873
0.191311 -0.930242 3.31917
-0.711208 0.636835 2.99344
-1.20111 -0.0739962 3.10071
-1.07136 0.590061 2.90579
1.31902 -0.845266 3.03855
-0.917876 0.466833 2.96074
-0.741742 -1.16489 3.41004
1.6031 -0.297401 2.73645
0.834169 1.13106 2.78953
1.49921 0.391445 2.71973
-1.04457 -1.07569 3.31694
-0.300847 -0.278143 3.07322
-0.0924804 0.832476 2.11994
-0.0211341 -1.07342 3.40352
-1.09348 0.532945 2.93606
-0.517224 -0.237352 3.08718
-0.458283 0.873202 1.89729
0.186759 -1.10742 3.62686
-1.71161 0.622165 3.63977
-1.04449 -0.197159 3.11275
-0.136412 0.84262 2.00492
0.390194 0.480398 2.93097
1.26723 -0.280102 2.85699
-0.156334 0.839289 1.99258
-1.11054 -1.09282 3.32988
-1.31312 -1.03599 3.25759
0.752504 1.13199 2.80657
1.5666 -0.247215 2.84381
-1.10344 0.460743 2.92463
0.801721 -1.06982 3.4236
-0.954982 0.557577 2.95485
-1.35381 -0.207174 3.08635
-0.607946 0.841751 1.87088
1.38451 0.498114 2.79995
1.18032 -0.965786 3.22076
-0.888907 -0.163252 3.10814
0.948087 1.03001 2.79185
0.132179 1.33031 2.88447
1.06394 0.338326 2.89054
-1.06383 -0.405686 3.16621
0.621364 -1.30319 3.48966
-1.35572 -0.38201 3.17953
0.310301 1.17681 2.97707
-1.37073 -1.16416 3.25189
1.79932 0.401268 2.78425
-0.267649 0.775308 2.01052
0.503252 -0.329525 3.03662
0.396742 -1.23701 3.53803
1.50454 0.345276 2.73491
-0.014639 -1.52941 3.64406
-0.789823 0.251509 3.03647
2.15614 -1.10181 3.52544
1.51856 -0.504697 2.72501
-0.694507 0.66973 2.04262
0.7904 -1.71231 4.13595
-0.75678 0.21434 2.95706
0.763169 -0.517036 3.07282
-0.769362 0.64648 2.0337
-0.335846 0.314778 2.97164
1.40923 -1.67936 3.55657
1.41194 -1.52527 3.73733
2.07463 0.268079 2.75683
0.91798 -0.471144 3.02117
-0.00284087 1.04556 2.93906
0.439217 -1.40618 3.63518
0.840791 0.272875 2.89469
1.87782 0.679465 2.65026
-1.03086 -0.438148 3.17508
1.67166 0.878217 2.5586
1.65023 0.74257 2.66457
1.01193 -1.59102 3.62229
0.0396264 0.0971669 3.00248
-1.4031 -0.674426 3.15296
0.500311 0.634808 2.95049
0.579537 0.890851 2.94266
0.13162 -0.647353 3.21905
0.635145 0.161785 2.89387
-1.04761 -1.5518 3.44299
1.25178 -2.01456 4.11672
0.988915 -0.589441 3.04303
0.738357 0.840948 2.8939
0.472272 -1.64005 3.77039
-0.744068 0.134889 2.99758
-0.278682 0.971916 2.38086
0.28461 -0.524872 3.12685
0.164604 0.273385 2.92603
-0.186997 -1.45501 3.57528
0.885912 0.976238 2.84644
-1.34522 -0.497317 3.22934
-0.197568 0.980851 2.97654
0.0954269 -1.39011 3.49715
-1.38794 0.255317 3.01369
-0.532013 0.351957 3.01614
-0.33948 -1.35321 3.5418
-1.43299 -0.458204 3.19718
-0.342576 0.746526 2.00972
2.09875 0.488072 2.60712
-0.471057 -1.31118 3.55296
0.331212 0.300989 2.91922
2.01963 -0.453404 2.78265
-0.524751 -0.416357 3.2614
1.30632 0.978725 2.73055
-0.280476 -1.63233 3.63736
1.44612 -0.592794 2.83926
-0.89652 -0.322355 3.15787
0.951168 0.123643 2.89075
-0.374051 0.886113 3.058
2.01683 0.29345 2.76584
-0.692726 0.958431 2.94597
0.628537 -0.601799 3.15509
0.976474 0.907602 2.85007
0.0413151 -1.53807 3.53725
1.65394 0.187517 2.68995
-0.96476 -0.564779 3.15285
-0.798739 0.638245 2.10681
-0.290676 -1.48155 3.55485
-0.31319 0.169715 2.97739
1.19483 0.0121655 2.7812
1.53137 -1.01397 3.28331
1.25884 -0.76417 3.00619
-0.234625 0.769489 3.05496
-1.19387 -0.768047 3.28022
-0.0213288 0.727537 3.04715
-0.276481 1.04846 2.86695
0.15578 -0.0171157 2.96155
-0.766661 0.103516 3.03667
-0.723058 0.822406 2.95751
1.00152 -1.7416 3.68442
-0.471505 -0.736287 3.28718
1.62329 0.601115 2.54735
-1.19012 0.0685395 2.97234
0.493359 -0.691767 3.21393
0.40265 0.795181 2.99281
1.29674 -0.888962 3.05108
1.00017 0.580495 2.92026
-0.546798 -1.61757 3.44876
-0.462809 0.717303 1.93727
1.43299 -0.129878 2.74562
1.92295 0.439442 2.63841
1.18743 -0.0829635 2.76419
0.853993 0.655319 2.90122
0.972504 -0.91847 3.32161
-0.0408701 -0.0508237 3.02382
-0.675604 0.626518 2.98719
0.43522 1.29773 2.88164
1.74223 -0.735056 2.76298
0.254431 0.207167 2.96067
1.04455 -1.56755 3.57188
1.77474 -0.437678 2.74095
0.616914 0.93617 2.9422
-1.39357 -0.632391 3.33365
-1.20995 -1.41337 3.36826
-0.408308 -1.59065 3.42856
1.41849 0.156572 2.82689
-0.145295 -0.555381 3.15188
-0.457338 0.883745 2.8975
-1.08899 -1.32682 3.30135
-0.849817 -0.50649 3.19356
0.896759 -1.78335 3.64982
-0.904553 -0.507126 3.15256
-0.0106731 0.243486 2.94942
2.3727 0.102346 2.94745
-0.309023 0.744246 2.19631
1.23497 0.739569 2.76086
1.40898 -0.727519 2.97518
0.804636 0.0561715 2.88893
-0.162692 0.947517 3.02619
-0.730186 -0.731234 3.30519
1.15755 0.719978 2.82453
0.654432 -1.46806 3.55726
-0.834914 0.0346849 3.07299
-1.22277 -0.714807 3.39058
1.76073 0.113636 2.72852
-1.2191 0.831896 2.82223
-0.273749 0.836522 3.02518
1.82927 -0.533561 2.79117
-1.18534 -1.561 3.4518
-0.305458 0.101767 2.96325
1.00155 -0.620714 3.02343
1.12611 -2.11222 4.83903
-0.545047 -0.947691 3.53573
-0.0282219 -0.0759002 3.0123
-0.502209 0.695365 3.09018
-0.33184 0.649028 3.08696
1.19983 -0.826337 3.11493
-1.17994 0.0101946 3.09088
1.07676 -0.0511108 2.86851
1.74817 0.98513 2.53468
-1.60794 -0.83297 3.34436
1.29965 0.663578 2.76341
-1.04972 -0.00816858 3.05202
1.87443 0.518258 2.63007
-0.384155 -0.241182 3.06436
-0.0155579 1.22639 2.64658
-1.34772 -1.00967 3.16885
0.696472 0.520444 2.94413
0.980278 1.15461 2.76292
0.00656831 -0.203337 3.05076
1.02905 1.21992 2.74496
0.146483 0.48718 2.91941
-1.286 -1.05581 3.40002
-0.589209 0.626326 3.11931
1.11974 -0.157767 2.82293
0.974517 -0.975238 3.26095
-0.148783 -0.946617 3.40725
0.311089 1.26188 2.90568
0.906482 -0.123119 2.93006
0.0165409 0.577807 3.04114
1.87731 -0.548909 2.75779
-0.386298 -0.860072 3.36535
0.45311 -0.0188112 2.97413
-1.04965 -0.0402972 3.11146
-0.749517 0.719222 3.00594
-0.151473 -0.810083 3.32569
1.09675 0.653478 2.88519
-0.773828 0.0746064 3.06611
1.89559 0.142146 2.74216
-1.13768 -0.787706 3.34771
-0.77722 0.799162 3.00818
-0.34096 0.0252902 2.97841
-1.01899 0.783415 2.83075
0.951573 0.728141 2.86757
1.11842 -0.695204 3.01093
-0.601078 -0.205003 3.11385
-0.654658 0.793302 1.86477
-1.82991 -1.1823 3.78325
0.194942 0.546328 2.91269
0.906852 1.20121 2.77213
1.5384 -0.164256 2.8033
-0.595437 0.827256 1.87271
-0.991027 -0.974201 3.35144
0.886436 0.241923 1.36439
-1.0417 0.789633 2.85292
-0.416737 -0.118142 3.02244
-0.584169 0.642093 3.04159
0.273432 -0.962646 3.40088
-2.66445 -0.26506 5.76574
1.39694 -0.798789 2.86424
-1.21517 0.590349 2.90006
0.135438 0.453713 2.92783
1.49705 -1.15919 3.24166
-0.844594 -0.341335 3.1897
-0.661927 0.745041 1.84559
1.40588 -1.15759 3.38428
-0.0992155 0.424583 2.97194
0.813013 1.10755 2.81802
-1.07366 -0.285375 3.14982
-0.56068 -1.13957 3.59229
1.40786 -0.23169 2.74382
1.69393 0.471504 2.85783
0.355626 1.20991 2.9026
0.990567 0.995342 2.76992
-0.998786 -0.462707 3.09405
-0.146802 0.312272 2.9792
-0.54086 -1.35985 3.47286
0.836661 0.975273 2.82967
-0.465338 -0.450293 3.25488
1.12817 -1.33476 3.39673
-0.898196 0.290462 3.00438
0.362403 -0.404967 3.11837
0.676329 1.09551 2.88575
-1.145 -1.22162 3.3547
2.3397 -0.00259777 2.88076
0.468302 0.369467 2.885
-0.650034 0.719997 1.92824
0.366488 -0.374488 3.13221
0.111372 -1.27747 3.56689
1.56434 0.306215 2.67356
0.166209 1.07779 2.95115
0.976828 -0.442602 3.00502
-1.14966 0.352317 2.99076
0.696422 -1.40629 3.60914
-0.479905 0.715394 1.98404
1.50412 -0.383152 2.77641
0.510565 -1.36086 3.62882
-0.424348 0.305887 2.95734
0.648549 -0.363823 2.96203
-0.361401 0.764057 1.94932
0.0939897 -1.28962 3.57529
-1.2358 0.430225 2.99415
1.57473 0.983655 2.55912
-0.269868 -0.335367 3.1235
1.36426 -1.19577 3.33378
0.183374 0.367023 2.91926
1.07613 0.231756 2.88724
-1.04141 -1.38258 3.27542
-0.0177957 0.557465 1.281
-0.377589 0.708805 2.11913
1.51519 -0.539773 2.86993
0.615238 -1.53471 3.71416
0.642958 0.197852 2.89964
-0.587585 -0.534366 3.22001
-0.588185 0.654605 2.05026
1.24005 -1.48581 3.65615
2.06139 0.345745 2.63634
1.57296 -0.450063 2.74959
1.00616 0.267495 2.90252
2.24089 0.468326 2.59939
-0.250898 0.906655 2.58451
1.29428 -0.678536 2.89913
1.39507 0.748288 2.70585
0.556275 -1.4679 3.59113
1.71207 0.0889262 2.76223
-1.1771 0.737237 2.73776
1.35822 -0.658803 2.97896
-0.666929 0.79171 2.97624
1.65693 0.043848 2.80384
0.739346 -0.643469 3.1257
1.06514 0.154272 2.83565
1.43724 -1.66761 3.62669
-0.829811 0.632459 2.08632
0.677276 0.855012 2.95526
1.35309 -0.57073 2.88853
2.40421 -0.964199 3.82959
-0.59328 0.128105 3.00966
1.21744 -1.69646 3.8299
-0.277238 1.08585 2.45641
0.872879 -0.85376 3.22856
-1.16591 -0.0155882 3.0874
0.515851 -1.46586 3.57748
-0.0767823 -0.0533948 3.02405
1.34961 0.646062 2.70859
-0.19891 -0.802648 3.2966
1.47015 0.610481 2.73042
0.74098 -1.88569 3.97005
0.999267 -0.78549 3.23711
1.9038 0.375675 2.67774
1.5986 -1.48143 3.39491
1.64159 0.0100035 2.7503
0.0490097 0.760144 3.03996
-0.760495 0.626127 2.15697
-0.21021 -1.68183 3.60839
-1.3247 0.139514 3.08831
-0.486514 1.38187 2.96069
1.64885 -0.607642 2.84077
2.23286 0.226329 2.75009
0.198463 -1.67374 3.71163
-0.478482 0.679734 2.12436
-0.227903 -0.614144 3.20671
-1.05933 0.217397 3.02874
1.1434 -1.49493 3.36526
0.933356 -0.558329 3.01613
-1.1393 0.745894 2.45969
-1.16404 -1.40434 3.32469
-0.719253 0.16916 2.96054
1.8658 0.994441 2.5504
1.08876 -0.788148 3.10431
-0.864382 -1.26664 4.49831
0.910998 0.0138824 2.89928
1.49491 -0.0303513 2.79112
1.26597 0.695895 2.77003
-0.596866 -0.754015 3.21372
-0.251984 1.08073 2.45388
1.14683 0.678588 2.8352
0.0113864 0.0911514 2.97534
1.56844 -1.37761 3.19725
0.794807 -0.729317 3.17034
1.12102 0.773163 2.80118
0.958656 0.0483251 2.89325
-0.525982 0.78032 2.26796
0.497542 0.770681 2.91802
1.66524 -0.633373 2.81641
-0.384804 0.59928 3.05273
1.82676 1.03905 2.55017
1.36349 -0.127658 2.70165
-0.0471997 1.07 2.40805
1.372 -0.903816 3.08449
1.89653 0.0845105 2.70771
-0.321676 0.679206 3.06346
-0.540555 -0.0874217 3.07711
1.40741 -0.848293 3.00929
1.7372 -0.0567762 2.77601
-0.0857327 -0.86996 3.34516
1.46326 0.56229 2.67553
1.02511 -1.12852 3.30722
0.568133 0.478022 2.9305
0.50161 1.2558 2.87868
0.735979 -0.288562 3.02972
1.00598 1.1418 2.74391
1.47533 0.425447 2.7886
-1.14481 -1.03774 3.29608
-0.719063 -0.246121 3.05934
0.721014 1.1497 2.86001
-0.591449 -1.10898 3.61263
1.32611 0.516147 2.78006
-0.784964 -0.205495 3.06904
-0.161896 -0.989121 3.37387
-0.769785 0.526621 3.04543
-1.43871 -0.171181 3.088
-0.443713 0.899866 1.87767
-0.112872 0.789108 2.99067
-0.360981 0.843172 1.92765
1.30457 -0.729172 2.97083
1.09494 0.0495832 2.81668
-0.58488 0.764167 3.04516
-1.35773 -0.725996 3.21653
0.514487 -1.46848 3.58564
-0.0450148 0.0212343 2.96533
-1.41057 0.136623 3.05333
1.95199 0.709359 2.57423
-0.732436 -0.686946 3.27679
-0.66917 0.857397 2.89341
-1.1116 0.112698 3.12218
-0.443625 -1.60905 3.56746
0.270646 -0.0857754 0.144047
0.636492 -0.650145 3.18755
1.50534 0.727763 2.62358
1.1082 -0.856688 3.08323
-0.186971 0.666151 2.95835
1.87595 0.109517 2.71522
0.970519 -0.0811829 2.90517
-1.28941 -0.824192 3.18784
0.782761 0.613204 2.92761
-1.47618 -1.58449 3.36436
1.48379 -0.0580933 2.83455
1.5268 0.377351 2.27681
1.7933 0.957362 2.53204
-0.861552 0.713455 2.97693
-1.00502 -0.00448218 3.07337
1.18191 -0.77481 3.06776
-1.09396 -0.249879 3.14157
-0.548552 0.819918 1.88862
0.783901 -1.08827 3.35482
1.68762 0.454775 2.59134
0.973673 -0.208272 2.92198
-0.716879 0.781934 1.86342
-0.125541 0.684598 1.64051
-0.571347 -1.0501 3.42649
-0.392436 0.49089 2.97932
-0.488524 -0.995533 3.36422
0.0903862 0.600977 3.00314
-1.46778 -0.167418 3.0931
-0.993663 -0.915246 3.29752
0.509489 0.534472 2.89527
-0.676274 -0.125514 3.05751
-0.653145 0.857668 1.86069
1.3766 -1.22567 3.32033
0.329488 -0.372175 3.09398
1.28567 0.361501 2.83506
-0.540035 0.74827 1.9445
0.0490344 -0.331345 3.06717
-0.315016 0.790245 1.968
-0.555603 0.461142 2.98495
-1.52238 -1.14864 3.26503
1.00401 1.11635 2.84008
0.118508 -0.286977 3.06297
1.82752 0.394299 2.77074
0.534751 -1.18822 3.53513
-0.250902 -0.212105 3.08816
-0.262611 0.869326 1.95665
0.44084 -1.06609 3.43984
0.372992 1.34025 2.88701
-0.858306 0.594701 3.16789
-0.283234 0.921988 1.9355
1.76283 0.731569 2.58721
-0.437515 -0.168306 3.08806
0.276384 0.513484 2.93204
0.20395 -1.04898 3.55187
-0.203196 0.649353 3.08733
-0.55291 -0.132593 3.08484
-1.3227 -0.922027 3.26124
-0.487694 -0.953834 3.52201
-0.0725339 -0.0847328 3.02579
-0.128928 0.598275 2.99853
0.72208 -1.22834 3.4842
1.73151 0.420771 2.696
0.966362 -0.323599 2.90189
1.48352 1.02877 2.52998
0.482658 0.406509 2.90723
1.35841 -1.14835 3.33877
1.13013 -0.279737 2.84491
0.103717 1.12823 2.90395
1.19375 1.12393 2.68961
1.5439 0.435102 2.69307
0.984651 -0.248985 2.92813
0.197589 -1.11283 3.46675
0.882841 -0.48423 3.06301
-0.0566171 1.06421 2.98993
1.54698 0.277833 2.70558
-1.07499 -1.30943 3.3488
-0.954628 -0.463401 3.26006
-0.0422276 1.01993 2.97239
-1.44797 -1.19888 3.08482
1.72103 0.252223 2.6809
-1.12941 -0.421153 3.25361
0.0767802 0.370103 2.91555
1.52419 -1.31391 3.42392
0.279527 1.12953 2.97677
-0.0116088 0.529682 1.21203
1.62008 -1.19072 3.21024
-1.48035 -0.385226 3.21888
-0.758138 0.70642 1.89606
0.179899 0.33788 2.92445
0.561656 -1.5721 3.61785
-1.2695 0.222942 3.02592
-1.4303 -0.605547 3.1667
1.57864 0.82175 2.58709
0.508826 -1.5871 3.74968
-1.1059 0.171329 2.92567
2.45145 0.64908 2.78359
1.5081 -0.567919 3.04939
1.41049 0.810849 2.68984
-0.49019 1.44518 2.95956
0.984949 0.943214 2.84881
0.596569 0.234277 2.90232
0.0509512 -0.529716 3.17987
2.16659 -0.709876 3.22463
-1.35806 -1.32646 3.25689
0.631623 0.228169 2.92216
-1.18207 -1.36405 3.22739
0.184184 0.97654 2.9939
0.676243 -0.573726 3.12349
-0.413194 -1.46965 3.59166
-0.817738 0.206167 2.97199
-1.27442 -0.541749 3.25634
-0.26765 0.946931 3.03274
0.0210344 0.711537 1.8024
0.114499 1.00703 2.96325
2.49943 0.813658 2.87959
-1.03163 -1.62978 3.45937
0.435741 0.266383 2.89891
-1.06118 -0.485758 3.09076
2.285 0.0202863 2.96032
0.303781 -1.46807 3.65475
-1.12888 0.77059 2.76615
-1.08073 -0.765955 3.33729
-0.230354 0.0912306 3.02748
0.056574 1.31679 2.88024
-0.0475623 -0.699643 3.25232
-0.412033 1.31602 2.95314
-0.0404336 0.779656 2.98552
-0.723313 0.0620787 3.02685
0.372153 -0.647761 3.15721
-0.114662 0.163937 3.01334
-0.33942 -1.59384 3.52051
-0.17727 0.893788 3.02516
0.08578 0.700714 3.34705
-0.743605 0.861899 2.93904
-1.03317 -1.46144 3.30643
1.41635 0.109298 2.85821
1.44535 -0.585885 2.93628
-0.298409 0.858929 1.9311
-0.844481 -0.993857 3.79041
-0.958014 0.699852 2.944
-0.152903 -0.0537351 3.02006
1.51094 -0.681115 2.66972
-0.97405 0.728643 3.25019
0.305803 -0.0215142 2.97008
-0.212204 1.01318 2.76517
1.8225 0.353513 2.65963
0.705391 0.736011 2.95138
-1.20406 0.0249272 3.09143
1.51559 0.406715 2.27159
1.46021 -0.723653 2.93113
0.433612 -0.212628 2.99732
-0.129502 0.942663 2.14989
0.350913 1.27573 2.90134
-0.451659 -1.08556 3.5022
-0.987684 0.55402 2.96334
1.33305 -0.171005 2.79728
-0.633037 0.807645 1.86557
1.69799 1.11181 2.56109
-1.10889 -0.967978 3.26557
-0.356541 0.518964 2.98947
-0.592558 -0.983396 3.43431
-1.12846 0.606026 2.8669
-1.03534 -0.132677 3.16647
1.7134 -0.794403 2.8063
1.57068 0.528261 2.68588
-0.743005 -0.0846582 3.0274
0.685061 -0.803948 3.18574
1.0508 0.010057 2.88677
2.55467 0.00467971 3.77956
0.932232 -0.0268426 2.89159
-0.304831 0.763495 3.09065
0.220299 -0.783776 3.28321
1.0341 0.683385 2.87788
1.85746 -1.40646 3.26873
-1.38592 -0.723442 3.14278
-0.869566 0.766737 2.65009
-0.361229 0.0477102 2.98007
1.35062 0.709824 2.71496
-1.38726 -0.173111 3.08305
1.35509 -0.938211 3.06386
-0.39757 0.582903 2.99183
1.90363 0.590563 2.61825
1.55276 -0.138114 2.74859
-0.547124 0.855084 1.88399
1.88863 0.367803 2.6457
-1.43748 -0.910697 3.17817
0.615547 0.540661 2.92782
0.870309 -0.0956044 2.96194
1.39645 0.596494 2.70461
-0.106398 -0.90916 3.34122
0.782182 1.26929 2.82643
0.642035 -0.0607545 2.94721
-1.40452 -0.824811 3.13209
1.74126 0.562669 2.70622
1.15401 -1.16219 3.38032
1.74932 0.449847 2.74466
0.0748993 -0.2939 3.06759
-0.451032 0.775919 1.86275
-0.702838 0.467678 3.07235
0.0962425 -1.14818 3.55727
0.000273956 0.844452 2.09144
0.471815 -0.259385 2.98107
1.59779 -1.0011 3.12936
1.66744 -0.207549 2.72493
0.620421 0.505672 2.92741
-0.691954 0.71162 1.91368
1.33301 -0.416111 2.74975
0.971187 1.02012 2.78192
1.30145 -1.36855 3.44194
1.40668 0.313938 2.79383
-0.257063 -0.416301 3.16555
0.525649 1.02775 2.9155
0.332397 -1.31642 3.50077
0.245578 0.29772 2.92934
1.5577 0.36585 2.63867
1.28019 -0.365955 2.86264
0.695055 -1.28346 3.50674
1.19229 1.06569 2.72363
-0.0270516 0.493703 1.28468
-0.619821 -1.19246 3.44683
1.82073 -0.336985 2.81742
1.34755 1.01736 2.67327
1.2337 0.356284 2.85424
0.772657 -0.895839 3.22291
1.56093 -0.095777 2.84239
1.93199 0.000323432 2.73698
0.0824889 0.655379 3.12827
1.03907 -1.75115 3.69068
1.26182 -0.0586756 2.78748
1.65201 1.14291 2.56437
0.370209 0.718428 3.02633
-0.479485 -0.876325 3.35409
0.783167 -0.02392 2.92086
-1.2318 0.657128 2.88305
0.227276 -0.828706 3.31507
1.32796 0.498604 2.84948
1.24727 -0.243701 2.78272
-0.262005 0.878341 1.97248
-1.22837 -1.05677 3.3061
-1.27342 -1.01478 3.30419
-0.383125 0.779096 2.02934
0.840111 1.16377 2.79906
1.55807 -0.216514 2.87265
-0.467784 0.493362 3.00884
-0.673825 -0.998773 3.42012
-0.898634 0.596521 2.99914
0.0598486 -0.168763 3.03603
0.274189 0.546923 2.93258
-0.29496 -0.941959 3.34786
-0.607955 0.872411 1.88271
0.508695 -0.13382 2.95811
0.904097 1.06006 2.78346
-0.647101 0.38029 3.00404
-1.00594 -0.371999 3.14344
-1.15787 -1.21301 3.34447
1.6148 -0.326566 2.84266
-0.474812 0.756778 1.87749
1.126 -1.21537 3.42034
0.599573 0.446976 2.91745
-0.76635 0.7273 1.85147
-0.510342 -0.291872 3.09195
0.804493 0.408714 2.92424
1.00465 -1.19998 3.50828
1.47381 -0.488688 2.80548
-0.585575 0.279732 2.98726
-0.443523 -1.43816 3.52562
1.08369 0.950112 2.76804
1.36563 0.887848 2.69146
0.966181 -1.53013 3.7769
-0.321193 0.241109 3.00069
1.26213 -0.478799 2.94166
-1.41191 -1.22748 3.1667
-1.09426 0.348625 2.94983
0.397972 -0.445885 3.09226
-0.695664 0.720306 1.93799
2.31973 0.039412 2.95603
-0.177259 -1.32934 3.58527
1.00325 0.292543 2.92587
-0.00690292 0.529574 1.25396
1.06213 -0.395532 2.92413
0.172961 1.03165 2.91748
0.738722 -1.16333 3.27992
0.991801 0.443181 2.90799
0.0217899 -0.337904 3.08002
-0.528454 0.419059 2.99922
0.375394 -1.19873 3.54641
1.01744 1.08592 2.77461
-0.994195 -0.292343 3.13421
0.216557 1.20553 2.89308
-0.842414 0.499781 3.0222
-1.3126 -0.258394 3.14438
1.55159 1.02734 2.54396
-0.956675 -1.02368 3.1619
-0.243902 -0.494841 3.17481
1.35505 0.954479 2.68507
0.595607 0.293173 2.90157
-0.869439 -1.40572 3.53442
-1.30651 -0.452151 3.15984
1.47377 0.88198 2.56933
0.401188 -1.38181 3.55831
0.871353 0.263732 2.88346
1.66153 0.334752 2.67061
0.90129 -1.32137 3.49205
-0.185149 0.790448 2.06965
-0.0206813 0.531608 1.23569
0.234195 -0.408324 3.09938
-1.07447 0.352164 3.02482
1.25976 -1.24359 3.35749
1.11757 1.01131 2.75088
1.59843 -0.362098 2.82348
-0.967213 -1.48667 3.41114
-1.33858 -0.644854 3.37301
2.26386 0.202804 2.7463
0.393623 0.157919 2.9202
-0.399405 0.89864 3.01874
-0.478522 -1.60469 3.41447
2.25929 0.506911 2.64161
-0.50522 1.40404 2.96384
-1.44955 -0.579636 3.18469
-0.852529 0.668017 2.01882
0.817321 -1.52748 3.57513
-0.827997 0.235476 2.99207
-1.00049 -0.544175 3.21812
1.67507 0.80763 2.54427
0.805206 -1.5706 3.78966
1.24453 0.186882 2.79578
-0.0373361 0.0502559 2.96004
-0.229832 1.06848 2.45275
0.994203 0.760769 2.88534
1.68637 -0.712509 2.85699
0.984509 -0.734742 3.15203
0.0267033 0.754125 3.03682
2.00197 1.07551 2.69646
0.682709 0.0144871 2.91959
0.761781 0.117527 2.87813
-0.298996 0.874403 3.02937
1.8286 0.72168 2.57596
0.872638 -0.684703 3.13432
0.627326 -1.79174 3.90245
0.272914 0.0853255 2.96137
1.0582 -0.640369 3.07152
2.50559 0.0232995 3.75541
0.764942 0.806228 2.90843
0.710702 -0.736783 3.16766
1.19778 0.759038 2.77287
-0.0433066 1.13354 2.93247
1.06762 0.0761443 2.81358
1.39657 0.694282 2.66517
1.47679 -0.639643 2.85218
-0.283907 -1.08126 3.43776
1.1442 0.0338453 2.85175
-0.607975 -1.57219 3.46118
-0.67862 0.157099 2.96864
2.06529 1.16269 2.80725
-1.37156 -0.647619 3.16487
-0.116 0.919213 3.10046
-0.265355 0.118791 2.99632
-0.678103 -1.54497 3.51879
2.12216 1.05867 2.76619
0.227579 -0.62761 3.2248
1.64725 0.742617 2.60495
1.11557 -0.822471 3.06735
0.790839 -0.0634527 2.91468
0.583911 -1.79376 3.74084
-0.280586 0.691295 3.15947
1.92413 0.644031 2.61554
-1.4296 -0.0233483 3.08517
-0.904012 -1.61898 3.41758
0.113549 0.749247 3.04226
1.91854 -0.16453 2.7209
0.811337 -0.812968 3.18589
1.25793 0.00565294 2.77587
0.33843 0.712364 3.02975
-0.410488 -0.789314 3.31443
1.29706 0.517735 2.81404
0.164747 -0.223664 3.04983
-0.278069 0.909576 1.96615
0.0477952 -1.06493 3.41612
-0.6445 -1.00081 3.38904
-0.447503 0.756806 2.22485
-0.684305 0.801805 1.86578
0.993068 -0.182512 2.93467
0.82654 0.510763 2.97012
-0.548847 -0.956776 3.32685
1.05069 0.598103 2.89037
-0.394666 -0.14294 3.09509
0.438842 0.565932 2.91053
1.21957 -0.893104 3.15572
0.67377 1.25301 2.85068
0.41015 -0.100651 2.97567
-1.03487 -1.21012 3.4994
-0.379459 -0.348132 3.12245
-1.31516 0.420547 2.95399
-0.393525 0.7593 1.94391
1.66713 -0.275461 2.62067
1.16831 1.12243 2.70616
0.294659 -1.20852 3.55316
0.357776 0.467255 2.88258
1.14103 -0.255003 2.84153
0.3971 1.1435 2.8669
-0.590375 0.452803 2.97491
0.444311 -1.15179 3.53802
1.26797 -0.175628 2.78138
-0.422397 0.723903 1.96896
0.305362 1.31498 2.90167
-0.94459 -0.983551 3.37152
1.13151 0.555867 2.84751
-0.685026 0.856499 1.8654
-0.811136 -0.138475 3.07923
-0.559761 0.556449 3.03447
1.83523 0.66152 2.60272
-0.773421 -0.945617 3.35426
-0.578133 -0.097403 3.0921
-0.8819 -0.890083 3.29409
-0.1179 0.694551 3.12167
-0.199005 -0.892016 3.42838
-0.327597 -0.0605945 3.0552
1.39184 0.566944 2.75768
-1.42953 -1.08678 3.20487
0.0353362 0.488654 3.00552
0.823056 -0.302729 2.99279
0.62139 1.19512 2.88639
1.42219 0.417453 2.77392
-0.389237 -1.19578 3.68608
-0.339727 -0.263334 3.10071
1.42593 1.0583 2.63608
-0.369231 0.850351 2.41277
0.0932258 0.51043 2.96707
1.29833 -0.2133 2.80789
0.688726 -1.08913 3.42231
-0.906564 -0.462125 3.20296
0.823524 1.03823 2.84264
0.197919 -1.42516 3.65168
1.67149 0.299214 2.72927
-0.311779 -0.420951 3.17199
1.12864 0.987311 2.78969
0.677064 -1.37508 3.62764
0.913159 0.289594 2.87408
1.53828 0.368593 2.70513
1.65526 -1.21197 3.22067
1.53202 0.987181 2.52768
0.0607914 0.534492 1.28063
1.23312 -0.374195 2.92863
-0.00220975 0.365502 2.95919
1.67248 -1.10337 3.06596
-0.808091 0.706946 1.87053
-0.725715 -0.345263 3.1208
-0.730823 -1.47699 3.49445
1.09983 -0.546893 2.92248
2.08962 0.529211 2.60703
-1.36514 -1.29866 3.10457
-0.267922 0.190155 2.96594
1.65341 -0.501398 2.82532
-0.659709 0.644836 2.08339
0.112883 0.59269 1.34222
2.02709 0.45688 2.62055
0.739461 0.977922 2.88163
0.24864 0.26725 2.94005
-0.0445719 -0.506038 3.18819
0.968834 0.935821 2.86459
-0.585545 -1.395 3.49305
1.51608 0.205065 2.70979
1.11853 -1.11099 3.36417
-0.516018 0.520301 2.99466
-0.0728498 -0.259906 3.08014
-0.317597 0.863958 1.94197
1.19857 0.461188 2.8343
-0.742434 -1.06267 3.44931
-1.13586 -0.220573 3.16095
1.55063 1.03262 2.47347
-1.51935 -0.956563 3.17289
1.6678 0.541474 2.75998
1.24815 1.1666 2.69562
-0.244777 -0.178058 3.07592
-1.12992 -0.915115 3.20844
-0.0256854 0.557887 3.02554
0.31081 -0.137746 2.97811
-0.515678 0.853849 1.88441
0.878862 1.07151 2.82476
-1.101 0.378381 2.99407
1.17823 0.996301 2.71534
-0.49082 -0.374274 3.08828
0.979848 0.326951 2.9297
0.0562077 -1.31873 3.63452
-1.13705 -0.361335 3.26694
1.5486 1.00384 2.49558
-1.25913 -1.15913 3.33459
0.753651 0.44598 2.93054
0.256304 1.13782 2.94593
0.445476 -0.292198 3.00154
1.32932 0.389649 2.80031
-0.615614 -1.17505 3.50828
-1.21071 -1.32634 3.24308
1.53109 0.238857 2.59003
0.525778 -0.304431 0.580315
1.31658 0.937559 2.73731
1.31021 -0.511373 2.90843
-0.67524 -1.39184 3.51354
-0.621048 0.230929 2.9251
0.997143 -0.489752 3.01114
-0.46678 0.687049 2.08122
1.84767 -1.90624 3.62343
0.726019 -1.39994 3.57012
0.695007 -0.454574 3.09187
-0.0346838 -1.34319 3.58379
0.766426 -1.81142 3.81853
1.5087 0.276085 2.75908
0.0352617 0.587044 1.29516
-0.193435 -0.416701 3.13803
-0.545804 0.699421 2.00116
-1.46123 -0.69239 3.19233
-0.641878 0.852603 2.98504
-0.501492 1.35557 2.96346
-0.126507 0.123442 3.0014
0.0629967 0.827956 3.03274
-0.724817 -0.678668 3.39209
2.28817 0.672178 2.7579
-0.993491 0.10572 3.22786
0.077715 -1.58355 3.48226
0.745782 -0.608958 3.12019
0.188438 0.943705 3.01938
0.637887 -1.65759 3.73018
1.53798 0.180579 2.80188
-0.178626 1.11824 2.87394
-0.730744 -0.569938 3.19767
1.5996 0.767352 2.57458
-1.34595 -1.40376 3.32542
-1.03971 0.167355 3.00203
0.721081 -1.6635 3.65162
1.00248 -0.479712 2.9415
1.08268 0.292726 2.90649
-0.69272 0.706165 1.97822
1.06961 -1.36323 3.33697
-1.08548 -1.27427 3.3397
1.24049 0.256135 2.82348
1.51817 0.884883 2.59925
0.0766113 -0.454108 3.12158
-1.48341 -1.23678 3.29133
1.08807 0.355182 2.88273
-1.3311 -0.431946 3.24046
-0.231642 0.776785 2.03586
0.0148749 0.551376 1.32805
-0.927742 -1.23003 3.43411
-1.36019 0.343717 2.99125
-0.0301626 0.522668 1.44969
1.48824 -0.364849 2.82383
-0.42152 0.736629 1.99578
1.23139 0.828447 2.76861
2.27523 0.729316 2.84194
-0.420056 0.158598 2.99373
-0.762751 -0.619279 3.27424
0.110095 -1.63548 3.69311
2.23652 0.515965 2.64365
-0.709643 0.662478 2.00633
1.46614 -0.567677 3.01111
-0.355491 0.235077 3.05441
-0.182243 -1.53107 3.61491
-0.436671 -0.541536 3.23195
1.35971 0.844602 2.70323
0.223089 -1.46283 3.5487
-0.892605 0.196104 2.97444
-0.215433 1.34467 2.92538
-0.247113 1.01584 2.23591
0.491352 0.0432069 2.92873
-1.09307 -0.793631 3.38154
-0.614625 0.765933 2.9509
-0.562786 -1.03299 3.58887
-1.07296 0.748982 2.97518
-1.41462 0.0209041 3.16808
1.39024 -0.70787 2.99048
0.387507 0.112501 2.93246
1.4676 0.330083 2.1891
0.56916 0.834331 2.92728
-0.86417 -0.699766 3.23477
0.135154 -1.57767 3.47372
-0.826056 0.0915246 3.03741
1.90874 1.12766 2.94576
-1.06975 0.787777 2.8377
0.178902 -0.660632 3.21234
1.28407 0.574289 2.77168
1.84249 0.320645 2.68443
-0.369378 -0.0936181 3.06931
0.0146493 -1.7142 3.68333
-0.98189 -0.89971 3.34177
1.67293 -1.06705 2.94595
-0.66063 -0.0609209 3.07503
1.76876 0.661288 2.7929
1.4835 -0.800934 2.95187
-0.689689 -0.0230345 3.06377
-1.05359 0.661263 2.97496
-1.20345 0.238155 3.00156
-1.18662 -0.794738 3.20053
0.0177677 0.716998 3.24393
0.0351453 1.26545 2.85567
-0.472768 -0.0629994 3.07521
-0.386022 0.866366 2.36069
0.113313 -0.87861 3.34103
-1.45425 -0.0286193 3.08773
-1.2 0.729524 2.91628
-1.23605 -0.789088 3.15122
1.44038 -0.00469255 2.79456
-0.692451 0.698128 3.02572
1.76185 0.930611 2.53843
-0.0949149 -0.795524 3.32049
1.71195 0.48365 2.64187
0.330542 -0.229137 3.04506
-0.377161 0.846988 1.91256
-0.983325 -1.04958 3.39963
1.30648 -0.951983 3.10317
0.460531 0.492463 2.89242
-0.135685 0.992415 2.64358
1.15665 -0.175492 2.77899
-0.354958 0.869008 2.45738
1.84576 -0.861109 2.91416
-1.02252 0.611674 2.97352
0.980351 -0.150321 2.90908
-0.758999 -1.0156 3.6301
0.374141 0.56075 2.93245
0.477793 -0.105532 2.98257
0.922707 1.24581 2.77007
-0.553087 0.745637 1.90837
0.916425 0.396008 2.92824
0.468921 -0.345668 3.04535
1.219 -1.18106 3.29086
1.58381 -0.308466 2.95709
1.64946 1.04672 2.53565
1.12065 -1.20086 3.47313
1.11904 0.463404 2.87837
1.3297 1.05685 2.63399
-1.42535 -0.270369 3.11291
-0.260557 0.45123 2.9901
0.595572 -1.11363 3.38082
0.402335 -1.43256 3.54961
1.17295 0.27733 2.80883
-0.799785 0.692975 1.96871
1.19153 -0.475906 2.8751
-0.208915 -1.39102 3.57637
-0.686807 0.265843 2.98186
-0.366517 0.720926 2.09565
0.736837 -0.450938 3.01588
-0.0110332 1.3561 2.88773
0.0684571 -1.33978 3.56067
0.445844 0.351935 2.88469
0.703056 -0.416365 3.0416
-0.4521 0.741319 1.95256
-0.111554 -1.26262 3.4875
0.0842259 0.56959 1.34636
-0.969687 0.328258 2.96013
-0.238533 -0.384794 3.14165
1.50856 0.938777 2.56959
0.865164 -1.16973 3.38875
-1.50975 -0.321261 3.22292
0.451417 0.431856 2.90403
-0.294192 0.781421 1.96586
1.08722 -0.259078 2.84379
-0.696444 0.684897 1.9361
-1.35136 -1.06488 3.2319
-0.431995 0.515223 3.00541
-0.750881 -0.220247 3.07113
1.10095 1.10719 2.6964
0.913179 0.46922 2.92316
0.40432 -1.07296 3.40926
1.51168 -0.434045 2.81341
1.15927 0.303077 2.81676
-0.599709 0.697547 1.94523
-0.437129 -1.35052 3.49544
-0.883432 -1.27527 3.42718
-0.0361632 0.29262 2.93712
-0.660605 0.693995 1.95878
-0.588671 -0.43045 3.23454
-0.735278 -1.25101 3.4728
-0.92874 0.407329 2.95729
-1.09574 -0.37046 3.02538
0.39668 1.1057 2.86889
0.0683926 0.554336 1.35118
-1.06255 -1.18445 3.34904
1.68278 0.328448 2.6997
-0.610361 0.723529 1.91001
-0.784519 -0.354996 3.17539
0.881842 -1.50675 3.46435
0.888356 -0.573458 3.05496
2.46432 0.726402 2.85463
0.290653 0.180153 2.93809
0.293676 0.933483 3.03708
1.89424 -0.216972 2.78853
0.816922 0.972398 2.87703
1.02971 -0.528191 2.99499
0.199122 -1.69552 3.59895
-1.53939 -1.38462 3.31474
1.14152 0.249986 2.82584
-0.180386 -0.506921 3.17608
1.11124 0.893631 2.76193
0.0155574 -1.43418 3.56451
0.354452 0.214919 2.91451
0.931266 -0.729904 3.12157
1.5527 0.072064 2.96423
-0.458653 1.05522 2.85706
2.04684 0.517002 2.61037
-0.532112 0.810635 3.00583
1.3657 0.694269 2.67669
-0.141342 1.38762 2.9068
0.281281 0.0359482 2.95887
1.09905 -0.676649 3.02105
0.197872 0.143581 2.96885
-0.566744 -1.56219 3.4349
1.38917 -1.35579 3.26061
0.967113 0.846483 2.86672
-1.35197 -0.665363 3.21196
-0.21857 -1.58627 3.59227
0.235748 0.11056 2.96104
-1.23651 -0.650299 3.34766
2.26426 1.07006 3.01673
-0.394178 0.865619 3.07327
0.477804 1.07574 2.8679
-1.24393 -0.418707 3.1647
1.47883 0.348486 2.8609
0.957995 -1.50298 3.92714
-0.225691 0.764304 2.06991
0.171624 -0.379816 3.08073
0.884575 0.318814 2.92022
0.926155 -1.32928 3.5809
-0.0188079 0.447674 2.96921
1.3441 -0.32792 2.7697
-0.410708 -1.24182 3.54628
0.48156 1.13964 2.86024
-0.416889 -1.18865 3.52006
1.11938 1.04282 2.67616
-1.12973 -0.303664 3.18932
0.756023 0.398912 2.91703
-0.0854309 0.266161 2.96047
0.875513 -1.50384 3.58873
-1.16299 -0.562089 3.34225
0.450746 0.99745 2.94487
-0.805568 -1.39003 3.47951
0.225636 0.22158 2.93386
0.0236505 0.520231 1.30615
-1.16686 -0.513 3.24705
0.386208 0.955188 2.94511
-0.402396 -1.36893 3.54472
2.32219 0.458104 2.59651
0.652255 -0.458395 3.07684
-1.35385 0.304563 2.95481
0.030253 0.5565 1.23315
1.47455 0.909015 2.57377
0.400602 0.843036 2.97836
0.123763 -0.703925 3.24043
0.998634 0.105438 2.86998
-0.00360776 1.36779 2.88465
0.558604 -0.665747 3.21119
0.441719 0.806805 2.95517
1.1361 -1.75318 3.79225
1.87979 -0.671624 3.00715
-0.477824 0.0820184 2.97677
-0.458068 -0.633279 3.3078
1.15995 0.173331 2.79696
-1.21103 -1.42293 3.22923
1.761 0.0699768 3.29638
0.888058 0.905632 2.90327
1.70099 0.779697 2.62238
-1.11351 -1.41868 3.32504
-0.268613 0.151558 2.95706
-0.666724 0.790878 2.97337
-0.489304 -0.595228 3.3033
-1.24765 0.0180588 3.12593
-0.349774 -0.840603 3.38511
0.903896 0.712102 2.88576
1.72169 -0.0363975 2.70769
-1.41879 -0.77238 3.19803
-0.536538 0.714277 3.07387
-0.785016 -1.26193 4.36702
1.54789 0.0507781 2.37198
0.604539 0.784467 2.99636
-0.60906 0.0477566 3.03348
1.09865 -1.67317 3.51851
0.0273849 1.222 2.8856
-0.0939132 -0.745609 3.26002
-0.574065 0.823939 2.73082
2.10602 0.261396 2.64749
1.13494 0.136833 2.82264
-0.519052 -0.629377 3.26807
0.257899 0.859838 3.05131
-0.804274 -1.55566 3.52023
-0.940098 -1.62989 3.44006
1.68902 0.0969471 2.75882
0.552565 -0.587187 3.18694
-0.564111 0.68391 2.09054
2.24728 0.558217 2.69416
0.258613 -1.55393 3.63113
-1.00371 0.239867 3.01805
-0.154627 1.0725 2.98119
-1.22206 -0.560087 3.29915
1.20611 0.856179 2.76262
-0.0924079 -1.48878 3.60233
-1.42676 0.199966 3.08526
-0.349772 1.29917 2.94866
2.14288 1.06526 2.92993
0.18802 -0.792498 3.29052
1.64325 0.0309983 2.70688
-1.13093 0.781941 2.96833
-0.602345 0.0100602 3.04869
-0.691887 0.725765 2.9626
-1.18682 -0.725379 3.18959
-0.358847 0.982415 2.70355
1.63143 -0.665237 2.92555
1.56799 0.0648383 2.69782
0.668536 -1.85065 4.01866
1.97789 0.114574 2.61713
-1.25399 -0.678596 3.31223
0.0841708 0.817977 3.02066
1.61763 -0.146946 2.79011
1.44328 -0.870837 2.92675
1.07682 0.589366 2.87528
1.93743 0.542536 2.63227
1.1515 -0.0993687 2.77427
0.391848 1.31078 2.90039
-0.0715985 -0.917396 3.33818
-0.648964 0.598548 3.09657
1.88897 -1.02722 2.90698
1.62047 0.616879 2.63686
-0.734156 -0.0582577 3.05629
1.53258 -0.800223 2.94545
0.872626 0.632823 2.90474
-1.38956 -0.022546 3.11351
1.51953 -0.757788 2.91801
1.18896 -1.29091 3.3957
-2.54676 -1.9648 5.52484
0.646025 0.498358 2.91733
0.620406 -0.264048 2.96174
-0.790044 0.735677 2.37372
-0.101539 0.481541 2.97326
0.48185 -1.09109 3.45817
-0.411878 0.772542 1.87237
0.48647 -0.220618 2.98267
1.4767 -0.886608 2.87416
0.0825669 -0.180876 3.02993
-1.28686 0.532451 2.87086
0.154814 1.29489 2.89686
-1.09533 -1.01986 3.2439
0.452307 0.520472 2.90402
-0.298511 -0.228337 3.11213
-0.611645 0.896036 1.86309
-0.130248 -1.03071 3.4486
1.14195 0.489857 2.88459
0.942443 -0.193649 2.91803
-0.232859 0.814696 1.92897
-0.0538752 -0.973556 3.36116
1.79809 -0.151574 2.80707
-1.33571 0.566818 2.89898
1.0609 1.23179 2.73701
-0.756424 0.7275 1.87359
1.10864 -0.36818 2.89152
-0.753038 0.40207 2.98004
-0.394703 -1.29142 3.546
0.631395 1.07998 2.88618
0.0874559 -0.355767 3.10118
-1.23118 0.374537 2.99753
0.51425 -1.2899 3.61336
0.93006 -0.305773 2.95412
1.37009 1.07551 2.6169
-1.03941 -1.12605 3.35592
-0.89464 0.478543 2.95742
0.847061 -0.278365 3.0004
1.63044 1.00126 2.49048
0.264994 0.42601 2.89252
0.0156625 -1.12651 3.4398
1.63132 0.259212 2.63582
1.36953 -1.42097 3.43593
-1.24316 -0.51912 3.25903
-0.483358 0.708318 2.00791
0.358665 -1.32492 3.37362
1.31707 0.247413 2.81278
-1.03961 -0.456131 3.10287
-0.512979 0.695874 2.03742
-1.1226 -1.25301 3.33821
2.16519 0.423135 2.61803
0.801727 -0.423632 3.03082
2.41002 1.01575 2.92435
1.46192 0.296595 2.77898
1.5969 0.942312 2.58742
0.0478386 0.892963 3.05482
-1.4203 -0.653552 3.11978
0.342561 0.144461 2.95596
0.0906669 1.34982 2.88177
1.14733 -1.66788 3.58538
2.24442 0.596895 2.72227
0.336935 0.85216 3.02678
-0.49997 -0.645876 3.32644
0.175947 0.105803 2.95221
1.49051 -1.61079 3.54077
1.52623 -0.533828 2.7908
-1.32521 0.24053 3.06117
1.30243 -1.5749 3.60438
0.0470405 1.30302 2.88093
0.296543 0.969372 3.00022
1.4369 0.818847 2.65612
0.926661 -1.5302 3.63483
1.01406 0.168247 2.84504
-0.362595 1.41212 2.93686
0.363434 -0.544919 3.14276
1.56286 -0.444216 2.85324
0.0768436 0.313001 2.91905
1.28692 -1.41288 3.52709
0.42697 1.04392 2.89459
0.566916 -1.35459 3.53857
1.24374 0.956317 2.73808
0.190424 0.284397 2.92215
-1.32449 -0.426874 3.16585
2.22243 -0.804295 3.34042
1.05065 -1.20146 3.23622
1.64465 0.362434 2.68126
0.612702 -0.383431 3.03181
0.0266837 1.1055 2.88294
-0.0971899 -1.35364 3.79808
0.224791 0.353517 2.93194
0.15474 1.09749 2.94019
-1.18231 -0.352828 3.12717
-0.0632285 0.920438 3.02242
1.68051 0.620602 2.62732
-0.963697 0.189632 3.04189
0.820492 -0.579497 3.09854
0.846731 -1.5071 3.45877
2.21557 0.377358 2.61418
-0.600288 0.665586 1.9832
0.968758 -0.538899 3.01618
0.141142 0.260962 2.93396
0.130268 -1.53435 3.6855
1.12947 -0.481903 2.92415
1.52529 0.847233 2.60955
1.48055 -1.40342 3.36959
1.41074 0.205233 2.8429
2.39879 0.15878 2.84158
-1.38691 -0.786558 3.32934
-0.237162 1.31917 2.93399
-1.46054 0.0835233 3.20479
0.298284 0.781186 2.91908
-0.0742749 1.34839 2.89815
-0.957952 0.0432359 3.04365
-0.499966 0.793726 3.07382
0.254173 -0.721198 3.28646
0.805657 -1.73866 3.75883
1.00379 0.131807 2.8619
-0.560171 0.914472 2.86524
1.16383 -0.632578 2.94869
-0.45342 0.877433 3.00852
0.706278 0.101097 2.89809
0.154955 -1.60445 3.60574
-0.160817 0.527174 1.46593
1.47853 -0.577149 2.82135
-0.836321 0.845511 2.93985
1.13396 -0.10893 2.79294
-0.214241 0.644974 2.98872
1.19899 -1.69909 3.66458
1.24882 -0.89338 3.13884
0.374303 -0.069486 2.9484
-1.03908 -0.866133 3.33523
0.459281 0.595093 2.94739
1.53444 0.262272 2.30669
0.601281 0.733153 2.97883
-0.753026 -0.0338328 3.06666
