ply
format ascii 1.0
element vertex 1833
property float x
property float y
property float z
end_header
-0.508784 -1.4825 3.62304
0.319345 0.296014 2.93183
-0.14342 0.884221 2.01459
0.550899 -0.935094 3.30794
0.357498 -0.467324 3.09921
0.432252 1.01455 2.96567
1.28445 -0.0654058 2.79341
-0.801589 -1.34692 3.40363
0.956304 0.267025 2.93362
-0.669076 -0.920975 3.44803
1.57594 0.548159 2.66877
1.04639 -0.0338799 2.92059
-0.849293 -0.43205 3.17006
0.421404 -0.846262 3.2926
-1.27894 -1.26495 3.30343
-0.400807 0.731203 1.99746
0.887812 0.679689 2.89861
0.704266 0.323051 2.92838
-0.798 -1.27338 3.43398
-0.0958952 0.0412954 2.98515
-1.36353 -0.802656 3.29
0.704838 0.401133 2.93014
1.82717 -0.362106 2.84799
-0.887576 0.77494 2.9408
0.130894 1.1359 2.90705
1.66514 -1.12756 3.11728
-0.184509 0.00731221 3.0109
0.575848 -0.762008 3.23637
1.16017 0.356462 2.89573
0.484814 0.742222 2.98656
1.54376 0.943774 2.47698
-1.06962 -0.365453 3.21521
-0.240744 -1.49799 3.47373
0.566629 0.233505 2.90779
1.34365 -0.940165 3.08901
-0.398268 0.591194 2.96707
0.0283743 -0.585679 3.18943
-1.38726 -0.173111 3.08305
-0.240143 0.993387 2.97979
-0.544598 -1.47915 3.54573
1.58252 0.178334 2.71704
-1.43748 -0.910697 3.17817
1.50974 -0.480038 2.76059
0.617712 0.551606 2.9442
1.54422 -0.132706 2.77602
-0.863643 0.647937 2.0487
1.39446 0.609312 2.74113
-0.101169 -0.923455 3.31366
-0.599531 0.696666 1.95339
-0.20543 -1.43177 3.52053
-0.513656 0.86739 1.87587
0.876399 -0.0927524 2.98403
0.13056 0.300745 2.89135
-2.80108 -1.19936 6.27818
-1.40452 -0.824811 3.13209
1.01594 -0.452849 3.04907
1.48041 -1.34302 3.38801
0.652206 -0.0587795 2.96177
0.0564673 0.278386 2.94158
1.73045 0.572937 2.73683
1.41223 0.93495 2.72162
0.788061 1.2873 2.83801
0.0440788 -0.416125 3.08402
1.01566 1.0618 2.78098
0.941151 -0.0243951 2.9229
-0.30693 0.774039 3.07107
-0.526202 -1.29561 3.41279
1.18947 0.364521 2.88626
0.689548 -0.813469 3.19121
1.05928 0.0144524 2.91873
0.451911 -0.381054 3.06969
1.0331 0.693952 2.89795
1.23197 1.02124 2.76806
0.228735 -0.79459 3.2761
0.174102 -1.29373 3.50044
1.32562 0.318678 2.81233
1.54489 -0.337694 2.94979
-1.38592 -0.723442 3.14278
-0.782132 -1.19917 3.38042
0.5568 1.13824 2.88921
1.34873 0.724757 2.74399
1.37228 0.39228 2.78773
-0.355992 0.0518363 2.96118
1.29383 -1.37288 3.4646
1.39967 0.321937 2.8281
-1.17836 -0.87381 3.29954
1.32793 -0.414384 2.77247
0.976121 1.03659 2.80145
1.00141 -0.0585572 2.93359
-0.90639 0.705035 2.92539
0.256881 0.304976 2.93105
0.73641 -0.814174 3.19443
0.330889 -1.32715 3.49055
1.08737 -0.0253899 2.91626
1.59344 0.598366 2.69034
-0.245018 -0.421382 3.14524
0.954918 -0.785763 3.22891
-0.430184 0.812215 3.04224
0.700478 -1.29397 3.50193
0.529999 1.04579 2.92315
-0.188046 0.05289 2.98269
1.28607 -0.363884 2.8866
1.53938 0.374176 2.66882
1.19517 1.08002 2.7469
-1.18815 -0.768365 3.33144
1.23209 0.364898 2.88629
-1.22307 -1.58856 3.36442
-1.31606 0.0225229 3.06434
1.80055 -0.330028 2.8492
-0.621639 -1.21276 3.41444
1.34703 1.03047 2.69925
0.37614 0.759386 3.01937
-1.1376 -0.738108 3.3877
-0.444908 0.778187 1.86078
0.0870844 -0.296552 3.06454
-0.884285 0.673155 2.32597
1.74755 0.452608 2.74711
0.0360347 0.121929 2.96707
1.15277 -1.16945 3.39276
0.483035 -0.259075 2.98651
0.983928 0.804025 2.89399
-0.38085 -0.674467 3.26469
0.000273956 0.844452 2.09144
0.101063 -1.16323 3.53926
-0.601699 0.0943362 2.99385
-1.33966 -1.46601 3.18908
-0.700634 0.473482 3.0475
1.65215 -0.201282 2.75449
1.23287 -0.559153 2.83969
1.57682 -1.0067 3.15133
1.20499 -1.63148 3.65084
-0.686359 0.711082 1.90563
-0.50758 0.87029 2.88096
0.623352 0.517216 2.94278
-0.585208 0.163727 2.95533
-0.18979 -1.23594 3.48481
0.084241 0.454224 2.94018
-0.218261 0.0930292 3.00274
-1.08236 -0.767973 3.33403
-1.12888 0.77059 2.76615
-0.666085 -0.340273 3.05875
-0.0616765 -1.16042 3.39608
-0.72336 0.0568262 3.00098
1.29132 1.10135 2.72369
-0.730738 0.42402 2.97187
1.09699 -0.282597 2.89019
-0.0480482 0.791764 2.97013
-0.0421015 -0.706994 3.23644
-0.0155234 0.844831 2.14855
-0.178691 0.907369 3.00386
1.29987 -1.07108 3.2431
-0.479782 0.852709 1.88207
-0.333685 -1.60598 3.50501
1.24666 -0.253747 2.89519
-0.0999776 0.165613 3.00063
0.377895 -0.6542 3.15878
1.44903 -0.585609 2.96049
-0.88348 0.497757 2.97862
0.0521274 -0.216691 3.05968
1.41851 0.116551 2.88755
-1.03256 -1.46223 3.30654
-0.71851 0.546425 3.08282
-1.31672 -0.99169 3.16834
-0.754583 0.857764 2.92367
0.0925345 1.14696 2.72854
0.683194 -0.577817 3.12956
-1.33557 -0.175192 3.11256
0.183214 0.991785 2.98731
1.25877 0.559137 2.80664
-1.18567 -1.3749 3.21091
0.644284 0.236426 2.93898
-1.40534 -0.979503 3.2784
-0.00417555 -0.134792 3.00615
-0.551978 0.868574 1.8758
-1.28426 -0.548143 3.24092
-0.272459 0.959918 3.00881
-0.868382 -0.941634 3.27593
-0.40635 -1.48772 3.56203
-0.823092 0.209385 2.94772
1.40757 0.513401 2.75313
0.447218 0.274295 2.91799
1.74649 0.567056 2.70381
-1.03163 -1.62978 3.45937
0.115772 1.02061 2.95419
0.305798 -1.48276 3.63891
0.745212 -0.922878 3.2957
-1.06534 -0.489401 3.08382
1.33138 -0.0845924 2.71303
-0.468526 -1.09475 3.47068
1.33936 -1.63652 3.674
0.856058 0.205064 2.93901
-0.999655 0.558319 2.94729
0.447569 -0.21379 3.00585
-0.0905504 0.945726 2.1463
1.45895 -0.577641 2.91403
1.06116 0.901927 2.83641
0.623576 1.27798 2.87303
-1.11159 -0.975086 3.25907
-0.354528 0.526845 2.97037
0.385101 -1.5297 3.55251
1.33563 -0.167108 2.82481
0.239638 0.164056 2.96833
-0.615301 0.814923 1.86031
1.47599 -0.535029 2.87528
0.0905763 0.902753 2.97602
-1.17954 -0.581697 3.42969
0.358458 1.2923 2.8957
-1.03549 -0.138704 3.14817
0.0759467 -1.49411 3.57843
0.688522 0.272586 2.89951
-0.596 -0.989006 3.42454
-1.13584 0.607057 2.86333
-0.391667 -0.515127 3.21075
-1.10389 0.839705 2.53808
-0.745211 -0.0868642 2.99894
1.18134 0.955682 2.77314
1.22979 -1.4327 3.50521
1.03177 0.232395 2.90579
1.70703 -0.791713 2.81325
1.55792 0.540623 2.72009
-0.139954 -0.0527188 3.0046
1.0499 1.04174 2.81385
1.06067 -0.437848 2.97229
-0.968095 0.707644 2.9281
-0.852413 -0.999316 3.75026
-1.04638 0.347922 2.9975
0.0730487 -1.35176 3.44213
0.320363 -0.0197528 2.96948
1.34479 0.989165 2.76917
0.771268 -0.409848 3.04087
-0.973007 0.73308 3.23949
1.51094 -0.681115 2.66972
0.474972 -1.36505 3.5898
0.381567 0.302584 2.92477
-1.20903 0.0253966 3.0837
-0.72632 0.378272 2.94415
0.706862 0.747555 2.96237
1.51859 1.01808 2.66567
0.78161 -1.28986 3.48466
1.45899 -0.725595 2.95465
1.53253 -0.360087 2.85593
0.498668 -0.920565 3.3034
0.605917 0.301609 2.91651
-0.861278 -1.42278 3.51332
0.230408 -0.0908445 3.01127
1.35333 0.967453 2.70987
-0.234897 -0.50232 3.14327
-0.56733 -0.930233 3.49622
-0.971461 0.616071 2.90905
0.404608 -1.39607 3.54633
0.874015 0.272596 2.91024
0.0677459 -0.0530868 2.99672
-0.0393634 0.734361 3.23909
-1.3061 -0.455208 3.15668
1.46499 0.893236 2.59569
-0.517272 -1.61351 3.43218
0.24563 -0.413202 3.1022
-0.664661 0.740365 2.92181
0.346635 -0.0209075 2.97166
-0.168847 0.793057 2.06735
0.905136 -1.33095 3.49978
0.610019 0.0192227 2.93841
-0.588508 -0.816363 3.2262
1.65765 0.338343 2.67528
0.238604 0.728786 3.02979
1.1199 1.02748 2.77555
1.59257 -0.357634 2.85063
1.25675 -1.25016 3.37349
1.48275 -0.712211 2.90672
-1.08376 0.353239 3.01383
0.031663 -0.341982 3.07542
0.120195 -0.751615 3.24178
0.993075 0.45346 2.93895
0.731392 -1.17271 3.28224
-0.0157508 0.0906158 2.96626
-0.999988 -0.297134 3.11172
0.911289 0.770518 2.89466
0.190542 -0.701236 3.20489
-0.526268 0.423327 2.97085
0.384093 -1.21204 3.53472
-0.499534 0.0559644 2.98191
1.02 1.10205 2.79478
0.582155 0.122131 2.91505
-0.849921 0.500654 3.00284
1.16954 0.825256 2.84303
0.217918 1.21602 2.88692
0.305373 -1.66242 3.62192
-0.961913 -1.02801 3.15631
0.406173 -0.649837 3.1385
0.21217 0.852181 3.04841
-1.31715 -0.261544 3.13339
0.993415 0.773525 2.90539
1.67635 -0.703798 2.87899
1.22329 1.08284 2.74595
1.54193 -1.2099 3.26644
-1.07237 -0.387591 3.19534
-0.0211594 0.0538609 2.95498
0.460379 0.413248 2.90713
1.54783 1.03736 2.56855
-0.964545 0.380303 2.93004
1.00381 -1.21871 3.4177
0.13227 -0.341545 3.07022
0.6907 0.0181483 2.9348
0.202298 1.12568 2.93156
0.987481 -0.738703 3.16836
0.0236884 0.76497 3.01348
0.875904 -0.691689 3.15172
0.592619 1.22146 2.90582
-0.723908 -0.294334 3.07745
-0.305868 0.879946 3.01796
-0.704818 0.509581 3.05759
0.767349 0.121955 2.89551
0.780947 -1.14262 3.33201
0.662019 -0.254096 2.99515
0.762034 0.81539 2.91335
1.06059 -0.643512 3.09242
-0.532344 0.763131 1.88562
0.377684 -1.14011 3.4714
0.288782 0.0914871 2.96686
0.631224 -1.79709 3.90535
-0.409252 0.465028 2.98404
1.09665 -0.206415 2.86842
-1.34852 -0.650961 3.35451
0.116558 -1.06412 3.38283
-0.960981 -1.49871 3.39532
-0.0415884 1.19342 2.60024
0.721605 1.26225 2.85626
-0.406305 0.913566 2.99938
-0.478522 -1.60469 3.41447
0.755737 0.521565 2.95222
0.407313 0.163401 2.9247
0.812928 -1.5406 3.5778
-0.834688 0.245004 2.96594
-1.05385 -0.999696 3.3361
-0.970658 0.591426 2.93222
-1.44955 -0.579636 3.18469
-0.852529 0.668017 2.01882
0.0478378 -0.169937 3.0048
0.824127 -1.58679 3.79166
1.2432 0.194687 2.8241
-0.334388 -0.964584 3.34988
-1.00356 -0.546617 3.20851
-0.908235 0.554661 2.93828
-0.921599 -0.133778 3.08842
1.66678 0.816212 2.57228
-0.0394694 1.08402 2.68034
-1.23576 -1.06999 3.29005
0.423096 0.902837 2.96755
-0.308084 -1.6291 3.56171
-0.225616 0.881141 1.96283
1.24797 -0.240751 2.80989
-0.805928 0.173475 3.00685
1.62985 -0.603561 2.89316
-0.842946 -0.623824 3.24859
-0.466002 0.497542 2.98573
1.55822 -0.211212 2.89977
1.6537 0.127264 3.09164
0.239167 -1.63495 3.69072
1.32492 0.5094 2.88296
-1.282 -1.0284 3.28797
1.48725 0.768947 2.64671
0.847294 1.18108 2.8172
-0.848514 -0.597906 3.29223
0.0714369 -0.170936 3.03258
-0.284369 0.941586 2.82281
-0.365383 0.782515 2.02779
-1.25115 -1.37967 3.227
-0.906534 0.600852 2.98508
-0.689267 -1.01173 3.38549
-0.684221 0.242607 2.91966
0.520591 -0.132608 2.97066
-0.561802 0.668993 2.08825
0.696327 -0.534578 3.12298
-0.290374 -0.956604 3.32236
-1.33659 0.222342 3.02502
-1.06086 -1.34337 3.24198
0.282517 0.553504 2.93473
1.55811 -0.0890491 2.87086
-0.571641 0.887022 1.86941
0.796168 -0.494754 3.07898
0.773555 -0.902529 3.23376
-0.157221 -1.42117 3.50755
-0.417454 0.703178 2.03395
0.0886844 0.659523 3.11344
-0.796356 0.288032 3.00005
-1.42313 -1.21517 3.11821
-0.482303 -0.881903 3.32526
1.29023 0.327499 2.83289
0.280195 -0.450312 3.08484
0.370311 0.729433 3.02811
1.26673 -0.0541957 2.81799
1.06112 -1.3168 3.44992
0.881644 0.303721 2.9359
0.234618 -0.83831 3.30973
-0.771115 0.69349 1.8637
0.481171 -0.408466 3.04644
-1.2318 0.657128 2.88305
0.78945 -0.0211086 2.94111
-0.751083 0.694396 1.93362
0.635529 -0.95877 3.31124
-0.435148 -1.45425 3.50236
0.958165 -0.132398 2.95143
-0.275182 -1.70073 3.61133
1.46798 -0.487239 2.83042
-0.581537 0.28238 2.95669
-0.598134 0.600676 2.97964
1.26815 -0.478765 2.96683
-0.307377 0.245909 2.97648
-0.644187 -0.0854627 3.04061
0.643528 0.633816 2.99475
0.976427 -1.54305 3.78048
1.36449 0.90085 2.71631
1.12812 -0.920951 3.29525
0.406234 -0.451747 3.09357
1.08373 0.965932 2.79371
1.46923 -0.0565183 2.89155
0.782476 0.711621 2.95104
-1.41358 -1.23391 3.16335
-1.10554 0.347992 2.93872
-0.131904 -0.885433 3.33846
-0.695664 0.720306 1.93799
1.09984 -0.0218817 2.86652
0.17312 1.04541 2.91251
1.06952 -0.395966 2.94966
-0.658917 0.68907 3.0243
0.893722 1.2521 2.7948
0.78826 -0.814329 3.20294
-0.172666 -1.34598 3.56103
0.80622 0.0180333 2.90717
1.00559 0.304224 2.95339
-0.647227 0.384866 2.97989
1.19906 0.71384 2.82775
0.907916 1.07484 2.80011
-1.15907 -1.22083 3.33699
-0.678288 -0.791017 3.28597
-1.01586 -0.377947 3.11917
1.12634 -1.22347 3.4296
0.60549 0.457134 2.9328
-0.560344 0.0962977 2.97296
1.27179 -0.706504 3.02489
0.914649 0.808121 2.89088
1.60942 -0.323773 2.87018
1.01249 -1.2086 3.51767
0.67583 0.0521745 2.95083
-0.469168 0.758172 1.87599
0.80808 0.417958 2.94715
-0.509583 -0.293225 3.06307
1.18836 0.741299 2.78926
0.946724 -0.676078 3.07847
-0.76635 0.7273 1.85147
0.834898 -0.301356 3.01917
0.623118 1.20902 2.89215
0.914662 -0.690381 3.11444
1.54747 0.757298 2.64361
-1.43029 -1.09588 3.19998
0.0505877 0.493964 2.99868
-0.823793 0.124298 2.99749
-0.329989 -0.265184 3.07483
0.644938 0.830913 2.99726
0.805935 -0.661281 3.15186
1.41387 0.426749 2.80744
-0.385822 -1.2069 3.65411
0.619893 0.0822556 2.93374
-0.905004 -1.54896 3.37182
1.42587 1.07015 2.6596
0.535548 0.149647 2.90738
0.107473 0.515279 2.95922
-0.139881 0.917026 3.04506
-0.355548 0.851959 2.41149
-1.14263 -1.41357 3.18752
0.693389 -1.09551 3.42628
-0.0710576 -0.626434 3.18942
1.30001 -0.211846 2.83166
-0.920158 -1.47997 3.42481
1.13181 0.565215 2.87402
-0.950245 -1.00351 3.33781
0.498976 0.22658 2.92509
-0.348733 -0.60228 3.26275
1.27025 -0.172503 2.80857
0.813227 0.952365 2.89937
-0.783594 -0.962368 3.31861
1.74926 0.177159 2.74889
1.41571 -1.56143 3.69959
-0.562028 0.56245 3.00457
-0.922169 0.659169 2.08947
-0.812307 -0.138372 3.04662
-0.67033 0.862677 1.85957
-0.199724 -0.542315 3.14742
-0.899185 -0.907209 3.25868
-0.117654 0.694847 3.12136
0.315825 1.33365 2.90441
-0.75158 -1.41349 3.47301
-0.572843 -0.0983047 3.06455
-0.689459 0.310985 3.01769
-0.317149 -0.51471 3.17906
1.58679 0.903866 2.55651
1.38892 0.578471 2.79574
-1.06855 -1.65082 3.48329
-1.38972 -0.465914 3.17996
-0.317019 -0.0598492 3.03206
-0.832564 0.278757 2.95834
0.0984076 -1.37442 3.47204
0.474167 1.00562 2.92949
-0.183361 -0.906772 3.40937
-0.801112 -0.177554 3.03371
1.1031 -0.548702 2.94405
-0.785225 -0.993531 3.28852
-0.730431 -1.49753 3.46913
-0.329873 0.855972 1.92666
1.64163 -0.498066 2.85073
-0.63741 0.654114 2.07461
-0.86111 -0.98059 3.38672
1.09098 0.540848 2.90915
-1.36514 -1.29866 3.10457
-0.256027 0.193823 2.94418
0.260358 0.274456 2.94186
-0.474266 0.631531 3.01987
-0.52343 -0.14188 3.08509
-0.589725 -1.41049 3.46151
1.49968 0.210852 2.74121
-0.808932 -0.992079 3.55602
-0.0160424 0.614613 3.05824
-0.0340109 -0.513822 3.17302
0.969789 0.949027 2.88494
0.0711306 -0.0976983 3.00303
0.738477 0.992971 2.89239
0.650799 1.30582 2.86689
0.732242 -0.875442 3.27328
1.65302 0.306654 2.76085
0.199356 -1.43964 3.63596
0.726166 -0.0601939 2.91845
0.82678 1.05238 2.85741
-0.915625 -0.466632 3.17494
0.109748 -0.843466 3.30436
0.537766 0.70162 2.96598
0.678072 -1.38667 3.61979
0.914556 0.29721 2.9015
1.94981 -0.0303218 2.98429
1.13003 1.00185 2.81486
-0.299055 -0.427116 3.14519
-1.30294 0.637163 2.86804
1.23981 -0.372367 2.95454
1.03963 0.753848 2.85195
1.52524 0.996832 2.55324
1.63105 -1.2121 3.24664
0.722231 0.0436275 2.95029
-0.461555 -0.81452 3.33202
1.52674 0.38018 2.7364
0.393426 -0.753377 3.23269
-0.134739 0.737479 2.93973
-0.728177 -0.350787 3.0903
1.67248 -1.10337 3.06596
0.0730022 0.015537 2.96283
0.0109532 0.372768 2.95591
-0.808091 0.706946 1.87053
0.796837 -0.060313 2.93594
-0.410464 -0.468396 3.16325
1.11507 -0.82801 3.09009
-1.41533 -1.27119 3.23469
1.15709 1.00126 2.81395
-0.26581 0.702131 3.14094
0.963466 0.301566 2.94742
1.24691 -1.31143 3.41379
1.26049 0.0102678 2.80645
0.815947 -0.820305 3.20047
-0.904012 -1.61898 3.41758
0.894005 -0.414695 3.02897
0.807238 0.37287 2.97747
-1.4296 -0.0233483 3.08517
0.370002 -1.29926 3.50634
0.113506 0.762037 3.02696
-0.407688 -0.798979 3.28729
-0.0409992 0.335501 2.95224
1.30558 -0.36171 2.86846
0.338643 0.720562 3.03171
-0.478443 0.727034 1.96882
1.63418 0.95486 2.49931
1.52422 0.410761 2.71742
1.69648 -1.09882 3.04733
-0.590651 -0.345701 3.03459
1.07049 0.0797539 2.84473
0.714525 -0.743537 3.17868
1.19779 0.773437 2.79923
1.24106 0.398695 2.85649
0.0511553 -1.16609 3.38904
1.14974 0.0406301 2.88014
-0.229081 0.796596 1.97492
-0.499875 0.74302 1.90259
0.966815 -0.294882 2.95291
1.3944 0.709051 2.69335
1.46816 -0.641212 2.87664
-1.37429 -0.653841 3.15854
-0.118593 0.929167 3.08264
0.0812779 -0.267992 3.07219
-0.17207 0.895106 2.00041
-0.604643 -1.58148 3.44243
-0.677991 0.158378 2.94596
-0.339973 -1.18458 3.59682
0.318723 0.50534 2.88571
0.234696 -0.634634 3.22254
1.64028 0.7525 2.63044
1.5638 -0.224006 2.96248
-0.254656 0.120548 2.97334
-0.675978 -1.55198 3.50365
0.23246 0.480718 2.9073
-0.632005 -1.06355 3.36177
0.936448 1.16413 2.79023
-0.371837 -0.350068 3.09525
1.09974 -0.725356 3.09492
-1.0294 -1.2351 3.47611
-0.388083 0.762761 1.94097
-1.1703 0.792159 2.97979
-1.31516 0.420547 2.95399
1.20316 0.0399324 2.85166
0.362574 0.477686 2.88846
0.335542 0.120412 2.95158
0.304281 -1.22024 3.54204
-1.02568 -0.742631 3.38657
1.17431 1.13726 2.72555
1.64266 -0.269502 2.64617
-0.814444 0.860438 2.95866
-1.30681 0.0965779 3.0419
-0.184474 -1.72405 3.73874
-0.59121 0.455281 2.94826
0.44992 -1.16402 3.52484
-1.16856 0.839998 3.01812
-0.803472 -0.687944 3.32387
1.14598 -0.253848 2.87197
0.0493525 -1.07826 3.40218
1.12496 0.895842 2.84092
-0.293149 -1.67317 3.7532
0.396126 1.15732 2.86241
-0.232497 0.913803 1.95374
0.17607 -0.222526 3.05226
0.274674 -0.646689 3.28541
1.56091 0.183017 2.84718
1.35719 -0.554235 2.9667
0.829393 0.522138 2.99085
-0.625836 0.159956 2.97598
-0.682255 -1.46011 3.38184
1.00291 -0.181092 2.96526
1.29592 0.529327 2.84418
-0.657185 -1.01426 3.36329
1.09707 -1.77855 3.73963
1.69799 -0.484892 2.75224
0.916906 0.874468 2.90539
-0.385597 -0.141434 3.07285
1.16273 0.953436 2.78042
-0.665135 0.809066 1.85685
-0.67046 -1.42454 3.41439
1.05189 0.608408 2.91773
-0.554243 -0.960889 3.31776
0.807114 0.273781 2.93521
0.426339 -0.0986686 2.98582
1.63096 0.850203 2.59129
0.83147 -0.499362 3.06593
-1.19945 0.251898 3.10863
1.22218 -0.896005 3.17831
0.221908 -1.45909 3.57161
0.436573 0.576865 2.91158
0.681381 1.2691 2.8621
-0.412973 0.157874 2.97668
1.10725 0.506794 2.9062
1.23083 0.841502 2.79855
-0.220009 0.92416 1.96079
0.113263 -1.6403 3.68618
-1.31139 -1.01375 3.22405
-0.761777 -0.631589 3.24648
0.729714 -0.222398 3.02189
-0.17232 -1.55354 3.58802
1.53371 0.536057 2.72011
0.397293 -1.0429 3.43842
-0.340593 0.238585 3.03107
1.47537 -0.56873 3.03369
-0.606109 -0.179805 3.09849
-0.709643 0.662478 2.00633
-0.413604 -0.994532 3.4318
-0.89788 0.197932 2.95306
0.222551 -1.47902 3.5306
-0.727584 0.592345 3.15023
1.35841 0.858734 2.73067
0.122812 -0.137325 2.9897
0.118667 0.169564 2.95772
-0.428577 -0.549665 3.19982
1.24397 -0.85508 3.03846
0.191308 0.682326 3.07174
-0.69272 0.706165 1.97822
1.07212 -1.36802 3.34018
-0.313037 -0.093474 3.02107
1.08721 0.300272 2.93548
1.00655 -0.482296 2.96363
0.674477 1.30218 2.86204
0.879894 0.614619 2.93339
0.0861641 -0.458906 3.11332
1.23779 0.263555 2.85244
1.31077 -0.0579125 2.7068
-1.09801 -1.30199 3.30853
1.50826 0.898543 2.6264
1.23847 -0.813781 3.02709
-1.33091 -0.43789 3.23349
-0.231642 0.776785 2.03586
-0.836937 -0.0204891 3.0491
1.3109 0.694906 2.77761
-1.48709 -1.24619 3.28434
1.09035 0.36496 2.91524
1.56988 -0.723493 2.82163
1.33117 0.00846913 2.75582
0.202384 0.738424 3.11064
1.48638 -0.362637 2.85055
-0.42152 0.736629 1.99578
0.748412 -0.77957 3.19108
-0.933615 -1.25023 3.40044
-1.36019 0.343717 2.99125
1.39841 0.261154 2.85486
1.28172 0.585418 2.80233
0.980744 0.983651 2.85746
-1.06662 -1.37157 3.37801
0.0245066 -1.73302 3.67032
-0.996252 -0.917798 3.30939
-0.634406 -0.531452 3.31844
-0.361558 -0.0921424 3.04492
-0.0653707 -1.40886 3.56862
-0.87274 0.341556 2.96414
1.4773 -0.800278 2.97995
0.571387 -0.458651 3.0986
0.212426 1.09484 2.96226
-0.656321 -0.0573806 3.04471
1.76348 0.67133 2.82333
1.27959 0.291244 2.8522
-1.20121 -0.802946 3.18154
-1.37589 -1.26392 3.32637
-0.689306 -0.0208062 3.02974
-1.06516 0.665538 2.96734
-0.366387 -0.42707 3.15913
-1.10966 -0.806427 3.34464
-0.630634 0.779094 2.92652
-0.901319 -1.24654 3.39066
-0.56197 0.689395 1.93681
0.504002 0.0476001 2.94273
0.233158 1.14991 2.92934
-0.965598 -0.388576 3.17432
-0.164633 0.414734 2.92921
1.39055 -0.710383 3.01698
-1.14997 0.380642 2.97637
-0.0386469 -0.348895 3.06544
-1.41462 0.0209041 3.16808
0.390839 1.10715 2.89617
-1.31091 -1.11472 3.15035
-1.08694 0.749952 2.96749
-1.36744 -0.297174 3.08411
-0.872505 -0.706319 3.21778
0.57075 0.84816 2.93866
1.0522 1.15344 2.75903
0.435467 0.484654 2.9283
1.40974 -1.27254 3.68711
0.400022 0.117766 2.93547
-1.33961 -0.264809 3.13022
-1.06977 0.789145 2.83788
0.18692 -0.66843 3.21021
0.388676 0.449777 2.9242
0.883042 -1.16145 3.51418
0.140388 -1.59255 3.4563
-0.829999 0.0921841 3.00646
0.898713 1.12739 2.79082
-1.12628 0.0256139 3.05701
-1.1154 0.380934 2.97926
-0.739428 0.751789 2.97486
0.883103 1.08557 2.84203
0.0636673 -1.33504 3.61075
0.981487 0.336601 2.9579
-0.587832 -0.786641 3.25382
-1.12681 0.730375 3.03071
1.17863 1.01105 2.74111
-0.491067 -0.38073 3.06248
0.758447 0.453973 2.95517
-1.26473 -1.17394 3.31947
-1.13996 -0.36443 3.24879
1.13618 0.0826269 2.85782
1.59281 -0.692789 2.95623
-1.04018 0.78379 2.81556
1.32418 0.398734 2.83275
-0.612323 -1.19188 3.47584
1.34952 0.0409328 2.77342
1.54217 1.01577 2.52079
0.259007 1.15437 2.93432
0.456496 -0.294295 3.00466
-0.227263 0.806243 3.03892
0.317073 -0.709826 3.22554
0.775265 -0.6585 3.15185
1.34658 0.817358 2.72322
-0.0580299 -0.264059 3.06526
-0.291782 0.870191 1.93669
0.395794 -1.6576 3.50534
-1.42506 -1.50169 3.26297
1.12299 -1.11709 3.37517
1.08557 0.147494 2.83813
-0.517394 0.523992 2.96859
-0.565425 -0.632277 3.24842
-0.843541 0.669601 2.3312
-1.14397 -0.222752 3.14028
-0.96226 0.128399 3.06009
0.378258 -1.59285 3.58216
1.19808 0.47162 2.8651
-0.751807 -1.07929 3.41804
1.54657 1.04203 2.49734
-0.234422 -0.178177 3.05862
-0.921545 -0.583192 3.18978
1.55415 0.862453 2.62259
-1.51935 -0.956563 3.17289
1.66008 0.551996 2.79124
1.15631 -1.63259 3.75324
-0.183771 0.23817 2.96413
0.322883 -0.138896 2.98612
-0.482856 0.866822 1.87698
-0.274346 -0.540809 3.15201
1.544 0.82295 2.61502
1.2584 1.18094 2.71335
-1.13494 -0.921141 3.20142
-0.0142153 0.567561 3.0121
1.26174 -1.54192 3.66712
0.439816 0.193798 2.92755
-0.111523 0.124537 2.98812
0.940337 -1.1898 3.45774
1.65437 0.467741 2.84731
-1.46123 -0.69239 3.19233
-0.65451 0.866384 2.96469
1.66776 -0.294481 2.94716
-0.514512 0.774606 1.85322
-0.99406 0.103342 3.21028
0.0796665 -1.59524 3.46807
1.61223 0.407635 2.66587
-0.819733 -1.08288 3.30842
0.0570654 0.840326 3.01649
-0.71718 -0.692788 3.35882
0.453212 -0.25916 3.00071
-0.121754 -1.08614 3.43648
0.355499 0.54532 2.90668
0.643155 -1.66025 3.72503
1.52737 0.185067 2.83155
1.18147 -0.205921 2.82434
1.65209 1.03243 2.56379
0.749194 -0.614959 3.13065
0.185175 0.956978 3.00919
-0.534607 0.844367 1.87515
-0.189553 -1.00834 3.33823
0.446697 0.510541 2.90163
-1.35154 -1.4207 3.3064
0.24707 -0.176673 3.02566
-1.04501 0.167684 2.99476
0.0751563 1.28343 2.88089
-0.732958 -0.578511 3.16724
1.59194 0.779397 2.60211
1.31608 -0.509328 2.93294
1.53247 -0.133521 2.81711
-1.21485 -1.34153 3.22566
1.52987 0.23916 2.59155
0.362219 -0.981007 3.38021
-1.1898 0.61498 2.91408
1.00275 -0.491376 3.03469
-0.46678 0.687049 2.08122
0.193017 -0.0921463 3.01776
1.31795 0.95072 2.76426
-0.673488 -1.41341 3.48192
-0.62547 0.235893 2.89967
-0.373033 -0.942465 3.38571
-0.744962 0.614268 3.07068
0.147949 -0.0570591 2.98516
0.703537 -0.459859 3.10168
1.33559 1.20575 2.65137
1.64703 -0.77323 2.8728
0.728959 -1.41085 3.56761
0.272326 -0.0240408 2.98879
-0.519966 0.711149 1.99372
-0.183693 -0.420931 3.12106
1.30232 0.621314 2.79314
0.196316 -0.842439 3.31488
-0.034028 -1.3568 3.55859
0.766426 -1.81142 3.81853
1.49712 0.283382 2.78989
-0.00228381 -0.251911 3.06103
1.43974 -0.593357 2.86456
1.01529 -1.10647 3.38539
-0.280468 -1.64913 3.61898
-0.469886 0.781924 1.86284
-0.380309 0.898371 3.03557
0.330288 0.480845 2.87067
0.957323 0.12888 2.923
0.0421891 -1.54841 3.52087
1.6303 0.192998 2.72429
0.153274 -1.05386 3.36879
1.19026 0.536948 2.84562
0.633902 -0.609388 3.15771
0.978851 0.921542 2.87127
1.52733 -0.198374 2.78224
-0.380329 0.858638 1.90478
-0.283393 -1.50345 3.52601
-0.301997 0.173669 2.95402
-0.47239 -1.0089 3.38213
-0.732428 0.536635 2.99734
-0.966134 -0.566579 3.14643
-1.26112 -0.167117 3.14164
-0.792239 0.64052 2.09814
-0.0330442 1.16628 2.68483
0.61185 -0.95756 3.31983
-0.182249 -1.4731 3.55427
0.885829 0.99128 2.86037
1.23884 -0.122012 2.83478
0.177116 0.281613 2.92615
0.294144 -0.530055 3.13292
-1.32437 -0.88234 3.22042
0.602031 0.605141 2.99482
0.0939373 -1.40473 3.47451
-1.38794 0.255317 3.01369
1.07737 -0.0796259 2.8589
-0.855065 0.661018 3.07423
-1.34739 -0.501815 3.22124
-0.202806 0.991023 2.95245
-1.43299 -0.458204 3.19718
-0.342576 0.746526 2.00972
-1.38879 -0.0461606 3.10924
-0.203104 0.718632 2.96774
-0.527742 0.356922 2.98137
-0.335489 -1.3719 3.51365
-0.0695034 -0.0127616 2.96569
1.71875 -0.764749 2.88082
1.38941 1.18218 2.60851
0.333046 0.691217 3.02171
-0.516784 -0.426619 3.2326
0.345437 0.312026 2.93282
1.18031 -0.75575 2.99876
1.30809 0.992608 2.756
-0.468508 -1.32833 3.51894
-0.546798 -1.61757 3.44876
-1.26932 0.260538 3.02758
0.999838 0.592981 2.94266
1.29056 -0.888615 3.07315
0.0488416 0.985436 2.94203
-0.0466899 -1.44956 3.49248
0.528798 -0.52737 3.13373
1.42878 -0.121618 2.77157
0.71509 -1.58602 3.91221
0.983155 -0.925223 3.33333
0.472961 0.310408 2.9186
-0.847739 -0.497153 3.21705
1.36888 0.965727 2.68349
1.19257 -0.0771456 2.79231
0.85474 0.668837 2.9241
0.557355 0.274067 2.86793
1.74223 -0.735056 2.76298
-0.686475 0.638143 2.96166
0.319083 -1.39786 3.57221
0.441884 1.31406 2.88038
-0.027343 -0.0490056 3.00855
0.91457 -0.441343 3.04649
1.25897 -0.765077 3.0322
-0.241046 0.776193 3.03403
0.285561 -1.34265 3.54951
1.36368 0.947416 2.73621
1.19913 0.0184553 2.80956
-0.298418 0.769289 1.99384
0.319257 -0.407721 3.07958
1.33803 0.360999 2.79123
0.143495 0.347507 2.91292
0.8235 -0.37139 3.02722
0.169977 -0.0141609 2.96622
1.59859 -1.219 3.30945
-0.195784 0.779159 2.08982
-1.20219 -0.780533 3.26119
-0.0239685 0.736065 3.02546
-0.471043 -0.744722 3.25651
0.968945 1.14025 2.80287
0.344422 -0.344646 3.14773
-1.2638 -1.13831 3.23881
0.831957 0.459345 2.93736
-0.767468 0.103756 3.00985
-0.730917 0.828332 2.94895
0.338677 -0.297495 3.1249
0.402136 0.806762 2.99564
0.500703 -0.69768 3.21525
0.15254 1.15558 2.91614
1.66465 -1.09173 3.19541
-1.19292 0.065222 2.96822
1.04898 0.41838 2.91052
0.436771 -0.0151938 2.97654
1.06668 0.346829 2.92134
1.20563 0.689378 2.84781
0.952245 1.04576 2.81024
0.621982 -1.31302 3.47877
-1.16896 -0.833275 3.35279
-1.07106 -0.410426 3.14545
-1.38018 -1.1762 3.24012
1.78246 0.40613 2.81378
-1.19042 -0.801681 3.35126
-1.06093 0.0650508 3.0392
0.312256 1.18522 2.97554
1.3207 0.744565 2.77476
-1.36199 -0.38322 3.17203
1.713 0.0168646 2.73718
0.41187 -1.24902 3.52573
0.862248 -1.73477 3.66971
0.512285 -0.332899 3.04035
0.165706 -0.739651 3.22855
1.49461 0.355451 2.76878
-0.0767166 0.759403 2.9641
-1.12106 -1.11631 3.30441
-0.218552 0.891389 3.01043
-0.267649 0.775308 2.01052
1.2231 0.119016 2.78164
1.27172 -0.277479 2.88252
-0.156334 0.839289 1.99258
1.12143 -0.659606 3.02667
-0.41604 -0.66653 3.27573
-1.11411 0.462424 2.91445
1.56568 -0.243373 2.87001
-0.0440153 0.0998912 2.97334
0.494853 -1.67481 3.6651
0.396748 0.490676 2.9344
-1.32002 -1.0485 3.24442
-0.444563 0.855168 3.0354
0.756919 1.14769 2.8168
0.659998 -0.596948 3.08902
-1.48489 1.0495 3.25054
-1.35381 -0.207174 3.08635
-0.966532 0.562079 2.94021
0.451083 -1.61332 3.6633
-0.936761 0.219276 2.97209
0.80329 -1.07837 3.42864
-0.591885 0.84873 1.86539
-0.891246 -0.165567 3.07442
1.37609 -0.528414 2.89327
0.500771 0.90623 2.96086
1.17857 -0.96992 3.2352
0.329214 0.172617 2.94573
-0.0384823 -1.50029 3.5186
1.37866 0.506485 2.83511
0.0567113 0.0998311 2.99508
0.132179 1.33031 2.88447
-0.759687 0.472783 2.98931
1.64127 0.752373 2.69103
1.32791 1.055 2.5957
1.36172 -1.17986 3.47169
-1.4031 -0.674426 3.15296
1.66752 -0.274159 2.85634
1.62777 0.472356 2.63461
-1.04722 -1.56127 3.43905
0.645284 0.169847 2.91528
-1.24083 -1.04328 3.22973
-0.575993 0.855943 1.86488
0.139533 -0.655784 3.2133
0.580302 0.904527 2.95228
-0.990758 -0.25073 3.10829
1.31649 -0.97605 3.09628
0.821647 0.498197 2.98478
0.493044 -1.6565 3.75378
-0.745016 0.136725 2.97259
0.809443 -0.202632 2.9684
-0.0724087 0.858153 2.04013
0.994368 -0.593966 3.06341
1.50513 -0.504053 2.74846
0.737895 0.853821 2.90158
-0.669736 0.679616 2.02856
0.341762 -0.164704 2.99605
-0.00177978 -1.54693 3.6249
-0.790731 0.257052 3.00927
-1.28545 -1.00005 3.3634
-1.47276 0.634702 3.11604
0.767382 -0.519894 3.08353
-0.763139 0.648844 2.02512
-1.33405 -0.123039 3.0735
-0.0271402 1.13414 2.68797
0.808816 -1.71972 4.1336
-0.461071 -1.01204 3.53867
-0.759395 0.216798 2.93216
-0.136142 0.579473 3.01205
1.63606 -0.083252 2.84627
-0.0022134 1.06139 2.93249
0.923913 -0.476568 3.03855
0.996342 0.669555 2.93007
1.32421 -0.837026 3.01026
-0.32858 0.318796 2.95145
1.40923 -1.67936 3.55657
1.41341 -1.5261 3.74837
-1.21073 -0.0463694 3.05555
-1.03838 -0.446735 3.15098
1.66124 0.889941 2.58118
-0.696046 -0.890704 3.39352
-0.654219 0.641165 2.97767
0.446615 -1.41915 3.62034
0.843698 0.280205 2.92287
1.02703 -1.64348 3.71965
-0.10992 0.218953 2.96766
-1.82991 -1.1823 3.78325
0.200943 0.552317 2.90636
1.02324 -0.588793 3.03188
0.542924 0.954469 2.95933
-0.596691 -0.206081 3.08306
-0.6348 0.800659 1.85598
1.18687 1.21531 2.7274
0.549789 -1.55057 3.62992
1.21403 0.163276 2.84255
-0.994595 -0.986666 3.3329
0.886436 0.241923 1.36439
-0.566889 -0.582782 3.25525
1.53544 -0.159679 2.83014
1.47278 0.813368 2.6678
-0.587221 0.648804 3.01508
0.283363 -0.972652 3.39049
-1.1384 -1.36222 3.30235
1.03101 0.276214 2.89324
-0.586078 0.829737 1.87218
-0.409796 -0.117429 2.99963
-0.561265 0.692781 1.99639
-1.40598 -0.53671 3.24686
1.38898 -0.802855 2.89214
-1.21517 0.590349 2.90006
0.479695 -1.46322 3.61855
-1.14217 0.261903 3.04712
-2.66445 -0.26506 5.76574
0.912151 1.21808 2.78738
1.09048 -0.463518 2.94299
1.49011 0.88476 2.63732
-0.53425 -0.448445 3.1571
-0.75762 0.729519 2.98698
-1.05125 -0.0446253 3.09406
-0.72703 0.714499 1.92129
1.00574 -1.34847 3.43905
0.467123 -0.0153851 2.98595
-0.380407 -0.875842 3.33953
0.100727 -0.408105 3.1075
1.26557 0.340346 2.8719
1.09459 0.664843 2.90804
0.865707 1.0264 2.84098
1.26316 -1.26158 3.33571
-0.249786 0.318662 2.95404
-0.145113 -0.821832 3.30236
0.263798 -0.375169 3.10494
0.694363 1.12704 2.84371
-0.784939 0.809748 2.99405
-1.14549 -0.796792 3.32646
-0.877702 0.426425 2.92779
-0.537751 -1.27784 3.50447
-0.775273 0.0672283 3.03624
-1.32878 -0.337384 3.14794
0.950826 0.740576 2.88757
1.12072 -0.696407 3.03254
-0.811164 0.39248 2.9955
-0.253652 0.780546 2.02224
1.14338 -1.20726 3.40129
-0.334273 0.0273164 2.96157
-0.134778 0.320053 2.96355
-0.543831 -1.38112 3.43814
-1.26239 -0.886969 3.24356
-1.00974 -0.472816 3.06944
1.32705 0.636502 2.79333
-1.11225 -0.079467 3.06422
1.12685 -1.33909 3.40663
-0.901822 0.291738 2.98189
0.924665 -0.838545 3.18441
-0.421609 0.64854 3.01932
-0.455373 -0.461116 3.22546
0.995113 1.00958 2.79261
0.530175 -0.0469156 2.98374
0.838234 0.988705 2.84143
1.11668 0.730678 2.84887
1.03251 -0.771022 3.08244
1.45239 -1.69364 3.58677
-1.15883 -1.245 3.32586
1.08756 0.0217813 2.87739
0.478751 0.378854 2.89706
0.681271 1.1143 2.89385
0.37477 -0.411593 3.12478
0.863246 -0.781147 3.22896
1.54687 0.315766 2.70268
0.126542 -1.29716 3.54889
1.1263 -1.76651 3.61019
-1.31666 -0.0107134 3.04072
0.383113 -0.379732 3.13561
0.735765 0.720282 2.96147
-0.650034 0.719997 1.92824
-1.16091 -0.760155 3.36707
-0.648704 0.750081 1.84036
-0.847494 -0.340059 3.1607
-0.992406 0.808705 2.85991
0.145819 0.459169 2.92007
1.48333 -1.15965 3.25783
-0.411959 0.104272 2.95243
-1.07884 -0.290181 3.13041
0.053953 0.814702 3.00697
-1.32943 -0.712405 3.32411
0.820277 1.12395 2.83706
-0.562689 0.0654326 2.98661
1.39907 -1.15881 3.39894
-0.0861725 0.431077 2.96061
1.40318 -0.227684 2.76699
0.949235 -0.647863 3.15336
-0.560962 -1.15498 3.56537
-1.46883 -1.44599 3.19557
0.356004 1.22493 2.90252
1.49015 0.767526 2.60693
1.69178 0.475229 2.86104
0.1725 0.135992 2.98195
0.263354 -1.35162 3.69617
0.0315926 0.424739 2.93146
1.40974 -0.729046 3.00064
0.809263 0.0599285 2.90804
0.866467 1.10168 2.77999
1.23406 0.751957 2.78901
0.510727 -0.367727 3.02903
-0.835395 0.0319086 3.04486
0.10745 -1.25267 3.55573
-0.47913 -0.330992 3.04875
0.870804 0.382389 2.93435
-0.735323 -0.743391 3.27597
1.15622 0.73072 2.85079
0.954873 1.08021 2.80189
-1.1817 -1.08024 3.21873
-1.2191 0.831896 2.82223
0.696146 1.20178 2.85038
1.73799 0.119815 2.7643
1.27656 -0.267438 2.81433
-1.23115 -0.723818 3.36959
1.00316 -0.624456 3.04258
0.553162 0.461589 2.93215
-0.921265 -0.241599 3.06761
-0.300488 0.102924 2.94423
-1.18534 -1.561 3.4518
-1.00291 0.501607 2.96744
-1.37875 -1.00878 3.1413
-0.276371 0.847691 3.00535
0.0937673 1.18666 2.90453
-1.39471 -0.633125 3.33205
1.01321 1.259 2.76159
-0.367278 -0.205282 3.06944
0.617273 0.949751 2.94706
1.04641 -1.58086 3.5811
-0.460354 0.571222 2.98149
-1.38873 -1.00127 3.22272
0.270478 0.215057 2.96175
-0.707384 -0.161063 3.03146
-0.137262 -0.563023 3.12847
-0.463261 0.895535 2.87606
-0.407299 -1.59896 3.41218
0.618041 -0.991764 3.31941
-1.21486 -1.42464 3.35112
1.41717 0.163642 2.85797
-0.305404 -0.115275 2.99918
0.0248695 0.535361 2.98463
-0.91918 -0.515605 3.12361
-0.50866 0.901849 1.87605
0.94255 -0.957392 3.32396
0.896759 -1.78335 3.64982
1.4998 1.16179 2.57473
-1.09777 -1.3517 3.27743
-0.309023 0.744246 2.19631
-0.926483 0.585943 2.87837
0.00207188 0.252437 2.94375
-0.814931 -1.54589 3.41341
0.699442 0.532356 2.96145
-1.34982 -1.01558 3.16507
1.58008 0.161346 2.81903
1.24427 -0.587962 2.85816
-0.0155579 1.22639 2.64658
-0.378965 -0.240959 3.04618
-1.2872 -1.05673 3.39846
-0.00120194 0.136839 2.94861
-1.39287 -1.43155 3.27441
0.157263 0.491628 2.91045
0.0194928 -0.20472 3.04498
-0.704897 0.865866 2.88789
-0.993406 -0.612314 3.21863
0.0577162 0.922051 3.00481
0.985867 1.17206 2.78351
0.973715 -0.981097 3.27553
0.328256 1.03221 3.0487
-0.801734 -1.45239 3.42143
1.1267 -0.155482 2.85178
0.214971 0.2551 2.94195
-0.388647 -0.582273 3.253
-0.5959 0.6303 3.09402
0.0307755 0.584091 3.033
-0.768193 -0.51667 3.12087
0.719782 0.21381 2.9386
0.916872 -0.119301 2.95856
-1.00588 -1.35968 3.29779
0.319635 1.28082 2.90435
0.756752 0.950844 2.94928
-0.143662 -0.963771 3.38195
-2.46735 -0.866256 5.30022
1.42545 0.973725 2.69615
-0.0153369 -0.0767509 2.99897
-0.503602 0.704328 3.05741
1.37291 -1.3912 3.4359
1.03446 1.23678 2.76101
-0.5421 -0.962679 3.50641
0.55306 0.309419 2.88549
1.0869 -0.0476143 2.90087
1.64939 -0.406327 2.81514
-0.367863 0.288293 2.9514
1.20052 -0.830101 3.13659
-0.326505 0.658248 3.06371
-0.682122 -1.30944 3.36993
-1.05413 -0.00793001 3.04576
1.30728 0.977 2.81211
-0.0906856 -0.407654 3.12102
1.68525 0.320959 2.71436
-1.60794 -0.83297 3.34436
1.29885 0.676463 2.79353
-1.05625 -1.24974 3.34236
-0.526288 0.727349 1.94803
1.25875 -0.385609 2.85668
1.26398 0.706418 2.7997
1.49028 -0.0225725 2.81848
1.54335 1.01658 2.65241
0.127893 -1.32478 3.49696
0.917327 0.018108 2.92736
1.09079 -0.791197 3.12226
-0.125047 0.379929 2.94181
1.14621 0.689236 2.86077
-0.295929 0.754494 2.0271
0.135743 -0.37785 3.08271
-0.552109 -1.24842 3.40536
-0.601962 -0.766566 3.18307
-0.45847 0.352738 2.99005
-0.300535 -0.342602 3.11333
-0.131225 0.816146 2.01591
0.798195 -0.737279 3.18064
1.12129 0.788757 2.82586
1.1083 0.452032 2.91655
1.28793 -1.19325 3.34358
0.0272265 0.0942242 2.96761
0.699322 -0.293612 3.04341
0.497462 0.781759 2.9227
1.65239 -0.626195 2.83965
0.832061 0.418313 2.94957
-0.921642 -1.12864 3.32307
0.96457 0.0515511 2.92234
-0.601718 0.747226 1.8947
-0.200631 -1.69322 3.59319
-1.3247 0.139514 3.08831
0.0149644 0.490131 2.95429
-0.759061 0.626732 2.15543
0.878163 1.17438 2.80199
0.214052 -1.69826 3.69588
0.151703 -1.15224 3.52841
1.64053 -0.599912 2.8663
1.28885 -0.241919 2.83116
1.14514 -1.49561 3.36696
1.1634 0.539753 2.87626
-0.698295 -1.06308 3.39174
-1.06322 0.216624 3.02527
-0.216976 -0.61825 3.18878
-0.306357 0.86523 1.93715
1.58578 -0.20501 2.82397
-0.559355 -0.989099 3.30395
-0.718563 0.169739 2.93681
-1.16768 -1.41503 3.30816
-1.24735 0.520572 2.91571
-1.1393 0.745894 2.45969
1.23685 -0.163466 2.83073
0.938404 -0.560882 3.03511
-0.478482 0.679734 2.12436
-0.231851 -0.701921 3.23083
0.116409 0.870042 2.96785
0.746704 -0.292384 3.04189
1.0114 1.15881 2.76462
-0.646755 0.816785 1.85627
-1.04869 0.138421 3.01147
1.02596 -1.13559 3.31803
0.573168 0.489036 2.9439
1.29211 0.776367 2.77777
0.0282135 -0.666231 3.23747
-0.719669 -0.250769 3.03265
1.18822 0.0861007 2.82204
0.768371 -1.78334 3.87609
1.46724 0.437406 2.82241
-1.15981 -1.05999 3.2697
-0.787923 -0.209978 3.03871
0.725977 1.16549 2.87059
0.0158982 -0.614742 3.17704
-0.591446 -1.1232 3.58382
1.32328 0.527412 2.81333
0.753753 -1.75308 3.95204
-0.476319 0.211665 2.96442
-1.43871 -0.171181 3.088
-0.443713 0.899866 1.87767
1.12432 -0.541955 2.93877
-1.00672 0.716286 2.364
-0.158256 -1.00487 3.34675
-0.770685 0.538986 3.02293
0.228646 -1.50617 3.5088
-0.153267 0.168959 2.96589
0.702381 0.243577 2.95019
-0.377597 0.609071 3.02783
-0.431478 0.689686 2.07282
-0.144808 -1.48816 3.58162
1.36333 -0.90499 3.10868
-1.02187 -0.528552 3.1228
1.59945 0.828185 2.60453
1.35676 -0.123167 2.72847
-0.110784 -1.45041 3.57816
-0.0471997 1.07 2.40805
1.40361 -0.849953 3.0375
-0.747092 0.312692 2.97484
-0.53541 -0.086176 3.05165
-0.340622 0.742231 2.05907
1.41979 -0.469136 2.89111
-0.0827453 -0.881772 3.32113
1.44947 0.570186 2.70895
-1.16196 -1.28681 3.29734
0.498027 -1.68454 3.57061
1.73615 -0.0555398 2.77702
0.283856 0.280594 2.94995
0.627015 -0.451428 3.08293
-0.316448 0.690445 3.04355
-0.640154 0.696767 2.00877
1.51102 -0.536671 2.89425
-1.19537 -0.168158 3.08786
-0.377589 0.708805 2.11913
-1.04386 -1.39114 3.25883
-0.283174 0.615928 3.05688
0.104872 -1.02664 3.42884
1.07795 0.240161 2.91671
-0.582272 0.654556 2.04613
-1.23021 -0.128899 3.09151
-0.449878 0.870923 1.88809
-0.589949 -0.537729 3.1871
0.654139 0.206376 2.91746
-1.45158 -0.868001 3.01947
0.632155 -1.5471 3.71506
1.66743 0.501493 2.67793
1.72892 -0.0844525 2.75809
0.506663 1.27157 2.87792
1.55999 -0.447339 2.77276
-1.35086 -0.866507 3.15286
1.24211 -1.4953 3.67569
-0.250898 0.906655 2.58451
-0.895489 0.653402 3.06531
1.0098 0.277233 2.93254
1.13043 1.25045 2.73101
0.69881 -1.41631 3.60647
-1.4714 -0.829777 3.15577
-1.16013 0.355618 2.97967
0.982972 -0.444284 3.02836
1.3194 0.664766 2.76843
-0.968557 -0.0472838 3.01242
0.516448 -1.37336 3.61878
-0.420677 0.310053 2.93772
1.36552 -0.748208 2.96185
0.168869 1.0936 2.94441
1.49946 -0.379923 2.80242
1.14032 0.657698 2.90081
1.74147 -0.0214702 2.75099
-0.479905 0.715394 1.98404
0.454818 -0.808589 3.3383
-1.2409 0.429793 2.98941
0.0975861 -1.30303 3.54943
0.65057 -0.365898 2.96957
-0.14203 0.0578533 2.97656
-0.341753 0.770095 1.94662
0.565569 0.795012 2.9709
0.194323 0.375445 2.91703
1.35334 -1.19915 3.35139
1.64059 0.0181861 2.84617
1.57473 0.983655 2.55912
-0.257126 -0.340458 3.10007
1.70369 0.656179 2.60952
-0.505695 -0.733678 3.20343
-2.43969 -0.98378 5.54671
0.903193 1.05284 2.83552
-0.0625589 -0.0510248 3.01173
1.34867 0.658398 2.73955
1.09593 -1.34899 3.42618
0.0704561 0.344208 2.90658
0.878817 -0.861504 3.24294
-1.17104 -0.0140275 3.08066
1.46756 0.622007 2.76032
-1.43407 -0.420991 3.22443
0.0622797 0.308573 2.93691
-0.194752 -0.816025 3.27004
-0.164365 0.844396 2.32658
0.758916 -1.3208 3.48309
1.60806 -0.353032 2.83229
1.00689 -0.789396 3.25056
0.74098 -1.88569 3.97005
0.909946 -1.37094 3.72271
0.236178 1.12723 2.92893
0.0469612 0.769331 3.01613
-0.590455 0.384162 2.95447
1.62818 0.0166867 2.78004
0.0504938 -1.20988 3.41196
1.71207 0.0889262 2.76223
1.61613 0.401864 2.5953
1.29344 -0.680502 2.92576
1.39227 0.762259 2.73505
0.544382 -0.336735 3.03701
1.21568 1.11224 2.74006
1.6427 0.0514513 2.83526
0.116133 0.41623 2.91048
1.1956 -1.11692 3.25681
-1.1771 0.737237 2.73776
1.36027 -0.660677 3.00359
-0.120464 0.797058 2.02176
0.772405 -0.291246 3.01513
-0.815091 -1.12791 3.46821
-0.829811 0.632459 2.08632
1.43724 -1.66761 3.62669
-0.168548 0.942032 1.98468
0.142406 -0.252251 3.03644
1.06821 0.160423 2.86679
0.744337 -0.649413 3.13529
-0.45787 0.530774 2.97644
-0.386281 -1.04075 3.31733
-0.590529 0.131269 2.98068
1.22219 -1.7055 3.84423
1.35531 0.469699 2.83952
-0.572096 -0.215227 3.07831
0.681798 0.867312 2.96664
1.35313 -0.570077 2.9134
1.48352 1.02877 2.52998
1.45385 -0.658926 2.83437
1.4344 0.748151 2.68333
0.973647 -0.32547 2.9269
0.7256 -1.23868 3.4831
1.73034 0.422852 2.69781
0.130078 1.21254 2.88282
1.6075 0.0862114 2.75724
1.1351 -0.278765 2.87315
0.10511 1.14715 2.89918
-1.48632 -0.683518 3.15172
-0.75424 0.800142 2.96645
1.35112 -1.15236 3.35367
-1.26505 0.0656574 2.9813
0.493162 0.417092 2.91681
-0.192096 0.130948 2.9885
1.52803 0.449846 2.72285
-1.00942 0.736247 2.51503
-0.659333 -1.55477 3.41279
1.19946 1.13836 2.70938
0.200739 -1.12602 3.45224
0.225581 -0.663843 3.23098
0.9929 -0.2495 2.95252
-0.560638 -1.52457 3.46768
-0.864377 0.598995 3.14296
0.445189 -1.0798 3.42722
-1.39105 0.216417 3.01629
-1.45607 -0.599583 3.12782
-0.256277 0.871965 1.95715
-0.238859 -0.213527 3.06887
0.219218 -1.0631 3.53864
-1.33562 0.180752 3.0672
0.43155 -1.48908 3.48374
0.283816 0.522006 2.93234
0.713679 0.896085 2.94096
-0.4313 -0.169004 3.06451
1.35673 -0.535055 2.90751
0.147144 0.971157 3.02609
-1.33006 -0.929175 3.25092
0.981051 -1.80315 3.80301
-0.178503 1.03578 2.98121
0.662827 -1.53731 3.69002
-0.546289 -0.131398 3.06033
1.1046 0.268202 2.84684
-0.499996 -0.5409 3.18732
-0.190584 0.656551 3.06872
-0.124637 0.60753 2.97918
-1.26745 -0.488689 3.14042
1.61065 0.217559 2.6631
-0.057162 -0.0828475 3.01696
-0.283234 0.921988 1.9355
-1.11253 -1.32659 3.29225
0.849517 0.970117 2.90782
-0.484111 -0.966716 3.49408
1.23582 -0.201972 2.83336
-0.275481 0.893677 1.94615
-1.4303 -0.605547 3.1667
1.56921 0.834257 2.61387
1.23532 -1.05323 3.32765
0.245917 0.549541 2.90405
0.56727 -1.58768 3.60082
-1.2695 0.222942 3.02592
0.195115 -0.168309 3.00572
-0.31596 0.872036 1.92345
1.33495 1.13915 2.65176
1.51579 -0.566998 3.07258
1.40962 0.825615 2.71675
0.331048 -1.0202 3.39618
0.494323 0.51537 2.89873
0.528393 -1.59827 3.7344
-1.11617 0.172327 2.91265
0.608756 0.243364 2.91756
0.0570507 0.609255 3.01508
0.378794 1.35683 2.89468
0.987284 0.958132 2.87074
-1.36662 -1.33902 3.24407
-1.21843 -0.940482 3.28915
0.0580451 -0.537199 3.16981
0.37459 -0.129502 3.00662
-1.08012 -1.33928 3.32364
1.12431 -0.95315 3.42221
1.52764 0.28414 2.73192
0.88935 -0.487509 3.08364
-0.0601453 1.07676 2.97634
1.43443 -0.0800019 2.74303
0.684138 0.67521 2.9643
1.72103 0.252223 2.6809
1.58379 -0.764736 2.8647
0.132346 0.676337 3.15976
-1.44797 -1.19888 3.08482
0.580937 -0.052136 2.95674
-0.963422 -0.465367 3.23435
0.04548 -0.822655 3.2889
1.43836 0.688495 2.72673
1.51097 -1.31244 3.45076
-0.0429848 1.03068 2.96163
-0.391675 0.0252037 2.99351
0.279522 1.14345 2.96824
-1.13182 -0.424794 3.23649
0.0903434 0.377576 2.90739
0.191753 0.345628 2.92263
-1.48035 -0.385226 3.21888
-1.26743 -0.0112845 3.15282
1.59612 -1.19363 3.234
-0.758138 0.70642 1.89606
1.26372 -0.739856 3.0368
1.41834 0.65729 2.73445
0.985212 -0.080543 2.93124
1.20859 0.997009 2.76581
1.66008 -0.457196 2.87358
-0.190568 0.675737 2.93799
1.1074 -0.862873 3.10388
0.4177 0.307528 2.91398
-0.407281 -1.42941 3.53923
1.48332 -0.0529754 2.86091
0.687391 1.01134 2.91115
1.69316 -0.437318 2.97437
-1.47618 -1.58449 3.36436
-1.30575 -0.831863 3.17008
0.781766 0.625995 2.93903
-0.881631 -1.33245 3.41962
-1.24901 0.29278 2.99634
-1.00883 -0.0111454 3.055
0.591507 0.343058 2.91219
-0.870633 0.721356 2.96154
-0.460126 0.726832 1.95452
-1.40178 -1.24181 3.30309
1.18294 -0.778411 3.08958
-0.888824 -0.414362 3.15545
0.469275 -1.29262 3.52141
1.12202 0.413202 2.89967
1.30535 -0.731196 2.99917
1.09849 0.0543947 2.84693
-1.10604 -0.380346 3.15159
0.525632 1.13595 2.8703
-0.117118 0.800157 2.97226
0.366264 0.377742 2.91233
1.17107 -1.20958 3.39525
-0.0318659 0.0230038 2.94818
0.927916 1.07506 2.79498
-0.508087 -0.335231 3.06006
-0.595994 0.773135 3.01786
-1.36325 -0.729589 3.21046
-0.733351 -0.700821 3.24655
-0.673558 0.855004 2.88195
0.0636287 -0.291419 3.07466
1.41211 1.10426 2.63324
-1.41057 0.136623 3.05333
-1.43251 -1.1067 3.2783
-1.1619 0.487392 2.89465
0.640964 -0.656754 3.19222
1.49751 0.738403 2.65037
1.66897 -0.247924 2.89734
-1.11945 0.11221 3.11306
-0.436525 -1.62319 3.5526
-0.721369 0.463722 2.96158
0.250069 -1.18406 3.62793
-0.759601 0.748046 1.84973
0.343983 -0.377944 3.09879
1.37288 -0.733034 3.0094
1.36413 -1.22817 3.33868
-0.540035 0.74827 1.9445
-0.758414 0.752086 2.932
1.2811 0.370304 2.86799
0.225155 0.0228353 2.9753
-1.52238 -1.14864 3.26503
-1.05682 0.110061 3.05728
-0.556271 0.464899 2.95655
-0.850833 -0.756346 3.31129
1.66652 0.714801 2.57113
0.0579519 -0.334044 3.06166
-0.295445 0.798515 1.9648
1.27019 0.0549138 2.84085
1.81184 0.403233 2.80653
0.540037 -1.20001 3.53154
0.374774 0.80381 2.98576
0.438663 -0.691688 3.1876
1.00769 1.13135 2.86048
0.128613 -0.289978 3.05804
0.781228 -1.09773 3.35953
1.66928 0.464629 2.62189
1.27045 -1.7513 3.81431
0.723616 0.169915 2.95574
-1.10014 -0.2517 3.12125
-0.517831 0.83261 1.88301
-0.751605 -1.59479 3.38606
0.83164 -0.646939 3.13615
-0.879818 0.649204 2.13188
-0.583541 -1.06211 3.39594
-0.0697754 0.131587 2.9636
-0.991816 -1.48451 3.38746
-0.387966 0.497073 2.96177
0.984169 -0.208486 2.95297
-0.716879 0.781934 1.86342
0.0934018 -0.6179 3.20837
-1.2239 -0.585749 3.25845
0.462127 0.876721 2.98831
-0.811685 0.66721 2.00762
-1.46778 -0.167418 3.0931
1.24266 -1.54347 3.59691
1.38078 0.234936 2.84525
-0.498362 -0.997717 3.35287
0.0999198 0.600643 2.99488
1.08161 -0.504933 2.95716
0.494547 0.951976 2.95937
-0.676199 -0.12612 3.03405
-0.637372 0.86436 1.85642
-0.108122 0.684585 1.63802
-0.242882 -1.44722 3.48715
-1.00472 -0.934994 3.26767
0.923614 0.211076 2.94365
0.515755 0.54921 2.90206
-0.454857 0.755322 1.89445
1.17501 0.760396 2.80845
1.06218 -0.355577 2.95335
-1.50475 -1.18762 3.29819
-0.813934 0.441014 2.98778
-0.0204947 -0.769029 3.23837
0.741729 0.0658664 2.93399
0.198891 -0.325446 3.08116
-0.190333 0.779166 3.01508
0.771092 -0.716176 3.18385
0.658118 1.12376 2.90112
-0.0661065 0.0317507 2.95632
0.00179548 -1.20284 3.4305
1.60513 0.360793 2.70962
1.06379 -0.27102 2.91947
1.15632 -0.653787 3.02501
0.41577 -1.19669 3.55994
1.35833 -1.70234 3.63388
0.140456 1.18173 2.87742
-0.177354 0.865343 3.05325
-0.510005 0.469838 2.9376
-0.163995 0.106716 2.98862
1.10903 -1.65092 3.62691
1.67622 0.162521 2.80006
1.15452 -1.07957 3.34265
-0.332132 0.552852 3.02148
-0.941212 -0.637541 3.18813
1.14724 0.859154 2.78884
1.35785 -0.225197 2.83776
-0.439366 0.833866 1.88914
-1.34151 0.154134 3.06427
-0.615416 -1.50461 3.44662
0.816757 -1.01701 3.27197
1.27354 0.489734 2.86122
0.342519 -0.594457 3.13312
-0.0451126 0.910301 3.06091
-0.0269048 -0.198725 3.05173
1.75892 -0.898849 3.02171
1.78953 -1.93105 4.00278
1.1635 -1.61368 3.7833
-0.0372237 0.263748 2.93385
-0.0440549 0.660722 3.21301
0.659091 -0.156595 2.99824
0.767961 0.973731 2.87528
-0.654527 -0.579701 3.29222
-1.41107 -0.908886 3.2255
1.491 0.521748 2.71741
0.761764 1.19384 2.82679
-1.24846 -1.32127 3.22145
-0.442498 -0.11287 3.02622
1.47416 0.212466 2.85429
0.747635 -0.515921 3.11872
0.785933 0.939462 2.90069
-0.647712 0.830512 1.85623
0.0802348 -0.644647 3.20366
0.508606 1.32758 2.87476
-1.03753 -0.238355 3.13429
1.48358 0.806534 2.62141
-1.27042 -1.42184 3.16121
0.900891 0.534519 2.9288
1.15813 -1.0447 3.2406
-1.19161 -0.195454 3.09204
1.72243 0.163525 2.74575
1.68608 -0.53812 2.80949
0.15077 0.886234 2.97517
0.926518 -1.00836 3.25345
-1.18052 0.142534 2.95062
-0.481677 -1.51188 3.46041
1.69316 0.475074 2.77399
0.701973 -0.156169 2.99941
1.06799 1.15826 2.74478
-0.0331 -0.559956 3.15955
1.66415 0.530079 2.75391
-0.375058 -1.00574 3.4037
-0.0918629 0.982433 3.02097
1.26177 -1.60785 3.76556
-0.362384 0.764707 2.06164
1.15072 1.24663 2.7291
1.73175 0.202174 2.74677
1.02278 -1.4395 3.47899
1.13645 0.628795 2.89934
0.425799 -0.940533 3.31116
1.34993 0.277284 2.83023
0.263187 -0.514343 3.13153
-0.177223 -0.111488 3.03116
0.383085 1.04279 2.96481
0.123054 0.261393 2.91782
0.602502 -0.903292 3.30795
1.16446 0.579268 2.85072
1.07482 -1.40006 3.48885
1.02184 0.949656 2.80194
1.22394 -0.0727947 2.80748
1.31043 -0.449202 2.90359
0.258802 -0.859218 3.29252
-0.519111 0.74604 3.02686
0.546709 -1.39266 3.58185
0.00927427 1.09761 2.91601
0.759885 -0.0408625 2.93717
0.770111 -0.00702093 2.95488
-1.19378 -0.441095 3.18515
0.87933 0.356569 2.93601
0.00279722 0.67057 3.03611
1.61986 -0.361458 2.77642
