ply
format ascii 1.0
element vertex 1831
property float x
property float y
property float z
end_header
-0.808962 -0.141071 3.03522
-0.194008 -0.545329 3.1427
-0.899165 -0.913759 3.2452
-0.10807 0.694537 3.1199
-0.751574 -1.42123 3.46094
-0.566619 -0.100267 3.05653
-0.685739 0.310893 3.00911
-0.312269 -0.516858 3.17239
1.58076 0.913528 2.56986
1.38518 0.585706 2.81164
-1.06661 -1.65525 3.47492
-1.39614 -0.469983 3.16368
-0.309567 -0.0612438 3.02568
-0.831588 0.276482 2.94918
0.0974517 -1.38004 3.46929
0.473399 1.01089 2.93384
-0.177208 -0.911658 3.40465
-0.797012 -0.180613 3.02352
1.1043 -0.548335 2.95392
-0.787557 -0.998509 3.27627
-0.730509 -1.50602 3.45613
1.63937 -0.494865 2.86197
-0.619867 0.655496 2.07049
-0.860086 -0.986513 3.37444
1.08904 0.54667 2.92039
-1.36793 -1.30462 3.09342
-0.249585 0.193362 2.93909
0.267489 0.275873 2.94345
-0.473875 0.631613 3.01138
-0.517169 -0.142976 3.07833
-0.586456 -1.4183 3.45233
1.49358 0.216205 2.75563
-0.810813 -0.998189 3.54372
-0.00875039 0.608047 3.06198
-0.0272983 -0.516319 3.17035
0.967592 0.955391 2.89483
0.0785268 -0.0982743 3.00245
0.736673 0.998883 2.89942
0.734924 -0.877853 3.27916
1.6445 0.313409 2.77704
0.20737 -1.44671 3.63529
0.729311 -0.0585019 2.92549
0.824879 1.05925 2.86518
-0.913002 -0.470027 3.1623
0.115141 -0.846711 3.30388
0.536804 0.705716 2.97048
0.678767 -1.39182 3.62222
0.914292 0.301165 2.91156
1.94369 -0.0270742 2.99431
1.12768 1.0092 2.82661
-0.29378 -0.429466 3.13861
-1.30654 0.638841 2.86014
1.24299 -0.370669 2.96469
1.03685 0.759558 2.86203
1.519 1.00677 2.56595
1.62077 -1.21275 3.2593
0.725818 0.0459031 2.95747
-0.459302 -0.816305 3.32685
1.52045 0.386175 2.75102
0.396889 -0.756502 3.23361
-0.138701 0.740547 2.93611
-0.725543 -0.354008 3.07946
1.66947 -1.10209 3.071
0.0803567 0.0147733 2.96212
0.0173597 0.373963 2.95451
-0.774813 0.711343 1.86138
0.799341 -0.0586071 2.94394
-0.4023 -0.468896 3.15746
1.11424 -0.82909 3.10103
-1.41526 -1.2808 3.22158
1.1547 1.00893 2.82594
-0.266106 0.701094 3.13541
0.963188 0.306108 2.95801
1.24239 -1.31437 3.42175
1.26081 0.0143498 2.8186
0.818129 -0.821523 3.20803
-0.9016 -1.62453 3.40863
0.897847 -0.414636 3.03698
0.807737 0.377297 2.98588
-1.43423 -0.0240012 3.0747
0.369456 -1.30344 3.50737
0.114277 0.763056 3.02763
-0.408363 -0.802822 3.28042
-0.0339567 0.336348 2.94982
1.30442 -0.360127 2.8791
0.337297 0.723795 3.03428
-0.457433 0.728303 1.96544
1.6305 0.957089 2.50913
1.51776 0.418581 2.7326
1.69118 -1.09768 3.05659
-0.587531 -0.347967 3.02735
1.0705 0.0837855 2.85547
0.716986 -0.745275 3.18523
1.19462 0.780834 2.81066
1.23696 0.404769 2.87069
0.0526521 -1.1709 3.38683
1.15074 0.0451183 2.89099
-0.207785 0.799332 1.97388
-0.474865 0.747297 1.89849
0.970068 -0.293181 2.96186
1.39065 0.717631 2.7062
1.46713 -0.638884 2.88776
-1.38086 -0.658383 3.14279
-0.121698 0.931225 3.07959
0.0892499 -0.269382 3.07194
-0.606076 -1.59133 3.43181
-0.675009 0.156725 2.93742
-0.336044 -1.19118 3.59016
0.321149 0.507789 2.88909
0.239976 -0.636776 3.22353
1.63458 0.761881 2.64449
1.56632 -0.220699 2.97506
-0.249279 0.120563 2.96902
-0.674122 -1.56211 3.49265
0.236294 0.483505 2.90906
-0.633857 -1.06905 3.35054
0.935287 1.17184 2.79855
-0.366463 -0.353506 3.08729
1.10037 -0.726311 3.10404
-1.02652 -1.24345 3.46315
-0.361353 0.763138 1.93878
-1.17136 0.793061 2.97277
-1.3228 0.417895 2.9393
1.20319 0.0448348 2.86292
0.366142 0.48024 2.8919
0.342624 0.120498 2.95352
0.30814 -1.22496 3.54231
-1.02842 -0.745821 3.37021
1.17312 1.14515 2.73573
1.63267 -0.265141 2.66172
-0.815074 0.856417 2.95142
-1.31282 0.0905724 3.02757
-0.183433 -1.72977 3.73298
-0.590217 0.454788 2.93897
0.453079 -1.16805 3.52561
-1.17164 0.841503 3.01044
-0.799556 -0.692267 3.31323
1.14738 -0.251623 2.88255
0.0528432 -1.08371 3.39945
1.1215 0.90252 2.85271
-0.289307 -1.67727 3.74861
0.393282 1.16233 2.86554
0.183074 -0.223173 3.05274
0.282659 -0.64905 3.28544
1.5569 0.18873 2.86224
1.35779 -0.55215 2.97797
0.828796 0.527218 2.99914
-0.621605 0.157664 2.96667
-0.683021 -1.46844 3.37
1.00613 -0.177463 2.97546
1.29235 0.535744 2.8581
-0.656967 -1.02119 3.35294
1.09475 -1.78145 3.74189
1.69485 -0.481945 2.76306
0.915008 0.880393 2.9142
-0.378927 -0.142473 3.06641
1.15952 0.961514 2.7916
-0.669944 -1.43371 3.40248
1.04987 0.613663 2.92898
-0.555599 -0.966082 3.30841
0.808219 0.276862 2.94487
0.433427 -0.0974969 2.98979
1.62524 0.858735 2.605
0.834283 -0.499693 3.07309
-1.20173 0.246903 3.09584
1.21979 -0.896446 3.18921
0.220869 -1.46568 3.5702
0.436681 0.580137 2.91486
-0.407194 0.157585 2.9702
1.10493 0.512582 2.91755
1.2274 0.848934 2.81109
0.114152 -1.64684 3.68447
-1.3138 -1.02194 3.20914
-0.76194 -0.635836 3.23468
0.734459 -0.221221 3.0284
-0.169218 -1.56071 3.5833
1.52714 0.543591 2.73504
0.402097 -1.04682 3.43892
-0.332836 0.240014 3.02497
1.47627 -0.566464 3.0445
-0.59978 -0.182098 3.09045
-0.702963 0.663687 2.00516
-0.412861 -0.999665 3.42265
-0.897766 0.196459 2.94208
0.221749 -1.48611 3.52933
-0.722223 0.593115 3.14298
1.35379 0.867412 2.74299
0.130182 -0.137942 2.98941
-0.419204 -0.551074 3.19349
1.23984 -0.855572 3.04914
0.193139 0.685313 3.07271
-0.687035 0.707149 1.97606
1.06931 -1.37187 3.34555
-0.305575 -0.0954688 3.01555
1.08774 0.304536 2.94728
1.00792 -0.48265 2.97237
0.878432 0.619434 2.94222
0.0934231 -0.46156 3.1115
1.23478 0.268892 2.86549
1.30805 -0.0538683 2.71865
-1.09751 -1.31041 3.29472
1.50161 0.908674 2.63962
1.23542 -0.813014 3.03827
-1.33462 -0.439822 3.22122
-0.212202 0.779254 2.0348
-0.833318 -0.0234638 3.0386
1.30759 0.702628 2.791
-1.48765 -1.2567 3.27113
1.08895 0.370519 2.92748
1.56411 -0.723837 2.83129
1.32884 0.0135342 2.76763
0.201638 0.745208 3.11233
1.48537 -0.358654 2.86345
-0.400343 0.738065 1.99301
0.750543 -0.781775 3.19718
-0.932115 -1.25821 3.38779
-1.36471 0.343499 2.98131
1.3945 0.268114 2.86991
1.27861 0.592416 2.81602
0.977613 0.99009 2.86713
-1.06529 -1.37941 3.36418
0.0287011 -1.74082 3.6669
-0.995808 -0.924611 3.29544
-0.632038 -0.535895 3.30634
-0.354853 -0.0935672 3.03823
-0.065083 -1.415 3.56455
-0.873006 0.339727 2.95437
1.47344 -0.800314 2.99139
0.578491 -0.460147 3.10209
0.212121 1.09943 2.9632
-0.650682 -0.0588764 3.03539
1.75837 0.677724 2.83565
1.27646 0.296616 2.86584
-1.20452 -0.809867 3.16605
-1.37568 -1.27285 3.31341
-0.685424 -0.0233473 3.0206
-1.07072 0.662798 2.95654
-0.359016 -0.428825 3.15206
-1.10926 -0.813092 3.32985
-0.634093 0.778405 2.91863
-0.899993 -1.25442 3.37776
-0.543264 0.691806 1.93308
0.509847 0.0491336 2.94721
0.232333 1.1546 2.93072
-0.964356 -0.393396 3.16044
-0.158058 0.415182 2.9257
1.38901 -0.707989 3.02754
-1.15408 0.378414 2.96534
-0.0322644 -0.350824 3.06311
-1.42097 0.0196393 3.15101
0.389567 1.11174 2.89977
-1.31162 -1.12355 3.13711
-1.09328 0.749196 2.95589
-1.37403 -0.301412 3.06659
-0.873149 -0.709803 3.20633
0.568984 0.852822 2.94411
1.051 1.16192 2.76881
0.439221 0.487408 2.93169
1.41248 -1.27449 3.69318
0.406082 0.119484 2.9382
-1.34573 -0.270103 3.11059
-1.07352 0.790918 2.82858
0.192528 -0.671152 3.21078
0.393251 0.452281 2.92728
0.887203 -1.16465 3.5191
0.140388 -1.59941 3.45391
-0.827476 0.0901312 2.99629
0.897819 1.13463 2.79954
-1.12617 0.0186236 3.04505
-1.11855 0.378464 2.9698
-0.74195 0.751428 2.96671
0.88131 1.09236 2.8509
0.0629653 -1.33883 3.6076
0.980935 0.341435 2.96854
-0.58576 -0.791288 3.24518
-1.13151 0.728157 3.01994
1.17525 1.01959 2.75292
-0.483654 -0.379768 3.05504
0.758731 0.457872 2.96317
-1.26371 -1.18368 3.30496
-1.1373 -0.368434 3.23559
1.13638 0.0867024 2.86866
1.59084 -0.692275 2.96762
-1.04138 0.784755 2.80815
1.32037 0.404438 2.84713
-0.605702 -1.19684 3.46703
1.34819 0.0457189 2.78554
1.53623 1.02515 2.53346
0.258229 1.15929 2.93558
0.462051 -0.295014 3.00696
-0.228395 0.808794 3.03434
0.321219 -0.711829 3.22656
0.778012 -0.659705 3.15812
1.34231 0.82571 2.73564
-0.0500364 -0.265452 3.06267
0.39944 -1.6639 3.50426
-1.42614 -1.5066 3.2539
1.12045 -1.12053 3.38234
1.0847 0.152 2.84937
-0.517338 0.523794 2.96051
-0.559702 -0.637295 3.23899
-0.829906 0.673016 2.31622
-1.14393 -0.22634 3.12554
-0.959665 0.127557 3.04861
0.380668 -1.59991 3.58152
1.1953 0.477899 2.8772
-0.750183 -1.08502 3.40823
1.54141 1.0523 2.50987
-0.226969 -0.179619 3.05485
-0.92294 -0.587904 3.17577
1.54768 0.871488 2.63566
-1.52351 -0.96086 3.16208
1.65368 0.557832 2.80628
1.15456 -1.63638 3.75992
-0.177014 0.237576 2.95984
0.329335 -0.138091 2.98883
-0.270121 -0.542793 3.14541
1.53835 0.831147 2.62833
-1.13569 -0.928943 3.18755
-0.00857361 0.566551 3.01222
1.26202 -1.5456 3.67121
0.444823 0.195805 2.93148
-0.103592 0.124083 2.98546
0.943333 -1.19418 3.46351
1.6507 0.474188 2.86253
-1.46625 -0.699501 3.17645
-0.659732 0.862012 2.95835
1.66725 -0.291378 2.96047
-0.493155 0.777965 1.85015
-0.985225 0.099794 3.19851
0.0805931 -1.6017 3.46487
1.60385 0.414445 2.68197
-0.817996 -1.09081 3.29694
0.0556532 0.842268 3.01562
-0.711142 -0.697518 3.34822
0.458551 -0.259867 3.00301
-0.118968 -1.09096 3.43065
0.357236 0.548139 2.9101
0.640981 -1.66562 3.72825
1.52335 0.190378 2.84607
1.18294 -0.203824 2.83432
1.64634 1.04201 2.57575
0.75165 -0.616263 3.13719
0.18343 0.959486 3.00971
-0.189558 -1.01124 3.33287
0.44917 0.513547 2.90465
-1.35138 -1.43021 3.29337
0.254649 -0.177482 3.02726
-1.04825 0.164427 2.9821
-0.73382 -0.58315 3.15425
1.58611 0.789083 2.61496
1.31664 -0.507092 2.94388
1.53101 -0.130118 2.82995
-1.21824 -1.3507 3.21075
1.52201 0.243271 2.60427
0.366022 -0.983506 3.38154
-1.19662 0.614182 2.90174
1.00563 -0.491642 3.04367
-0.449427 0.68866 2.07749
0.201419 -0.0925721 3.01828
1.31432 0.958821 2.77707
-0.669998 -1.42252 3.47067
-0.622764 0.234854 2.89224
-0.37156 -0.947106 3.37807
-0.745119 0.613061 3.06226
0.155966 -0.0572128 2.98564
0.708524 -0.460563 3.10728
1.63907 -0.773058 2.88629
0.731222 -1.41665 3.57109
0.280488 -0.0227855 2.99123
-0.49962 0.71232 1.9898
-0.177349 -0.423545 3.11664
1.29889 0.62839 2.80698
0.201989 -0.845897 3.31494
-0.0340502 -1.36338 3.55393
0.760907 -1.81595 3.82483
1.49058 0.289396 2.80545
0.00615323 -0.253484 3.05968
1.43888 -0.591641 2.87578
1.01565 -1.11024 3.39219
-0.27522 -1.65708 3.61247
-0.445299 0.785408 1.85923
-0.383387 0.899373 3.03185
0.333417 0.483104 2.87446
0.958307 0.131159 2.93429
0.044466 -1.55493 3.51724
1.62047 0.198682 2.74079
0.156397 -1.05955 3.36646
1.18704 0.543385 2.8574
0.638381 -0.61148 3.16127
0.976746 0.928297 2.8807
1.52355 -0.193623 2.7963
-0.281749 -1.50904 3.52059
-0.295911 0.174003 2.94807
-0.472072 -1.01469 3.37331
-0.730224 0.536861 2.98891
-0.970768 -0.570661 3.13221
-1.26426 -0.171856 3.12449
-0.777616 0.642467 2.09137
0.613372 -0.960272 3.32409
-0.17785 -1.48055 3.54844
0.883992 0.99903 2.86883
1.23991 -0.119125 2.84548
0.183975 0.282745 2.92662
0.300116 -0.531677 3.13609
-1.3248 -0.891302 3.2055
0.603113 0.608601 3.00056
0.0941464 -1.41095 3.4712
-1.39224 0.254822 3.00326
1.07858 -0.076344 2.86975
-0.855413 0.661199 3.06531
-1.35105 -0.505092 3.20884
-0.204817 0.991652 2.94893
-1.44067 -0.460346 3.18104
-0.321943 0.74945 2.00825
-1.3947 -0.0501287 3.0926
-0.205878 0.720997 2.96317
-0.522289 0.356489 2.97242
-0.334839 -1.37834 3.50659
-0.0627117 -0.0138164 2.96268
1.70875 -0.765651 2.89576
0.333192 0.69513 3.02334
-0.50753 -0.428962 3.22558
0.35185 0.314429 2.93603
1.17923 -0.755241 3.0071
1.30479 1.00119 2.76828
-0.467649 -1.33386 3.51161
-0.547562 -1.62744 3.43925
-1.27509 0.25588 3.01436
0.998327 0.598037 2.9526
1.28682 -0.889139 3.08415
0.0457138 0.988673 2.94084
-0.0501773 -1.45473 3.4883
0.533458 -0.528599 3.13678
1.42579 -0.117811 2.78471
0.718505 -1.59138 3.91505
0.984163 -0.926364 3.34059
0.47743 0.313495 2.92323
-0.844594 -0.501944 3.20516
1.36422 0.974538 2.69575
1.19444 -0.0742145 2.80326
0.853077 0.673882 2.93344
0.560804 0.277772 2.87287
1.73133 -0.736398 2.7749
-0.689982 0.636697 2.95284
0.317607 -1.40341 3.57195
-0.0201131 -0.0492836 3.00586
0.917991 -0.440882 3.05528
1.25824 -0.764459 3.0437
-0.242626 0.778346 3.02924
0.284792 -1.34724 3.54994
1.35904 0.956417 2.74844
1.19919 0.0226937 2.82091
-0.288759 0.771255 1.99352
0.324927 -0.409189 3.08353
1.33366 0.366136 2.80564
0.149375 0.348996 2.91333
0.826925 -0.370821 3.03508
0.17793 -0.0139778 2.96726
1.59067 -1.22123 3.32118
-0.177408 0.779899 2.08823
-1.20361 -0.786584 3.24598
-0.020086 0.736419 3.02196
-0.46735 -0.748822 3.2496
0.967034 1.1477 2.81227
0.353269 -0.34551 3.15052
-1.26672 -1.14808 3.22335
0.831322 0.464195 2.94631
-0.764817 0.10141 3.00012
-0.735306 0.829517 2.94003
0.347654 -0.298013 3.12753
0.399855 0.810678 2.99781
0.506853 -0.700234 3.21802
0.15229 1.16001 2.91578
1.65678 -1.09196 3.20694
-1.19874 0.0638395 2.95566
1.04748 0.423269 2.92231
0.443564 -0.0139299 2.98032
1.06582 0.351689 2.93379
1.20161 0.695258 2.85944
0.950567 1.05291 2.81962
0.618677 -1.31824 3.48105
-1.16741 -0.838119 3.33982
-1.0731 -0.413141 3.13067
-1.38261 -1.18631 3.22492
1.77812 0.408834 2.82296
-1.1889 -0.807913 3.33694
-1.06166 0.0651944 3.02876
0.311246 1.18656 2.97949
1.31681 0.752681 2.78787
-1.36702 -0.384599 3.15972
1.70329 0.0222924 2.75474
0.412339 -1.2526 3.52637
0.852538 -1.74008 3.67869
0.517628 -0.333629 3.04339
0.171743 -0.743188 3.22813
1.48975 0.361925 2.78382
-0.079796 0.761818 2.96223
-1.11955 -1.12226 3.29407
-0.220425 0.891918 3.00638
-0.25819 0.77732 2.0102
1.22254 0.124771 2.79328
1.27428 -0.275381 2.89266
-0.134595 0.841411 1.99138
1.12319 -0.659789 3.03593
-0.40998 -0.671241 3.26734
-1.11859 0.460745 2.90304
1.56519 -0.238961 2.88303
-0.0370703 0.100589 2.97022
0.495589 -1.67885 3.66427
0.400306 0.493494 2.93762
-1.32218 -1.05659 3.22958
-0.444803 0.855696 3.03148
0.755367 1.15496 2.82304
0.663489 -0.598477 3.09335
-1.48489 1.0495 3.25054
-1.36266 -0.210123 3.06751
-0.970658 0.560862 2.93041
0.453086 -1.61932 3.66393
-0.935443 0.217491 2.96231
0.805946 -1.08102 3.43356
-0.887512 -0.168774 3.06356
1.37438 -0.527681 2.9037
0.498532 0.910442 2.96476
1.17745 -0.973068 3.24229
0.336265 0.174077 2.94801
-0.0369698 -1.50606 3.51425
1.37411 0.511915 2.85034
0.0637982 0.101016 2.99287
-0.759529 0.472863 2.97959
1.63545 0.760731 2.70523
1.32408 1.06465 2.60729
1.36161 -1.18219 3.48123
-1.40873 -0.68156 3.13725
1.66587 -0.27211 2.86917
1.62578 0.472607 2.63819
-1.04493 -1.56942 3.42553
0.649266 0.172314 2.92142
-1.24191 -1.05224 3.21544
0.146119 -0.659097 3.21283
0.577622 0.908916 2.95885
-0.989521 -0.254293 3.09574
1.31358 -0.976134 3.10537
0.821371 0.503066 2.99319
0.493338 -1.6601 3.75507
-0.743663 0.134534 2.96205
0.813626 -0.202441 2.97541
-0.0472191 0.861151 2.03832
0.997124 -0.594009 3.07197
1.49907 -0.501224 2.76141
0.73586 0.860641 2.90772
-0.651173 0.681865 2.02479
0.347838 -0.164409 2.99891
0.000320739 -1.55254 3.62148
-0.787919 0.254728 2.99973
-1.28448 -1.0074 3.35023
-1.47366 0.635412 3.11406
0.770125 -0.520708 3.08967
-0.74232 0.652311 2.01738
-1.34236 -0.126127 3.05511
0.819206 -1.7275 4.1375
-0.456451 -1.01767 3.52939
-0.75894 0.214884 2.92182
-0.127578 0.577674 3.01191
1.63365 -0.0774994 2.86147
-0.00259731 1.06524 2.93315
0.926965 -0.477326 3.04596
0.994228 0.675476 2.94024
1.31909 -0.83754 3.02165
-0.324002 0.318747 2.94452
1.41141 -1.68064 3.55706
1.411 -1.52712 3.75633
-1.21607 -0.0477365 3.0415
-1.03882 -0.45082 3.1365
1.65491 0.901358 2.59285
-0.702284 -0.894035 3.38367
-0.656385 0.639991 2.96856
0.444393 -1.42336 3.62177
0.84445 0.283719 2.93264
1.02488 -1.64592 3.72401
-0.102812 0.21828 2.96466
-1.83008 -1.18667 3.77613
0.202351 0.555449 2.90705
1.02517 -0.588358 3.04083
0.541443 0.959004 2.96454
-0.590762 -0.207811 3.07462
0.550322 -1.55546 3.62888
1.21315 0.168194 2.8539
-0.993 -0.994474 3.3183
0.886436 0.241923 1.36439
-0.557982 -0.588307 3.24747
1.53517 -0.155684 2.84278
1.46791 0.82217 2.68019
-0.586451 0.648045 3.00688
0.288357 -0.976579 3.39003
-1.13951 -1.37053 3.28766
1.03004 0.280835 2.90488
-0.40455 -0.118229 2.99337
-0.536243 0.695346 1.99021
-1.41253 -0.54191 3.22918
1.3829 -0.803895 2.90443
-1.22155 0.589005 2.8878
0.478965 -1.4673 3.61883
-1.14548 0.259862 3.03344
-2.70136 -0.155266 5.65061
1.09268 -0.462783 2.95321
1.48414 0.89386 2.64954
-0.525997 -0.453248 3.14909
-0.759382 0.728665 2.9789
-1.05005 -0.0469255 3.08052
-0.700667 0.718098 1.91424
1.00183 -1.35252 3.44642
0.473851 -0.0140649 2.98983
-0.379456 -0.879723 3.33283
0.108278 -0.410016 3.10674
1.26288 0.345898 2.88543
1.09146 0.670372 2.91942
0.864121 1.03344 2.84898
1.26138 -1.26338 3.34078
-0.244728 0.319094 2.94878
-0.139806 -0.825934 3.29716
0.2704 -0.377339 3.10789
0.693782 1.13314 2.84987
-0.787253 0.810626 2.98622
-1.14484 -0.802021 3.31197
-0.879402 0.425401 2.91866
-0.533109 -1.28412 3.49621
-0.771326 0.0640832 3.0256
-1.33125 -0.34216 3.13295
0.948797 0.746528 2.89701
1.1224 -0.696728 3.04183
-0.810294 0.39193 2.98605
-0.228303 0.78179 2.02081
1.14213 -1.21076 3.4082
-0.328184 0.0259555 2.95656
-0.128414 0.320397 2.95981
-0.539516 -1.38823 3.43023
-1.26278 -0.894449 3.22909
-1.01199 -0.477133 3.05566
1.3232 0.644303 2.80695
-1.11417 -0.0798755 3.05215
1.12063 -1.3404 3.41317
-0.901048 0.29008 2.97157
0.9249 -0.841802 3.19167
-0.421524 0.649032 3.01143
-0.447481 -0.462571 3.21922
0.993572 1.01675 2.80268
0.537227 -0.0454242 2.98878
0.836707 0.995158 2.8492
1.11343 0.736794 2.85999
1.033 -0.772423 3.09073
1.45456 -1.69492 3.58726
-1.15763 -1.25314 3.31204
1.08818 0.0257033 2.88796
0.482302 0.381516 2.90127
0.680586 1.12164 2.89954
0.381002 -0.41269 3.12859
0.865941 -0.78211 3.23614
1.53827 0.324319 2.71756
0.12701 -1.30193 3.54678
1.11766 -1.76872 3.61755
-1.32358 -0.0130538 3.02524
0.391332 -0.380371 3.13849
0.734281 0.724929 2.96871
-0.629988 0.721905 1.92424
-1.16479 -0.76624 3.35091
-0.625667 0.75252 1.83525
-0.845331 -0.343632 3.14902
-0.997041 0.808033 2.85204
0.149678 0.462419 2.91927
1.47713 -1.16054 3.26854
-0.406771 0.102678 2.94659
-1.0773 -0.294409 3.11633
0.0525792 0.816491 3.00652
-1.33168 -0.71859 3.30702
0.818934 1.13114 2.84473
-0.557822 0.0636055 2.97813
1.39274 -1.15797 3.40938
-0.0797187 0.431694 2.95726
1.40115 -0.224168 2.77852
0.952765 -0.648419 3.16116
-0.552961 -1.1632 3.55847
-1.47436 -1.45566 3.18117
0.353817 1.22874 2.90577
1.48525 0.77529 2.61972
1.68871 0.481609 2.87557
0.178886 0.136053 2.98239
0.267921 -1.35682 3.69563
0.0370243 0.427368 2.92865
1.40774 -0.727529 3.01136
0.811282 0.0625753 2.91537
0.864753 1.10887 2.78867
1.23102 0.759344 2.80073
0.515754 -0.367749 3.03251
-0.832047 0.0296894 3.03407
0.113581 -1.2592 3.55338
-0.4728 -0.331086 3.04221
0.870264 0.386641 2.94348
-0.734427 -0.746704 3.26469
1.1529 0.737168 2.86203
0.953191 1.08773 2.81138
-1.18222 -1.08876 3.20532
-1.22925 0.834946 2.80966
0.695657 1.20815 2.85733
1.72782 0.126577 2.78148
1.27702 -0.265317 2.8244
-1.23336 -0.728484 3.35229
1.00496 -0.62522 3.0508
0.556091 0.465041 2.93601
-0.920451 -0.244735 3.05514
-0.295077 0.102538 2.93975
-1.18393 -1.57064 3.43538
-1.00732 0.499987 2.95496
-1.38257 -1.01701 3.12625
-0.280931 0.849321 3.00083
0.0927511 1.19166 2.90389
-1.39566 -0.639245 3.31519
-0.36076 -0.20718 3.06318
0.616148 0.954706 2.95232
1.04526 -1.58358 3.58439
-0.459324 0.57171 2.97353
-1.39055 -1.00927 3.20736
0.277901 0.217394 2.96388
-0.703219 -0.163492 3.02186
-0.132465 -0.56558 3.12416
-0.460256 0.8873 2.87299
-0.407156 -1.60699 3.40374
0.619525 -0.994907 3.32269
-1.21294 -1.43148 3.34134
1.41545 0.169535 2.87276
-0.297656 -0.117984 2.99443
0.026109 0.538077 2.98109
-0.919001 -0.520696 3.11104
0.945994 -0.959078 3.33121
0.87711 -1.78758 3.66275
-1.09948 -1.36032 3.26303
-0.30514 0.743999 2.19483
-0.933083 0.585356 2.86726
0.00874716 0.252948 2.94184
-0.814014 -1.55433 3.40057
0.699829 0.535754 2.96849
-1.35317 -1.02455 3.14913
1.57412 0.167433 2.83361
1.24201 -0.588201 2.87012
-0.372764 -0.24356 3.04059
-1.28429 -1.06468 3.38457
0.005935 0.136933 2.94566
-1.39242 -1.44206 3.26292
0.160444 0.494735 2.90972
0.0266957 -0.205334 3.04425
-0.703755 0.858892 2.88111
-0.995987 -0.617969 3.2035
0.055381 0.925258 3.00188
0.98458 1.18019 2.79269
0.97363 -0.983172 3.28346
0.327486 1.03468 3.05182
-0.799695 -1.45947 3.40964
1.12811 -0.153186 2.86179
0.221983 0.2561 2.94306
-0.382171 -0.585243 3.24561
-0.593005 0.629723 3.08649
0.0354014 0.58301 3.03267
-0.771388 -0.520724 3.10924
0.722982 0.216319 2.94585
0.920341 -0.116628 2.96748
-1.00481 -1.36781 3.2837
0.754138 0.956105 2.95666
-0.1399 -0.969447 3.37644
-2.50513 -0.833692 5.27324
1.42053 0.982072 2.70867
-0.00845346 -0.0777972 2.99632
-0.503483 0.704372 3.04971
1.3698 -1.39102 3.44324
-0.53666 -0.967717 3.49687
0.55587 0.312632 2.89072
1.08859 -0.0440382 2.91139
1.64486 -0.404656 2.8285
-0.363733 0.2874 2.9438
1.20087 -0.830231 3.1476
-0.324554 0.65905 3.05721
-0.680634 -1.31756 3.35807
-1.05374 -0.011159 3.03117
1.30388 0.985555 2.82449
-0.0841092 -0.408959 3.1189
1.67743 0.325691 2.72605
-1.60829 -0.833996 3.33789
1.29597 0.68473 2.80679
-1.05404 -1.2585 3.32877
-0.505212 0.729851 1.94473
1.25817 -0.383249 2.86872
1.26056 0.713626 2.81227
1.4882 -0.0189486 2.8318
1.53686 1.02499 2.66589
0.125129 -1.32922 3.49375
0.919391 0.0207097 2.93683
1.09168 -0.792154 3.13073
-0.119011 0.3803 2.93882
1.14321 0.695661 2.8723
-0.291553 0.754215 2.0262
0.143156 -0.379851 3.08214
-0.547524 -1.25446 3.39696
-0.603396 -0.770289 3.17338
-0.452148 0.35238 2.98344
-0.294 -0.345143 3.10816
-0.107009 0.819978 2.01486
0.800474 -0.739215 3.18691
1.11806 0.796269 2.83688
1.10633 0.458022 2.92869
1.28505 -1.1954 3.3518
0.0345982 0.0947264 2.96517
0.704011 -0.293078 3.04855
0.494941 0.785759 2.92648
1.64727 -0.625053 2.85198
0.831822 0.422948 2.9584
-0.923259 -1.13643 3.30906
0.966239 0.0543609 2.93272
-0.58092 0.749928 1.89155
-0.200587 -1.70092 3.58708
-1.33005 0.13441 3.07431
0.0173059 0.492776 2.95017
-0.746224 0.629892 2.14632
0.876685 1.18203 2.81001
0.217834 -1.70129 3.69413
0.160412 -1.15851 3.52736
1.63762 -0.596633 2.87843
1.28989 -0.239837 2.84077
1.13964 -1.49976 3.37237
1.1607 0.546264 2.88809
-0.698435 -1.0697 3.3808
-1.0645 0.213972 3.0115
-0.211975 -0.620497 3.18421
1.58391 -0.201124 2.83655
-0.562701 -0.99349 3.29402
-0.715301 0.167055 2.92797
-1.16718 -1.42416 3.29406
-1.25327 0.519243 2.90315
-1.13282 0.751224 2.45381
1.23787 -0.160674 2.84101
0.940933 -0.559514 3.04376
-0.475456 0.679202 2.12206
-0.227055 -0.705113 3.22505
0.115002 0.872063 2.96768
0.750982 -0.292583 3.04784
1.01018 1.16694 2.77415
-1.05068 0.13247 2.99783
1.02447 -1.13965 3.32527
0.575564 0.492604 2.94863
1.28865 0.783556 2.7908
0.0346516 -0.670178 3.23552
-0.715142 -0.253991 3.02294
1.18795 0.0908745 2.83313
0.771672 -1.78662 3.8789
1.4614 0.443316 2.83833
-1.1601 -1.06867 3.25598
-0.783653 -0.213182 3.02829
0.72548 1.17182 2.87737
0.0217012 -0.618338 3.17491
-0.586502 -1.13015 3.5747
1.31931 0.534502 2.82758
0.756822 -1.75799 3.9577
-0.471025 0.211284 2.95674
-1.44383 -0.171963 3.07635
1.12527 -0.541943 2.94906
-1.00145 0.719292 2.35128
-0.157807 -1.00763 3.34163
-0.768465 0.538737 3.01439
0.227202 -1.51351 3.50779
-0.145723 0.16895 2.96267
0.705824 0.245798 2.95737
-0.376075 0.610142 3.02026
-0.409528 0.692279 2.06861
-0.141285 -1.49581 3.57665
1.3594 -0.904131 3.12095
-1.02177 -0.531042 3.11247
1.59307 0.837893 2.61823
1.35505 -0.120475 2.73944
-0.11009 -1.45638 3.57352
1.40158 -0.84906 3.04867
-0.744863 0.311649 2.96661
-0.529062 -0.088022 3.04431
-0.335842 0.742116 2.05776
1.41874 -0.466614 2.90263
-0.0798227 -0.885677 3.31713
1.44219 0.577648 2.72459
-1.16041 -1.29604 3.28387
0.49682 -1.69229 3.57195
1.72707 -0.0503439 2.7933
0.291029 0.282099 2.95178
0.632427 -0.451839 3.08745
-0.316714 0.692157 3.03788
-0.621529 0.698594 2.00488
1.51007 -0.533425 2.90578
-1.1985 -0.171939 3.07196
-0.372358 0.709275 2.11864
-1.04595 -1.39904 3.24371
-0.279593 0.617268 3.051
0.109513 -1.03323 3.42695
1.07809 0.244229 2.92838
-0.568046 0.656075 2.04233
-1.23317 -0.13318 3.07713
-0.588829 -0.542124 3.17679
0.658107 0.209156 2.92304
-1.45601 -0.870565 3.01008
0.632085 -1.55324 3.7179
1.66009 0.508828 2.69378
1.7207 -0.080018 2.77447
1.55549 -0.442912 2.78605
-1.3543 -0.875421 3.1376
1.24676 -1.49944 3.67833
-0.236875 0.904207 2.5865
-0.894362 0.653502 3.05676
1.0099 0.281859 2.94431
0.70077 -1.42154 3.60953
-1.47701 -0.83744 3.1406
-1.16614 0.353145 2.96696
0.98593 -0.443848 3.03727
1.31671 0.673284 2.78188
-0.970313 -0.051326 2.99963
0.517529 -1.37833 3.6199
-0.415888 0.30855 2.9305
1.3616 -0.748452 2.97406
0.168087 1.098 2.9451
1.49614 -0.376462 2.81603
1.13682 0.663534 2.91263
1.73192 -0.017421 2.76645
-0.459063 0.716801 1.98067
0.458258 -0.810448 3.3396
-1.24727 0.428674 2.97582
0.0995961 -1.30897 3.5467
0.652361 -0.366141 2.97424
-0.134733 0.0576746 2.97289
-0.315538 0.771215 1.94495
0.563774 0.799221 2.97641
0.20033 0.37766 2.91776
1.34776 -1.2004 3.36301
1.63671 0.0214885 2.86132
1.57004 0.987749 2.56846
-0.250859 -0.343142 3.09494
1.696 0.665098 2.62482
-0.502496 -0.737599 3.19505
-2.61121 -0.812417 5.47439
0.901315 1.0597 2.84449
-0.054986 -0.0519152 3.0091
1.34561 0.666202 2.75311
1.09407 -1.35189 3.43321
0.0760222 0.345421 2.90565
0.882124 -0.863836 3.24986
-1.17339 -0.0174636 3.06838
1.46521 0.631218 2.77294
-1.44218 -0.426719 3.20484
0.0682998 0.309288 2.93585
-0.191955 -0.820372 3.2643
-0.152548 0.842942 2.32593
0.760655 -1.32576 3.48478
1.60552 -0.350336 2.84595
1.01285 -0.790427 3.25638
0.726807 -1.88752 3.98187
0.91439 -1.3748 3.72726
0.235149 1.13188 2.93055
0.0469798 0.77005 3.01631
-0.588784 0.384246 2.94582
1.62112 0.0214666 2.79613
0.0497197 -1.21499 3.4099
1.70797 0.089471 2.76648
1.60801 0.40824 2.60883
1.28842 -0.67875 2.93816
1.38816 0.771042 2.7479
0.549616 -0.336278 3.04145
1.21412 1.1195 2.75083
1.63611 0.0560329 2.85096
0.121062 0.418654 2.90947
1.19162 -1.11814 3.26428
-1.18999 0.738122 2.72603
1.3598 -0.658546 3.01455
-0.101524 0.800289 2.02091
0.776664 -0.290325 3.02185
-0.811176 -1.13418 3.4578
-0.814986 0.63577 2.07846
1.43933 -1.66876 3.62726
0.149843 -0.253888 3.03612
1.06784 0.16456 2.87816
0.746738 -0.650545 3.14207
-0.455799 0.530986 2.96941
-0.389374 -1.04538 3.30781
-0.585474 0.129306 2.97238
1.21979 -1.70957 3.85134
1.35082 0.476195 2.85371
-0.566176 -0.216355 3.07015
0.68079 0.872383 2.9731
1.35315 -0.567933 2.92453
1.48027 1.03143 2.53854
1.45146 -0.65778 2.84615
1.42976 0.756478 2.69628
0.975874 -0.324458 2.93629
0.727754 -1.24233 3.48803
1.72661 0.423693 2.7079
0.128368 1.21711 2.88341
1.59939 0.0911108 2.77319
1.13656 -0.276714 2.88338
0.103875 1.15115 2.89992
-1.49015 -0.685531 3.14292
-0.757036 0.800409 2.95836
1.34534 -1.15311 3.36498
-1.26996 0.0607277 2.96854
0.496736 0.420133 2.92068
-0.184201 0.129904 2.98347
1.52146 0.457391 2.73894
-1.00472 0.737799 2.50676
-0.659826 -1.56423 3.40136
1.19784 1.14627 2.71995
0.203631 -1.13016 3.45163
0.231221 -0.666292 3.23163
0.99587 -0.247464 2.96196
-0.560836 -1.53384 3.45944
-0.859721 0.59747 3.13502
0.447185 -1.08338 3.42833
-1.39604 0.218836 3.00547
-1.46651 -0.603718 3.11201
-0.230662 -0.215598 3.06484
0.229239 -1.06753 3.53889
-1.3416 0.177964 3.05334
0.437605 -1.49561 3.48411
0.286595 0.524681 2.93489
0.711958 0.901757 2.94772
-0.425032 -0.171309 3.05731
1.35605 -0.533131 2.91857
0.143499 0.973442 3.02485
-1.33114 -0.937354 3.23595
0.972006 -1.80675 3.81297
-0.180928 1.03826 2.9772
0.663227 -1.54227 3.69152
-0.539483 -0.132853 3.05322
1.10186 0.273525 2.85827
-0.494294 -0.543435 3.18007
-0.189075 0.658498 3.06476
-0.117432 0.606496 2.97861
-1.27052 -0.494437 3.12528
1.60385 0.221969 2.67343
-0.0492597 -0.0839398 3.01479
-1.11401 -1.33484 3.278
0.847751 0.976408 2.91527
-0.480978 -0.970944 3.48507
1.23657 -0.199152 2.84434
-1.43814 -0.611416 3.14842
1.56298 0.84335 2.62711
1.23413 -1.05386 3.33642
0.24724 0.552909 2.90591
0.56689 -1.59463 3.60056
-1.27413 0.21841 3.01217
0.203516 -0.168055 3.00676
1.51834 -0.564467 3.08213
1.405 0.834172 2.72917
0.334787 -1.02383 3.39604
0.496488 0.518649 2.90253
0.526832 -1.60439 3.73537
-1.12354 0.170371 2.90183
0.612929 0.246114 2.92283
0.0584939 0.611562 3.01331
0.98515 0.964609 2.88081
-1.36882 -1.34861 3.22991
-1.21751 -0.948734 3.27492
0.0645184 -0.540166 3.16783
0.381058 -0.129675 3.00927
-1.07992 -1.34746 3.3094
1.12937 -0.954878 3.42891
1.52055 0.290165 2.74642
0.892959 -0.487477 3.09119
-0.0628691 1.07853 2.97515
1.43208 -0.0768558 2.75542
0.683182 0.679724 2.97083
1.71186 0.257334 2.69304
1.57609 -0.763977 2.87818
0.134532 0.677368 3.16005
-1.45245 -1.20862 3.07009
0.586571 -0.0507525 2.96101
-0.958239 -0.469492 3.22201
0.0510634 -0.826512 3.28669
1.43446 0.697284 2.74006
1.50847 -1.31357 3.45614
-0.0454703 1.0325 2.96015
-0.386398 0.0233769 2.98716
0.278476 1.14718 2.9696
-1.13254 -0.428959 3.22214
0.0956934 0.379157 2.90648
0.197872 0.347328 2.92305
-1.48661 -0.392525 3.20041
-1.26733 -0.0160882 3.13933
1.58582 -1.19533 3.24569
-0.751835 0.707421 1.89408
1.26326 -0.739573 3.04867
1.41483 0.665134 2.74804
0.988458 -0.0785052 2.93981
1.205 1.00513 2.77844
1.65747 -0.456734 2.88389
-0.189613 0.676418 2.936
1.10661 -0.864852 3.11328
0.422934 0.310164 2.91729
-0.405435 -1.43603 3.53163
1.4826 -0.0494037 2.8739
0.685105 1.01697 2.91802
1.69301 -0.434838 2.98584
-1.47686 -1.58904 3.35484
-1.30784 -0.837868 3.15722
0.779932 0.631213 2.94618
-0.878189 -1.34054 3.40737
-1.25556 0.28742 2.98176
-1.00755 -0.0135909 3.04214
0.594778 0.346566 2.91714
-0.874806 0.72058 2.95129
-0.43908 0.728536 1.95134
-1.40377 -1.25035 3.28952
1.18274 -0.778733 3.10001
-0.888852 -0.417963 3.14188
0.466415 -1.2963 3.52373
1.11985 0.419192 2.91223
1.30286 -0.730573 3.01093
1.09889 0.0587264 2.85769
-1.10593 -0.383949 3.13796
0.525076 1.14095 2.87509
-0.120159 0.802979 2.96819
0.371872 0.379875 2.91499
1.17007 -1.21231 3.40335
-0.0253697 0.0232292 2.94642
0.926361 1.08229 2.80407
-0.501212 -0.335304 3.05422
-0.598619 0.771367 3.00987
-1.36655 -0.737465 3.19437
-0.733823 -0.704171 3.23493
-0.676482 0.847659 2.87164
0.0715039 -0.293228 3.07416
1.40918 1.1135 2.64377
-1.41613 0.135449 3.04225
-1.43425 -1.11624 3.26425
-1.16672 0.485675 2.88341
0.645463 -0.658339 3.1964
1.49193 0.74671 2.6634
1.66713 -0.244386 2.91032
-1.11943 0.106503 3.09988
-0.430814 -1.62869 3.54497
-0.721197 0.464408 2.95191
0.255958 -1.18945 3.62764
-0.727525 0.751696 1.84181
0.350808 -0.379241 3.10202
1.37123 -0.731277 3.02053
1.35835 -1.23023 3.34916
-0.519305 0.750823 1.94123
-0.762215 0.751966 2.92357
1.27798 0.375953 2.88181
0.233136 0.0233648 2.97676
-1.52528 -1.15803 3.25015
-1.05571 0.103471 3.04525
-0.554874 0.465196 2.94755
-0.850733 -0.761108 3.30004
1.66034 0.724552 2.58531
0.0653059 -0.336018 3.06113
-0.269153 0.800621 1.9627
1.27063 0.0585626 2.85284
1.80564 0.405721 2.81902
0.542769 -1.20449 3.53334
0.372463 0.807586 2.98752
0.443992 -0.694445 3.19068
1.0064 1.13836 2.87009
0.136132 -0.291261 3.05784
0.783152 -1.101 3.36419
1.6578 0.471203 2.64018
1.27849 -1.75257 3.81587
0.727216 0.172603 2.9627
-1.10092 -0.256696 3.1068
-0.749816 -1.59897 3.37783
0.835235 -0.647636 3.1439
-0.864208 0.650971 2.12042
-0.584989 -1.06713 3.38618
-0.0626824 0.131708 2.96043
-0.989875 -1.49344 3.37304
-0.385171 0.496794 2.95548
0.987697 -0.205338 2.9633
-0.687252 0.785873 1.85796
0.0993961 -0.621103 3.2074
-1.22703 -0.591535 3.2415
0.459755 0.881261 2.99193
-0.791346 0.671186 1.99848
-1.47483 -0.168792 3.07911
1.24164 -1.54696 3.60193
1.37844 0.240318 2.85933
-0.493528 -1.00532 3.34213
0.0984146 0.606122 2.99183
1.08333 -0.50453 2.96664
0.492641 0.955974 2.96371
-0.671797 -0.128254 3.02506
-0.24172 -1.45256 3.48169
-1.00525 -0.941423 3.25379
0.924862 0.214688 2.95418
0.51685 0.552858 2.90686
-0.429135 0.758749 1.89088
1.17149 0.767293 2.82027
1.06464 -0.355774 2.96233
-1.50866 -1.19773 3.28242
-0.813854 0.440422 2.97811
-0.0153453 -0.772987 3.23485
0.744516 0.068299 2.94107
0.205683 -0.326525 3.08247
-0.191754 0.782054 3.01102
0.773411 -0.718248 3.18948
0.657063 1.13027 2.90682
-0.0596664 0.0317869 2.95339
0.000323647 -1.20806 3.4269
1.59619 0.366364 2.72628
1.06713 -0.269829 2.92977
1.15793 -0.653996 3.03478
0.419812 -1.20026 3.561
1.34436 -1.70499 3.6451
0.139196 1.18666 2.87781
-0.179468 0.868285 3.04902
-0.508999 0.4704 2.92912
-0.15552 0.106514 2.98543
1.10526 -1.65417 3.63387
1.66809 0.168948 2.81672
1.15249 -1.08146 3.35198
-0.328858 0.553383 3.01501
-0.943742 -0.642427 3.17365
1.14423 0.867094 2.8004
1.3575 -0.221329 2.85019
-1.34837 0.147719 3.04853
-0.613599 -1.51426 3.43661
0.816909 -1.01937 3.27803
1.26941 0.496832 2.87517
0.34845 -0.597245 3.13464
-0.0469989 0.912963 3.05828
-0.0203815 -0.199756 3.05
1.75565 -0.900074 3.02487
1.78614 -1.9333 4.00431
1.16378 -1.61767 3.78985
-0.0308807 0.263785 2.93121
-0.0430978 0.658989 3.21376
0.664478 -0.155474 3.00284
0.765817 0.979133 2.88266
-0.6522 -0.584731 3.27963
-1.41335 -0.917489 3.2097
1.48388 0.52989 2.73327
0.760992 1.20045 2.83382
-1.25083 -1.33106 3.20659
-0.43729 -0.113615 3.01971
1.4708 0.216053 2.8671
0.751792 -0.517434 3.12504
0.783807 0.94556 2.90815
0.0868501 -0.64808 3.20223
-1.03688 -0.241835 3.12115
1.47797 0.815466 2.63357
-1.27487 -1.43238 3.14378
0.899916 0.539068 2.93819
1.15721 -1.0468 3.24718
-1.19438 -0.199191 3.07657
1.71874 0.16528 2.74964
1.67914 -0.537042 2.82207
0.14974 0.88834 2.97519
0.926302 -1.01094 3.26198
-1.18664 0.142147 2.93961
-0.482917 -1.52021 3.4517
1.68678 0.481805 2.78926
0.705932 -0.155491 3.00638
1.06697 1.16663 2.75487
-0.0271961 -0.563026 3.15733
1.65644 0.53755 2.76995
-0.373501 -1.01154 3.39509
-0.093094 0.985472 3.01898
1.26005 -1.60858 3.7714
1.72382 0.207858 2.7579
1.01677 -1.44326 3.48652
1.13326 0.634977 2.91072
0.4288 -0.944194 3.31167
1.34662 0.283128 2.84458
0.269628 -0.516256 3.13379
-0.16935 -0.113432 3.02744
0.381569 1.04633 2.96818
0.12989 0.262255 2.91814
0.60472 -0.905684 3.31177
1.16145 0.585885 2.8623
1.07018 -1.40396 3.49597
1.01876 0.955122 2.81238
1.22547 -0.0689222 2.81849
1.30909 -0.447726 2.91423
0.264207 -0.862869 3.29287
-0.5189 0.746522 3.01924
0.546851 -1.39837 3.58304
0.00869254 1.10147 2.91644
0.762622 -0.0391111 2.94503
0.772922 -0.00484265 2.9626
-1.19662 -0.447164 3.16909
0.879275 0.361052 2.94521
1.61431 -0.35918 2.78987
-1.38383 0.325945 2.94851
-1.00376 -1.29435 3.43142
0.721026 1.04708 2.87069
-0.351321 -0.83822 3.3713
0.0609678 0.731739 3.14512
0.638908 -0.112338 3.00541
1.56856 0.916987 2.6072
0.463781 -0.526789 3.19942
1.46977 0.589916 2.70743
0.701373 -0.940731 3.30019
1.04481 -1.43025 3.45677
1.75746 0.281333 2.82924
-0.611116 -0.0733741 3.04289
1.44173 -0.435319 2.84827
1.56767 0.872525 2.57266
0.57243 -1.79568 3.72771
-0.963351 -0.901689 3.30409
-1.34209 -1.30396 3.24767
0.525092 0.256067 2.84461
1.40961 0.56054 2.74305
-1.34425 0.331656 3.01277
0.104159 0.695612 2.98897
-0.132206 0.898878 2.45117
-0.827306 -1.29438 3.32173
0.564933 -0.875127 3.34118
-0.123964 -0.441452 3.13667
1.30335 -0.0378326 2.85217
-1.3353 -1.2369 3.28474
-1.34659 0.398614 2.92313
0.101659 -0.815625 3.28085
0.370907 0.0318027 2.97493
1.67982 -0.349826 2.71714
0.735893 1.11372 2.86383
-0.328278 0.771508 2.95745
1.04234 -0.744699 3.11876
1.72268 -0.00291325 3.13949
-0.117566 -1.34768 3.69829
-0.42657 -0.379315 3.17984
1.70617 0.33354 2.73006
0.402908 0.752094 3.04306
0.567844 1.10374 2.92374
0.157158 0.857113 3.00842
-1.15166 -1.14483 3.25009
0.276705 1.21691 2.95017
1.04023 0.104507 2.90191
0.601531 -0.321816 3.03684
1.37642 0.455784 2.84375
-0.0656383 -0.729709 3.24977
-1.02563 -0.699172 3.24825
-1.06334 0.424032 2.84526
-0.169983 -0.278151 3.03864
0.90429 0.0717429 2.94309
-0.84247 -1.60715 3.43631
0.0443607 1.14484 2.84704
0.568204 -1.18727 3.52189
1.55962 0.717291 2.63841
0.0624491 1.14217 2.92676
-1.33583 -0.407268 3.16522
1.51514 0.687524 2.64072
0.326575 -0.831026 3.34508
-1.01901 0.395493 2.89895
-1.1765 -1.21364 3.22342
1.51482 0.0311638 2.91999
0.311736 -0.370563 3.10106
1.52947 0.662645 2.68365
-0.52277 0.736385 1.94716
-0.927936 -0.784939 3.2911
-1.39257 0.370728 2.99166
0.437645 -1.2881 3.53861
-1.43178 -0.000495226 3.06305
1.28582 0.0681829 2.82587
0.907225 0.443199 2.96215
1.66698 0.723854 2.66349
0.923845 1.1193 2.78832
-0.0398397 -1.21774 3.46164
0.0126665 -0.72207 3.21486
-1.36648 -0.331335 3.14438
-0.823887 0.526509 3.02555
-0.0347961 -1.7017 3.64334
-0.651765 0.142753 2.94768
0.677003 -1.1578 3.43551
-0.532372 0.782263 1.84364
0.627273 -0.683172 3.1825
0.645735 0.886198 2.97007
-0.0516139 -1.7257 3.59165
-0.0202976 -0.278072 3.041
1.25521 -1.04279 3.23314
0.886806 -1.7488 3.84229
-1.48561 0.119885 3.21192
-0.678286 -0.237347 3.0674
0.659257 0.474237 2.94082
1.25404 -0.612761 3.03325
-0.872695 0.819204 2.86002
-1.19161 -0.627555 3.29949
-0.888507 -1.04471 3.3707
-0.176107 -0.196281 3.0431
-0.416473 -1.49726 3.39847
-1.4164 0.227074 2.96892
1.30752 0.889741 2.72916
-0.916441 0.626683 3.20636
0.325539 1.20756 2.92887
0.75754 -0.554245 3.11153
-0.759738 0.672058 2.16118
1.46338 -0.145421 2.81031
1.74719 -1.5755 3.69298
-1.30095 0.185479 3.03415
0.453121 -1.01892 3.423
0.942208 0.535389 2.9199
0.167705 -0.277839 3.04111
1.25758 -0.649371 3.02773
-0.10884 -1.15174 3.42604
0.883448 -1.72314 3.68907
1.01256 1.13345 2.75153
-0.587475 0.83778 2.92559
-0.318269 0.487573 2.99846
-1.38658 0.11346 3.06803
1.19157 -1.72049 3.78542
-0.188324 0.180339 2.95792
-0.603086 -1.07551 3.34163
1.65088 0.516 2.8104
1.31649 -0.584585 2.89368
-0.660311 0.643844 2.07188
0.301659 -0.233006 3.02948
1.66074 0.136278 2.81347
-0.069512 -1.59214 3.6158
1.50937 -0.945433 3.05857
-0.601369 0.518775 2.98018
0.510378 -0.610888 3.22056
1.41348 -0.17744 2.75547
1.0811 0.851396 2.85478
-1.09936 -0.978314 3.29066
0.910603 0.60365 2.93619
-1.75242 -1.50668 3.52295
1.48697 0.259154 2.8934
0.65756 1.21443 2.86004
-0.662929 -0.153926 3.0113
1.23231 0.944261 2.77357
-1.35082 -0.568833 3.20878
0.833837 -0.935663 3.28224
0.481424 0.571914 2.93006
-2.22286 -1.91424 4.61209
0.794056 -0.110119 2.95605
-1.13335 0.23033 3.03232
0.495267 -0.52065 3.1636
-0.397974 0.687336 2.10255
1.59253 -0.44361 2.89747
0.449992 0.690188 2.96576
-0.414651 -0.0716291 2.9829
0.36696 1.08568 2.96589
-0.992329 -1.3843 3.44931
-0.297189 -0.913483 3.34793
-0.0241216 -0.443822 3.15346
-0.839929 0.323457 2.93842
-0.177028 -0.0373231 3.0087
-0.701837 0.695171 1.9694
-0.754691 -1.34779 3.45951
-1.33791 0.302059 2.99869
1.02082 -0.862412 3.29229
-1.27343 0.627306 2.86019
-0.172361 -0.154625 3.02864
0.325122 -1.73743 3.61732
0.0369767 -0.561876 3.16857
-0.0966351 -0.992941 3.34527
-0.988933 -1.43148 3.35911
-0.334971 0.905175 2.75641
0.967695 0.570814 2.92883
-0.530944 0.225604 2.95645
-0.306559 -1.41297 3.41689
-1.11508 0.296229 2.94558
1.4856 -0.818871 2.8753
0.584328 -0.521117 3.1661
-0.511634 0.660431 3.01095
-1.1663 -0.115005 3.10445
-0.624831 -1.35987 3.3891
-0.515825 0.2726 3.00145
1.64687 -0.801585 2.94002
1.22187 0.583105 2.83573
-0.374512 -0.484511 3.18052
1.2844 0.95693 2.81149
-0.268165 -0.0726479 3.02033
-0.114588 1.05108 2.97252
1.40172 -0.775531 2.96788
-1.26513 0.366227 2.96374
-0.631797 -1.30762 3.35681
-0.54958 0.000296816 3.01177
1.17708 -0.0351672 2.8734
-0.345348 0.751259 1.98674
1.11431 -0.417081 2.97276
0.892479 -0.791045 3.18585
-0.381255 0.324432 2.94717
-0.0872777 -1.31123 3.49137
-0.067887 0.731483 2.94309
1.25729 1.00827 2.75779
-1.22336 -0.408901 3.18298
-0.931557 0.683046 2.91463
-0.774378 0.728396 1.80994
0.919383 -0.356896 3.02087
-0.332742 0.819056 2.99728
0.944136 0.441865 2.95223
0.919211 -1.273 3.49903
1.45713 0.0708571 2.91166
-0.553896 -0.776251 3.26045
-1.01968 0.781145 2.98267
0.0471505 -0.726315 3.23562
0.381425 -0.330808 3.15676
-0.935606 0.0354016 3.02777
1.15505 1.06631 2.73664
-0.338069 0.401332 2.94339
1.43632 -1.1403 3.24759
1.41569 -0.0350858 2.85646
1.43687 -0.400313 2.8715
1.32601 -0.768846 2.96516
-0.435209 0.706984 3.02533
-0.357046 -1.34649 3.45917
0.255323 1.08919 2.96561
-0.199322 0.325311 2.95156
1.48296 0.402092 2.96384
0.250063 -1.33152 3.54371
1.03215 0.0348139 2.9187
1.81648 -0.718622 2.89799
1.25216 1.0724 2.75268
0.0479597 -0.395272 3.08623
-0.611421 0.775441 2.95921
-0.884292 -1.22078 3.35496
-1.43097 -0.738698 3.11342
0.250087 0.000540446 3.00758
-0.997576 0.362771 2.93461
1.14426 -1.99148 4.1434
1.2604 -0.34189 2.89286
0.33231 0.755098 3.04225
1.40872 1.00684 2.65687
1.51671 -1.15624 3.29278
0.864604 0.840925 2.94392
-0.597151 0.766165 1.85682
-1.24467 0.110645 3.00433
1.02159 -0.308399 2.97028
1.47428 0.44503 2.74473
1.23865 -0.671145 2.99611
-1.35188 -0.698047 3.25565
-1.04455 0.455039 3.02126
0.931159 -0.274431 3.01165
1.6623 0.0680138 2.74832
-1.12815 -1.57162 3.36836
-0.18173 0.787656 1.95993
0.232992 -1.17444 3.49271
-0.144888 0.806068 2.94696
-0.928299 -0.652682 3.23715
1.39358 -0.219828 2.86214
0.00628491 0.965448 3.1032
-0.532155 -1.57112 3.46863
-0.887719 0.564314 3.05421
-0.279149 -1.07064 3.32615
1.68757 0.169061 2.77719
1.75155 -0.183266 2.84637
1.04756 -0.568492 2.9957
-1.15347 0.825273 2.75824
-0.496384 -1.09502 3.5465
-1.10766 0.148883 3.00279
-1.52035 -1.37782 3.13657
-0.546681 0.51373 2.94933
-0.685127 0.0747446 2.98118
1.09114 1.16131 2.73517
-0.113633 0.443624 2.94609
-0.0225339 0.809472 2.95863
0.576381 1.1601 2.88194
-0.869667 -1.17189 3.33621
-0.681098 -0.7481 3.34367
-0.793737 -0.323376 3.13776
0.378273 -1.65947 3.55962
-0.557312 0.145141 2.94492
-1.28166 -1.09038 3.24527
-0.209039 0.508721 2.9273
0.466226 -0.673848 3.15335
1.41546 1.08035 2.54986
0.426884 -0.281059 3.11036
0.306176 -1.1206 3.48134
0.497315 0.10816 2.9407
-0.50421 -1.57777 3.48408
-0.966408 0.482029 2.95198
-1.24222 -0.236157 3.0997
1.33384 0.782196 2.73981
-0.920026 -0.675645 3.35563
-0.810227 0.669872 2.23719
1.46116 1.06325 2.57787
-0.303272 -1.00975 3.27457
1.27856 0.909033 2.781
-1.00389 -1.43993 3.28036
-1.10473 -0.197935 3.10014
-0.0799733 0.226792 2.96649
-0.940059 -0.591173 3.13087
-0.433232 0.552699 2.99205
0.352556 -0.556728 3.14424
1.7141 0.169753 2.78537
0.754171 -0.15227 3.00186
1.00497 -1.59878 3.7569
1.09615 0.564727 2.89416
0.196272 -1.03854 3.49923
-0.32342 0.942015 3.01875
1.04953 -0.48615 2.96014
-0.0833382 1.05638 2.9864
-0.206457 -0.110034 3.01419
0.748914 0.648181 2.95853
0.948114 -1.58548 3.83493
-0.0125023 -0.940983 3.3107
-0.599478 -1.63794 3.41396
-0.142328 0.296648 2.95177
1.12512 -0.068467 2.86838
-0.722106 0.677301 1.98327
-0.199826 -0.478008 3.13876
-0.313392 0.267912 2.95151
0.0732797 -0.893738 3.28797
0.331018 0.615394 2.97786
0.538209 -1.49926 3.73936
-0.135252 0.663331 3.05568
0.531708 -1.52751 3.66966
1.40247 -0.866203 3.02528
1.22625 0.283222 2.89761
1.34063 -0.481265 2.87342
-0.43551 0.703447 2.00425
1.10121 -0.111978 2.87083
0.678611 0.256718 2.95078
0.344919 -0.913272 3.30441
-0.540733 0.624136 3.06049
-0.945786 -1.4242 3.52432
0.0378816 -0.0776752 2.9976
-1.38883 -0.501134 3.22466
0.635395 0.990467 2.92262
0.786774 -1.68977 3.46735
-0.649193 -0.446636 3.12737
-0.845477 0.757027 3.08296
1.18965 -0.0428388 2.82422
0.0424449 1.09503 2.915
1.38515 -1.32823 3.39124
-0.797762 -0.0117115 3.03732
0.893526 -0.841396 3.20075
0.577879 -0.401198 3.06681
-0.622059 0.353608 2.92831
0.422853 0.682229 2.95635
-0.789312 0.685369 1.88309
0.42207 -1.31907 3.49459
-1.29193 -0.814937 3.26365
0.643868 0.317542 2.93542
1.16866 -0.3541 2.92204
-0.753276 0.734734 1.83953
1.48949 0.7151 2.64071
-0.908232 -0.80263 3.32356
0.073755 0.427061 2.92733
-1.3991 -1.1552 3.15007
-0.287088 0.0660777 2.97438
1.09795 -0.317335 2.92155
0.159759 0.791635 3.05763
0.357528 -0.738188 3.24523
0.286856 0.384904 2.90929
-0.81022 0.720405 1.85598
0.592701 -1.24949 3.52606
-0.797368 0.029885 3.04716
0.603374 0.102527 2.94544
1.35427 0.451209 2.84912
-0.227741 0.877534 3.10428
0.204551 1.20587 2.9376
0.919899 -1.75268 3.72131
-0.669073 -1.13659 3.3485
-1.1524 -0.715961 3.29683
-0.475087 -0.285882 3.05665
0.416465 -0.826512 3.31487
-0.849168 0.396445 2.97087
0.580134 -1.34958 3.5747
-0.26266 0.0292005 2.99093
-0.684084 0.727841 1.87889
-1.46785 -0.414422 3.1799
-0.8113 -0.81739 3.38829
-0.394789 0.35793 2.96343
-1.16282 -1.15247 3.14486
0.721286 -0.0104333 2.96203
1.33903 0.714906 2.76705
1.65516 -0.328427 2.71114
-0.254517 0.752512 3.06681
1.57819 0.987831 2.63616
1.04221 -0.692526 3.06507
-0.117031 0.858884 3.03501
0.310281 -0.336041 3.1163
0.658191 1.18937 2.89895
-1.29317 -1.13712 3.21202
0.924171 0.102679 2.93398
1.62585 0.423348 2.67119
1.64253 0.727605 2.68659
-0.941469 -0.708637 3.26082
0.531429 -0.279012 2.98887
-0.24105 0.0667419 3.00926
-0.805418 -1.61264 3.43394
0.556349 0.432973 2.96751
-0.947854 -1.06809 3.15732
1.1014 -0.228052 2.86435
-0.660286 0.740002 1.85281
-1.44302 -0.617731 3.03757
0.780946 0.889073 2.88669
-0.905462 -1.10513 3.39792
-0.158388 0.554572 3.04481
-0.0640654 -1.60284 3.51081
-0.526505 0.176798 2.94771
-1.15548 -0.204196 3.06009
-0.775188 0.751941 1.77579
0.382267 -1.76219 3.63024
-0.562816 -0.59126 3.06875
1.02318 -1.04882 3.34184
0.874568 0.137074 2.93861
-0.801933 -1.46752 3.32338
-1.12502 0.500234 2.91977
1.3222 0.208688 2.83934
0.365984 0.886824 2.98142
0.827145 0.561395 2.92178
-0.43449 0.68121 2.10238
0.800841 -1.7307 4.0448
1.03803 -0.978053 3.26664
1.27946 -0.532802 2.96312
-0.86055 -0.16379 3.08362
-0.747619 -1.14001 3.36715
-0.282771 0.506163 2.95952
0.265908 -1.67495 3.57254
-0.979127 0.140276 2.97323
-1.29742 -0.29387 3.1686
-0.712109 0.755814 1.78536
-0.483351 -0.696127 3.21011
0.882323 0.870357 2.92701
-3.40985 1.10839 7.05097
0.594394 -1.10332 3.39936
1.56281 0.0971886 2.78429
-1.44184 -1.44751 3.17055
-0.192083 -0.242011 3.06343
0.435435 1.18812 2.88833
-0.267849 -0.649072 3.19081
1.07234 -0.574853 3.00027
0.818928 0.825966 2.92339
0.681136 -0.198112 2.98699
0.0818647 0.978902 3.01431
-0.519114 -1.48407 3.36243
1.00729 0.564052 2.93695
-0.793704 -1.07357 3.42589
-0.507965 0.219717 2.95562
0.996742 0.889574 2.89021
-0.757203 -0.161174 3.03949
-0.675595 -0.586154 3.27025
-0.332778 0.177825 2.97182
-1.50556 -1.40599 3.29002
0.0745522 0.540222 2.95928
1.15077 -0.993567 3.31886
-1.31677 -0.118469 3.07798
1.39295 -0.485941 2.90148
-1.26338 -0.92816 3.23872
-1.2895 -1.32597 3.18745
1.41657 0.912336 2.69619
0.20663 0.596531 2.927
1.60051 0.248142 2.85139
1.38941 -1.35308 3.35418
0.276272 -0.915502 3.32321
-1.19621 0.323894 2.9633
0.144133 -0.48129 3.10342
-0.622364 0.698323 3.0119
0.604232 -0.0766073 2.96351
-0.533767 -1.3281 3.39309
-0.0884067 0.292025 2.9608
1.04839 -0.867842 3.29905
0.61776 0.649572 3.00106
-1.07827 -0.441981 3.11931
0.102733 1.0732 2.94713
-1.27447 -0.0439039 3.06204
0.219341 1.0633 3.02341
1.35445 -0.908674 3.04213
1.67224 0.876637 2.5923
-0.733331 -1.48867 3.48526
0.790851 -0.158662 3.00912
-0.219651 0.259975 2.95631
1.27884 -1.88716 3.89565
0.152938 -0.566448 3.16153
0.659961 0.576049 2.98246
0.891817 -0.512122 3.07703
-0.0339342 0.221959 2.94619
-0.265336 -0.114731 2.9889
-0.924641 -1.43222 3.44556
1.73306 0.568071 2.7995
1.37875 0.867788 2.67816
-0.261765 -0.970935 3.39212
1.13876 -0.451304 2.91776
0.691125 1.04944 2.88475
-1.33708 -0.078778 3.11822
0.583849 0.696666 3.00591
-0.691931 -1.3756 3.41391
-0.793574 0.324283 2.97735
0.839108 -0.905912 3.29037
-0.246468 -0.0438081 3.04055
-0.756082 -0.440747 3.10738
0.104118 0.286694 2.90607
1.23226 -0.828118 3.15016
1.10085 0.626732 2.89951
-0.136784 -1.38863 3.55018
0.625623 1.02035 2.90358
-0.992157 -0.405027 3.1138
0.634416 -0.802734 3.21894
0.882914 -1.39593 3.70078
-0.731707 0.710855 1.88935
1.60424 0.658284 2.68736
-0.059951 0.358566 2.96774
0.813634 -0.0107261 2.93409
-1.09989 -1.11925 3.05445
0.145485 0.0660896 2.94799
-0.271654 -0.797999 3.31306
1.55028 0.368731 2.51853
-1.28714 0.787095 2.88478
1.73561 -0.336602 2.76853
1.60373 1.02462 2.57162
0.509875 -1.30445 3.6904
0.476141 0.0291276 2.95013
-0.255538 0.388331 2.91009
1.48186 0.68325 2.64521
1.45817 -0.684239 3.02539
-0.632806 0.740412 1.91032
0.433757 -0.333252 3.09507
1.42759 -0.773165 2.94446
0.140172 0.743235 3.01858
0.788403 -1.36992 3.5035
0.850995 1.07295 2.85092
0.315597 -0.042304 2.9679
-0.213365 -0.00843039 3.02938
0.0273179 -0.440797 3.11271
-0.00545806 0.35636 2.95003
-0.541225 -0.40745 3.13211
-0.602718 0.318097 2.91674
0.998082 -1.3447 3.56363
0.766365 1.03815 2.85363
1.16076 -0.782431 3.13769
-1.1752 0.669973 2.87673
-0.623959 0.749566 1.87268
-0.995687 -0.377285 3.13443
-0.822127 -1.23372 3.36616
-1.10938 0.416761 2.82959
0.329948 -0.794814 3.31417
1.77401 0.0629644 2.7821
1.40148 -0.304743 2.83347
1.71463 0.703192 2.72279
-1.34774 -0.733251 3.24578
-1.00695 0.794323 2.91261
