ply
format ascii 1.0
element vertex 1850
property float x
property float y
property float z
end_header
0.779095 -1.94582 3.63847
1.62242 0.0268328 2.71121
1.77197 -1.08201 3.19247
-1.13093 0.781941 2.96833
1.00777 -2.61651 3.63691
-0.590815 0.00917757 3.08374
-0.691887 0.725765 2.9626
-1.18682 -0.725379 3.18959
1.643 -2.623 3.73943
-0.358847 0.982415 2.70355
1.6152 -0.656585 2.9297
-0.24072 -1.46921 3.54532
1.54077 0.0672601 2.71107
0.677759 -1.84391 4.01166
1.95123 0.115706 2.62786
1.66587 0.954904 2.85293
-1.25399 -0.678596 3.31223
0.0728616 0.781352 3.00752
0.879717 -2.12649 3.56047
-1.0266 -0.207718 3.12865
1.59721 -0.153427 2.79252
2.44748 -0.539673 3.45667
1.42423 -0.853798 2.92747
1.06356 0.576886 2.87766
1.92581 0.548653 2.63096
1.13352 -0.0994315 2.75209
0.381731 1.28157 2.92468
-1.282 0.0186858 3.10329
-0.0571431 -0.910928 3.33494
-0.647599 0.592873 3.10085
1.88528 -1.03488 2.90156
2.64587 -0.395707 2.93413
1.60286 0.623981 2.65189
-0.819219 -0.593356 3.23851
-0.706077 -0.0674507 3.10115
1.52623 -0.773083 2.95664
0.858045 0.618018 2.9006
2.5501 0.0280735 3.00987
-1.38956 -0.022546 3.11351
0.165048 -1.25663 3.52552
1.51106 -0.735719 2.92534
1.19498 -1.27342 3.39011
-0.830751 0.183876 3.33291
-2.54676 -1.9648 5.52484
0.637796 0.481303 2.8869
0.61025 -0.266344 2.93762
1.24259 -1.84155 3.60919
-0.790044 0.735677 2.37372
-0.100325 0.463857 2.94124
0.482309 -1.08586 3.44794
0.119438 0.0892839 2.74659
-0.411878 0.772542 1.87237
0.482444 -0.216683 2.96784
-0.0283207 -0.0719222 0.832015
0.925258 -2.25898 3.62037
1.4767 -0.886608 2.87416
0.0934668 -0.187219 2.99469
-1.28686 0.532451 2.87086
1.69859 -0.432017 2.75305
0.853871 -1.96221 3.576
0.157228 1.27766 2.89569
-1.09533 -1.01986 3.2439
0.441606 0.495201 2.87264
-0.295223 -0.230497 3.10318
-0.5806 -0.718494 3.31847
-0.611645 0.896036 1.86309
-0.109898 -1.00922 3.45538
1.12158 0.468339 2.87148
0.795674 -1.65213 3.79174
0.925709 -0.19785 2.90929
-0.232859 0.814696 1.92897
0.122524 1.30199 2.75433
0.92319 1.39856 2.6622
-0.025133 -0.973733 3.34383
1.79809 -0.151574 2.80707
-1.33571 0.566818 2.89898
1.18637 -2.49621 3.55193
1.91784 -0.584807 2.96762
1.0609 1.23179 2.73701
-0.756424 0.7275 1.87359
1.09592 -0.352314 2.89112
1.93669 -2.66466 4.10394
-0.753038 0.40207 2.98004
-0.383191 -1.3004 3.54263
0.617897 1.05201 2.87429
0.0930861 -0.350132 3.06545
-0.188083 1.19395 2.95824
-0.652621 -0.0676904 2.1562
-1.23118 0.374537 2.99753
2.03728 -2.21293 4.13834
0.507525 -1.26911 3.61149
2.55743 -0.413819 3.12895
2.15385 -1.89508 4.50491
0.920145 -0.282129 2.95506
1.36608 1.07383 2.61392
-0.936468 0.0353734 3.08412
2.07121 0.395034 2.85373
-1.03941 -1.12605 3.35592
-0.89464 0.478543 2.95742
2.70464 -0.326433 3.65642
0.831089 -0.280929 2.98745
1.63044 1.00126 2.49048
-0.299991 1.03031 2.8438
0.269795 0.40991 2.87168
0.0412848 -1.11607 3.42475
-0.377976 0.105825 2.99571
1.63132 0.259212 2.63582
1.35248 -1.41568 3.43461
-0.0513549 0.543199 1.31693
-1.24316 -0.51912 3.25903
-0.483358 0.708318 2.00791
2.41157 -0.630413 3.55754
0.36249 -1.29279 3.36273
1.29952 0.235009 2.8114
2.3779 -0.144759 3.09762
-1.03961 -0.456131 3.10287
-0.512979 0.695874 2.03742
-1.1226 -1.25301 3.33821
2.16462 0.425644 2.61888
-0.275038 0.0143396 3.00719
0.794645 -0.42547 3.01396
1.95339 -0.170515 3.08095
1.93531 -1.93623 4.10705
2.40538 1.01723 2.9253
1.43536 0.283028 2.78036
-0.386385 -1.33453 4.16
1.59319 0.93996 2.58217
-0.126395 -0.916725 3.38389
0.0400699 0.8582 3.06853
-1.4203 -0.653552 3.11978
1.3249 -2.04882 3.46728
0.336605 0.138566 2.92735
0.0923901 1.35125 2.87597
1.14733 -1.66788 3.58538
2.23163 0.605834 2.72297
0.318713 0.819516 3.00069
-0.480791 -0.636088 3.34249
1.56932 0.428787 2.69223
0.182023 0.0988869 2.90494
1.49051 -1.61079 3.54077
2.09654 -1.31497 3.56341
1.51727 -0.51456 2.79743
2.08961 0.0110404 2.85984
-1.32521 0.24053 3.06117
1.29886 -1.54727 3.61622
0.0470405 1.30302 2.88093
0.296269 0.94882 3.00195
1.41813 0.795662 2.6494
2.84505 -0.98664 3.1319
0.925959 -1.53649 3.62243
0.80499 -1.71411 3.57167
0.992007 0.153199 2.80061
-0.362595 1.41212 2.93686
0.554691 -1.45325 3.58614
0.357244 -0.53418 3.14219
1.54517 -0.439507 2.86792
0.0882264 0.294229 2.87245
-0.0209377 0.930456 2.26333
1.58307 0.862161 2.59547
1.28784 -1.39729 3.53308
0.413889 1.01459 2.90379
2.54566 -0.0873803 3.26472
-0.188448 1.05495 2.77586
0.560356 -1.33748 3.53734
1.22949 0.945594 2.73179
0.193635 0.269459 2.89236
-1.32449 -0.426874 3.16585
1.01383 1.01177 2.44108
2.21795 -0.790479 3.34328
1.04153 -1.1838 3.22734
0.839407 1.2151 2.76212
1.64313 0.35965 2.68127
1.12804 -1.74301 3.93868
0.614825 -0.374251 3.02577
2.28422 -0.876966 3.2956
0.0337146 1.06967 2.87578
-0.0961607 -1.34307 3.7919
2.17262 0.89064 2.92686
0.227302 0.339303 2.90754
3.09656 -0.921801 3.13832
1.21313 -2.15779 3.84048
0.151071 1.05602 2.94651
-1.18231 -0.352828 3.12717
-0.0209675 0.626091 3.00941
-0.0598471 0.886101 3.03012
1.65296 0.599875 2.63456
-0.956475 0.187284 3.05116
0.64932 -1.61359 3.65
0.817332 -0.565185 3.10422
-1.44933 0.0988766 4.04271
0.846731 -1.5071 3.45877
2.19883 0.383804 2.61704
-0.600288 0.665586 1.9832
1.07208 -1.54547 3.50697
0.95575 -0.532709 3.00406
0.138462 0.25176 2.90019
1.65355 -1.93262 3.79868
0.125714 -1.52381 3.68945
1.11964 -0.461155 2.92344
1.51269 0.844553 2.61094
1.50975 -2.24846 3.4227
1.47039 -1.38307 3.37603
2.85913 -0.746388 3.11832
1.38781 0.190322 2.8357
2.37618 0.182557 2.86366
-1.38691 -0.786558 3.32934
-0.237162 1.31917 2.93399
-1.46054 0.0835233 3.20479
0.543886 -1.46401 3.56752
0.293631 0.746086 2.91163
-0.0742749 1.34839 2.89815
-0.957952 0.0432359 3.04365
0.167977 -1.25832 3.52563
-0.496649 0.784308 3.0749
0.256384 -0.713654 3.27019
0.801951 -1.72226 3.75582
0.981876 0.112307 2.80976
1.02215 -1.51803 3.53415
-0.560171 0.914472 2.86524
1.14343 -0.616379 2.95222
-0.445489 0.856851 3.01553
0.0926058 0.565299 2.94957
-1.25294 0.0726855 3.08816
0.694011 0.0921131 2.85295
0.167188 -1.58277 3.60496
-0.160817 0.527174 1.46593
2.49079 -1.06484 3.17772
1.46093 -0.568192 2.82083
-0.836321 0.845511 2.93985
0.96935 -1.41204 3.47391
-1.03388 -0.0371786 3.10461
1.11546 -0.110112 2.77098
-0.198873 0.628938 3.00034
1.1879 -1.67601 3.65293
1.23891 -0.882243 3.13273
1.22702 1.28607 2.97301
0.370982 -0.0659072 2.91886
-0.247488 -1.64085 3.56192
-1.02443 -0.873367 3.34811
0.460155 0.567297 2.91479
1.53444 0.262272 2.30669
-0.717998 0.156358 3.1763
0.581677 0.705457 2.97827
-1.07993 -0.392527 3.14548
-0.72114 -0.0533415 3.13222
1.26213 -1.68377 3.53199
0.537622 -0.00034084 2.91998
1.77136 0.79508 2.58066
-0.943948 -0.987872 3.80054
1.25738 0.627495 2.77514
1.49598 1.04142 2.71954
-1.0156 0.365925 3.02973
-0.549391 -0.844706 3.48615
1.75851 0.907162 2.54349
0.0454045 -1.47405 3.64222
-0.275648 0.247118 2.96417
1.19158 1.21234 2.58629
0.236234 0.973066 3.0214
0.88927 -0.53382 3.03879
0.745731 -2.71483 3.76421
-1.19915 -1.35146 3.4139
-0.869336 0.229103 3.01951
-1.08231 0.288181 3.52947
-0.660486 -0.506212 3.25966
0.69172 0.92246 2.90138
0.626101 -0.401086 0.777847
1.35018 -1.40016 3.4969
0.0622167 0.990132 2.93589
2.22438 0.187086 2.87643
2.30774 -1.10375 3.26659
-0.96651 0.304425 3.01314
2.45281 -1.56331 3.20773
0.126516 -1.71044 3.62312
-0.0590367 -0.481847 3.17053
2.27922 0.802996 2.88092
-1.03966 -1.29573 3.38423
1.14766 -0.668158 2.99384
0.695152 0.802997 2.94509
0.701254 -1.61508 3.89409
-1.01016 -0.690226 3.33343
1.17907 -1.92322 3.55232
-0.890371 0.119776 3.04553
1.38953 -2.14032 3.7668
-0.843293 0.829985 3.05153
0.909956 -0.655033 3.1588
2.39149 0.743055 2.85826
2.71967 -1.13533 3.15062
0.506229 0.0720816 2.86462
1.21501 -1.59853 3.48868
2.17568 -0.89391 3.20975
2.02334 0.0039151 2.86654
1.01229 -1.61143 3.60846
0.0354023 0.158676 2.89498
2.23447 1.03488 3.07859
1.53637 -0.567788 2.77316
-0.378241 0.900267 2.98419
2.00229 -0.826945 3.1054
2.74733 -0.4454 2.93239
-0.899308 0.151441 2.98334
-0.352644 -1.4632 3.42671
0.0625861 1.32381 2.8847
0.98566 -2.65484 3.61764
-1.14762 -0.597559 3.34151
0.166432 0.855745 3.00137
0.427644 -0.830601 3.2872
-0.429341 -1.30057 3.52938
1.02614 -0.0385323 2.87134
1.59427 0.0463106 2.41192
0.783957 -2.5904 3.69552
0.23901 -1.64298 3.58166
0.888207 0.647409 2.87319
-0.518315 0.916026 2.87685
1.23564 1.2637 2.60577
-0.0485927 1.11677 2.43854
-0.877039 0.768556 2.95347
-1.35356 -0.795949 3.30382
-0.929909 -0.294295 3.12303
-0.11012 0.0431444 2.96798
2.52525 -0.413382 2.96744
0.478411 0.694831 2.96541
0.566873 -0.745755 3.2208
-0.189367 0.0011291 3.02219
-0.52802 -0.260086 3.33471
-0.318966 0.66182 1.67571
0.495339 -0.174886 2.96753
1.52609 1.09894 2.5637
0.245266 -1.03792 3.48563
-0.150932 0.536195 2.86316
1.72415 0.920038 2.53333
-0.932602 -0.423604 3.14521
-0.293419 -0.150486 3.01077
-0.167099 0.878306 2.01452
-1.06562 0.225597 3.05005
-0.885029 0.194762 3.5912
-1.29082 -0.936824 3.25934
1.62074 0.496237 2.80077
0.546977 -0.914535 3.30726
2.47131 0.0548565 2.90983
1.43525 0.945946 2.63216
1.39724 -0.115791 2.71431
-1.30289 0.618041 2.80575
-0.669704 -0.915773 3.45078
1.56227 0.519176 2.64096
1.29645 -1.60285 3.46374
1.25936 -0.075971 2.74436
1.03804 -2.42838 3.22212
0.289953 -0.796764 3.34823
0.023635 0.0325674 2.91483
0.437868 0.717766 2.93573
0.987983 -2.79834 3.59835
0.919276 -0.731413 3.16065
1.746 0.000938911 2.74405
1.77455 -0.985844 3.12432
0.993785 0.691905 2.88016
2.32085 1.01318 3.15279
1.72136 -2.56129 3.63641
1.512 -0.0325874 2.21669
0.693055 -0.685489 3.17228
0.54669 -1.98779 3.57462
-0.930103 0.0788641 2.97526
1.9468 0.000106184 2.64448
1.52881 0.978253 2.83114
0.0450674 -1.52004 3.49634
-0.492705 0.804614 3.0314
-1.13307 -0.148107 3.1015
0.169382 -1.5719 3.57126
2.54456 -0.454936 2.99822
0.764478 -0.959931 3.2978
1.70609 0.914772 2.5432
0.406346 0.566023 2.78793
0.730278 1.20836 2.83735
1.54835 -0.881175 2.80403
-1.47177 -0.104986 3.20357
-2.80831 1.13414 5.80529
-1.09438 -0.00545494 3.93571
-0.852832 -1.64652 3.45334
0.120109 -0.924071 3.33181
-0.587247 -0.711606 3.316
-0.909192 -0.0592617 3.0917
-0.902768 0.0828997 3.0463
1.03893 1.4407 2.67313
0.985985 -0.878171 3.29367
1.24566 0.639341 2.80369
-0.131001 1.22856 2.90966
-1.99913 -1.05163 4.04714
0.0532653 0.711404 3.21791
-0.347034 0.906233 2.60468
-0.300025 -0.0410221 3.05129
0.980338 -2.41888 3.07609
1.08264 -1.129 3.4297
1.70026 0.457083 2.64536
-0.152792 -0.260792 3.04688
-0.370783 0.760643 2.17196
1.10223 -2.78616 3.80913
0.458606 0.435515 2.8635
-0.139961 -1.06002 3.46389
1.86442 -0.865034 3.16656
1.00155 -0.226927 2.88688
-0.190871 0.8113 1.96998
-0.61316 0.878672 1.86664
0.732512 -2.55599 3.95728
-0.681671 -0.106061 2.16375
1.20151 0.484922 2.79241
1.36928 -2.09176 3.66222
0.434749 -0.179238 2.98585
0.164764 -1.59613 3.57468
1.48683 -0.968361 3.22187
0.233981 1.40566 2.65687
1.30334 -0.382437 2.79148
1.47214 0.985833 2.6338
2.00025 -1.79979 4.36685
-0.268654 -1.32303 3.48688
0.685675 0.336726 2.89395
-1.00142 0.0128766 3.1031
1.38495 -0.349149 2.83084
-0.532851 0.713465 1.95112
0.550682 -1.86074 3.60653
1.12807 -1.77046 4.06299
1.45933 -1.25338 3.38065
0.179714 0.294387 2.90512
2.40174 -0.708199 3.40262
-0.50521 0.431255 2.96779
1.66363 -0.318352 2.7085
-0.192746 -1.20257 3.48802
-0.362835 0.77134 1.91824
0.0560785 0.68346 1.41155
1.4699 -2.3962 3.81659
-0.101657 -1.16258 3.46675
0.321883 0.369182 2.87285
2.08496 -2.23047 4.07428
2.62578 -1.00187 3.18261
-0.187045 0.792989 2.0354
-0.616379 -0.305644 3.09789
2.52451 -1.75569 3.54503
1.89323 -0.00822439 2.86209
1.69263 -0.360441 2.68343
0.715742 1.0553 2.84136
2.0416 -2.1079 4.82897
-1.32993 -1.215 3.30863
-1.34219 0.39804 2.93293
0.0830743 1.36106 2.62549
0.541856 1.03945 2.91819
-0.444533 -0.348823 3.22356
-0.0893188 -0.0276025 1.04241
0.760479 -1.09025 1.45344
-0.090772 -1.31386 3.72054
1.71434 0.327839 2.71842
2.63466 -0.713193 3.16703
1.37095 0.424638 2.79575
1.74133 -2.23107 4.70848
0.576716 -0.326601 2.98927
-1.15063 -1.12829 3.27064
0.264936 1.17297 2.96285
-0.0217702 0.963539 2.29977
2.59467 -1.03766 3.19534
0.58679 -1.16123 3.51693
0.0586072 1.09101 2.84351
2.643 -1.03726 3.87957
-0.182738 -0.263027 3.06345
2.60555 -1.11419 3.19409
-1.0465 0.424016 2.8659
1.06094 -1.39539 3.4551
1.76431 0.26948 2.78249
-1.22649 -0.379259 3.19348
0.461363 -0.530339 3.18245
0.754286 1.18012 2.80438
1.57472 0.895392 2.56463
-1.3385 -1.28067 3.27191
0.5126 0.231567 2.76788
1.97222 -2.45089 4.14952
1.44017 -0.443338 2.80669
1.57674 0.847479 2.53267
-1.14198 -0.591481 3.31255
-0.15244 0.901821 2.4534
2.51429 1.02088 2.85914
2.7434 -0.979369 3.1347
-1.33553 0.338641 3.03043
1.11206 -1.934 4.06853
2.56822 -0.680766 3.51212
-0.131086 -0.439382 3.12896
1.97919 -0.498084 2.78922
-0.81805 -1.27034 3.36777
0.627564 0.84783 2.94802
-0.069419 -1.70414 3.60473
2.1387 0.0772347 3.29394
0.614467 -0.667127 3.17393
-0.643994 0.140294 2.99018
2.04832 0.583864 2.662
1.52597 0.0475633 2.83079
-0.0445689 -1.67795 3.66283
1.24072 -0.608326 3.01066
2.0282 0.264721 2.68262
-0.867396 0.824219 2.87292
2.53119 -0.610514 3.51229
0.86958 -1.73536 3.82648
1.69619 -2.10539 3.43131
2.21373 -0.827452 3.27052
-1.47654 0.124126 3.22625
1.95557 -0.848655 3.11317
-1.41107 0.228334 2.98102
-0.4155 -1.47666 3.42654
-1.18711 -0.613309 3.3322
1.29422 0.862227 2.68817
-0.376637 1.06704 2.87906
1.53207 -1.52364 3.35216
2.72743 -0.639259 3.09216
1.751 -1.5723 3.68547
-1.29576 0.188305 3.04769
0.749049 -1.5816 3.62345
0.75059 -0.540091 3.09395
-0.777618 0.670276 2.17089
1.14731 1.20991 2.43704
1.49271 0.018706 2.87854
0.31428 -0.811477 3.34421
1.51473 0.668646 2.61083
1.06543 -2.60824 3.58589
-1.42728 0.00016425 3.07337
-0.913754 -0.77377 3.32641
-0.581157 0.557237 3.05168
1.52743 0.641122 2.65411
-0.348055 0.696871 2.19072
1.51048 -1.43358 3.36892
2.44626 -1.9768 3.43861
1.67135 0.704958 2.63033
1.87237 -0.372866 2.74365
1.26781 0.0453861 2.78133
1.88157 -0.292377 2.72144
0.0168199 -0.722645 3.216
-0.738893 0.169635 3.0988
0.154473 -1.771 3.59075
1.93691 -1.85517 4.0712
-0.923591 -0.641573 3.207
1.11699 0.820407 2.73677
1.61766 -1.99251 3.43847
1.08867 -1.60883 3.62993
1.68738 0.148566 2.76809
2.08295 0.214127 2.87995
2.27602 0.846421 2.91158
0.32527 -0.573365 3.14843
-0.047926 0.861851 3.08502
1.05022 -2.20259 3.97063
-1.34151 0.154134 3.06427
-0.616568 -1.48724 3.4722
0.754872 0.923236 2.84957
-0.635435 -0.577266 3.33306
1.54967 -1.91403 4.09186
1.21665 -1.45743 3.46154
1.17066 -1.59485 3.76784
-0.039756 0.245389 2.90871
1.67046 -1.92727 3.89652
1.79927 -1.89119 3.95516
0.738491 -0.502823 3.09798
0.767727 0.897799 2.88376
0.706708 -1.5077 3.56986
1.35579 -2.07948 3.48705
1.03722 -2.19449 3.84137
-1.24142 -1.3056 3.23616
1.45231 0.203503 2.81882
2.34281 0.766567 2.87409
-0.0188057 -0.750912 3.2563
0.720407 0.0549573 2.87548
0.242529 0.620814 2.97349
1.15865 0.722195 2.77445
0.858766 -1.74434 3.60191
-0.0881431 0.0232812 2.93847
0.773194 -0.691986 3.17929
1.30914 1.21039 2.66485
-0.172387 0.731838 3.04679
1.35715 -1.69859 3.62953
2.33174 -1.98958 4.05543
1.92152 -0.325363 2.72267
1.14867 -0.638246 3.00329
0.458864 -1.54476 3.58979
-0.183211 0.105694 2.98425
0.252604 0.782365 3.57391
0.826839 -2.60673 3.66758
-0.162157 0.815185 3.09286
-0.455105 -0.967702 3.42699
-0.189998 -0.107905 3.03567
-0.887219 -0.385068 3.14547
1.29234 1.26277 2.83712
0.409545 -0.919049 3.31812
1.62569 0.231455 2.73237
1.12621 0.601387 2.88118
1.72552 -0.500425 2.77644
1.19283 -0.095717 2.75894
1.14314 0.563894 2.82
-0.120119 -0.372294 3.08845
0.600167 -0.888364 3.29084
-0.0214953 0.62611 3.00744
0.744945 -0.0374454 2.87456
0.763066 -0.0118666 2.89835
1.70145 -0.722158 2.93682
-0.73048 0.0700135 3.22552
0.258523 -0.842019 3.28532
-0.507391 0.705804 3.08213
-0.0154778 0.656109 3.05948
-0.343698 -0.813461 3.41458
0.0619895 0.730719 3.14408
-0.13089 -0.0135899 1.01609
1.5365 1.14723 2.56485
0.258642 0.964764 3.63004
1.16645 -1.02096 3.22583
0.87576 0.511306 2.8892
-1.02914 -0.236158 3.16062
-0.647712 0.830512 1.85623
-1.06112 0.167983 3.74686
1.6885 0.461081 2.75835
0.936075 -0.99224 3.23311
-0.0760852 0.611015 3.04274
1.05241 1.12883 2.72201
-1.18417 -0.194534 3.10732
-0.381037 0.762095 2.06359
0.672537 0.505409 1.10624
-0.362543 -0.984886 3.42861
0.410262 1.47028 2.81831
1.65129 0.522022 2.73865
0.693794 -0.150691 2.94601
1.16572 -2.28203 3.20335
-0.782761 -0.800138 3.28582
1.22631 -0.649909 2.95461
-1.23187 0.113213 3.02226
-0.298814 1.03096 2.96473
0.454048 -1.97339 3.62155
2.09207 -0.775256 3.07302
0.846621 0.797829 2.92553
-0.131447 0.77191 2.97366
-1.12987 -1.56156 3.3845
1.98058 0.731688 2.73244
2.7028 -0.557581 3.03581
1.66977 0.0553009 2.70333
-1.33902 -0.684826 3.28819
-0.332452 -1.08143 3.48211
1.98662 -0.751046 3.09277
1.70195 0.140747 2.7294
1.24904 1.25014 2.68631
-0.533737 -1.55085 3.49246
1.26717 -2.0082 4.32766
0.00717192 0.919672 3.12952
-0.91141 -0.633164 3.29398
-1.51587 -1.3737 3.1454
-1.09134 0.152967 3.03802
1.03672 -0.55771 2.96309
0.979315 -1.39439 3.54239
-1.15179 0.822378 2.76707
2.0128 -1.1198 3.2845
1.58465 -2.67699 3.6567
1.32697 -0.743027 2.92183
-0.39907 0.687052 3.08992
0.336502 -2.02622 3.608
1.34596 0.873395 2.66948
1.39113 -0.0488167 2.80654
-0.676783 0.719221 2.25802
0.209003 -1.72478 3.59036
1.62776 -0.898012 2.93479
-0.668366 0.276647 3.12382
-0.595409 0.760351 2.99765
1.00497 0.0209097 2.84733
1.83081 -0.718928 2.86724
2.59674 -0.314817 2.99771
1.13718 -1.97206 4.11191
0.338757 0.720091 3.02185
2.12985 0.132473 3.04873
-0.121092 0.951232 2.03463
-1.42642 -0.730469 3.12907
0.215305 -0.0120243 2.97629
1.09848 0.535779 2.87625
-1.09966 -0.192273 3.13162
1.83672 -0.158512 2.75742
-0.223431 -0.924359 3.58494
1.2397 1.21603 2.72411
-0.288197 -0.98603 3.32084
0.182445 -1.02018 3.49861
1.76553 0.883561 2.55044
0.218592 1.33441 2.89277
-1.00733 -0.29644 3.11734
-0.90033 0.209445 3.48663
0.750031 -0.157586 2.9285
-0.401433 0.531432 3.07376
-0.263888 -1.67719 3.56021
-0.0100689 -0.909158 3.33036
-0.519008 -1.06474 3.46562
-0.23891 -0.939125 3.63616
-0.2115 -0.114457 3.00593
0.742756 0.612465 2.93387
0.321949 0.572955 2.95892
0.077666 -0.873802 3.28561
0.514218 -1.81733 3.90793
2.09636 -0.222788 3.02968
1.08636 -0.0767122 2.7917
0.833807 -1.59298 3.86571
0.571041 1.11262 2.87735
-0.12807 0.410769 2.95303
-0.685564 0.119172 2.49715
0.640952 -1.63866 3.74648
-0.791553 -0.312545 3.18363
-0.844635 -1.14354 3.39904
0.505121 1.40216 2.85777
0.391877 -0.272563 3.09002
2.68556 -0.552663 3.0308
1.41843 1.0769 2.54014
-1.27084 -1.06687 3.27616
-0.211721 0.48588 2.94595
1.46891 1.04993 2.54137
2.07695 -2.40601 4.30744
-1.23332 -0.228035 3.13098
-0.954325 0.481918 2.97312
0.300437 -1.09093 3.48534
-0.193227 1.17113 2.95758
1.76884 0.857282 2.55119
-0.636544 -0.15903 3.09788
1.49339 0.133375 2.83581
-1.071 -0.953616 3.34243
0.902566 0.559203 2.92046
-1.02546 0.369241 3.03198
0.754081 -0.117639 2.89375
-0.33422 0.763739 2.0732
0.853065 -1.63758 3.79874
-0.711941 0.504215 3.70018
0.839182 -0.913083 3.25958
0.471451 0.530735 2.87704
1.63729 -2.16458 3.43374
-0.28061 -0.887961 3.38995
-0.83136 0.136891 3.03538
-0.407819 -0.0800594 3.01555
0.782466 -0.939484 2.1317
0.446899 0.639456 2.95347
1.00472 -0.841895 3.27713
-1.26646 0.625776 2.87128
-0.933081 -0.45469 3.18594
-0.190036 -0.0488578 3.01475
0.807701 1.20938 2.78401
1.31383 0.987233 2.57797
-0.0851202 -1.11524 3.45027
0.633269 0.380722 2.89926
0.148392 -0.269141 3.00201
0.724144 -2.41664 3.63532
-0.317201 0.465854 3.04012
-0.317212 -1.20582 3.51651
0.978597 1.07257 2.69377
0.621465 -2.14166 3.69971
0.287925 -0.218791 3.00645
-0.635246 0.852292 1.86649
-0.0287197 -0.0968538 0.797301
-0.568703 -1.06317 3.38753
1.65225 0.51621 2.80705
-0.212756 0.49214 2.96918
1.40384 -0.187946 2.71142
0.628206 1.1528 2.85698
1.5208 -0.944444 3.02917
-0.574188 0.507432 3.04088
0.0725842 1.22106 2.38482
1.09505 -0.407708 2.92333
-0.39067 0.744753 1.99181
-0.217506 -0.915913 3.55239
-0.619226 -1.28202 3.40956
2.56931 -0.642787 3.41719
-1.25765 0.369735 2.97885
-1.21094 -0.397319 3.21537
2.72364 -1.00106 3.17642
1.23449 0.993941 2.72315
-0.987968 -0.00630516 3.10059
-0.0759481 -1.28266 3.52515
-0.384783 0.29881 2.98995
1.36364 -1.67513 3.89309
2.7263 -1.07793 3.16179
0.937503 0.40462 2.90285
0.917055 -1.25523 3.47508
0.899262 -0.341322 2.98242
0.817629 -1.55796 3.7609
-0.0106972 0.58643 1.27934
-0.791739 0.724279 1.81225
-0.343114 0.367744 2.96986
1.45592 -1.11741 3.22495
0.0160173 0.979387 2.14771
0.344625 -0.334951 3.14083
1.13813 1.03893 2.70311
0.995659 -1.96028 3.93488
-1.21527 0.349843 3.65119
-0.990569 -1.41516 3.37849
0.397427 1.02416 2.9681
0.0378314 -0.553234 3.15511
2.35796 0.859503 2.93661
2.71318 -1.07367 3.13227
-0.513972 0.21443 3.02869
1.70087 -2.57517 4.05487
-0.300159 0.885006 2.78705
1.93203 -0.520696 2.80849
0.151232 0.87134 3.04217
-0.100453 0.996467 3.00315
0.575447 -0.511258 3.15032
2.08245 0.33061 2.75452
-0.30668 -1.38611 3.45042
-1.09983 0.297048 2.96837
1.54959 -1.95753 3.45239
-0.375165 -0.469983 3.22752
1.26491 0.92672 2.77645
0.988646 -1.55542 3.59349
-0.623735 -1.3343 3.43393
-0.518559 0.257593 3.06192
-1.15247 0.260962 3.60098
-1.27887 -1.3069 3.21711
1.37622 -0.486771 2.85781
2.40402 -0.130546 3.04984
1.11845 -1.67942 3.67124
1.59423 0.234169 2.81285
-1.14371 -0.721887 4.40597
1.41024 0.882643 2.66878
0.196881 1.34978 2.90752
0.838237 1.20721 2.7639
0.119339 1.01568 2.95225
0.117104 -0.453944 3.08635
1.82797 -0.418792 2.73468
-1.18474 0.327168 2.98267
1.40229 -1.34184 3.32202
0.215096 1.01959 3.04102
1.19842 -1.66364 3.92222
-1.06954 -0.434863 3.15442
2.43347 -0.901762 3.25679
-0.531064 -1.30438 3.4362
-0.102543 0.269342 2.92492
-0.478298 -0.670519 3.26653
0.86711 0.83448 2.90161
-0.944875 -0.367989 3.1766
0.970182 -1.7381 3.6981
0.25096 -1.64456 3.59253
-0.97428 0.139631 3.00337
1.23905 -1.65268 3.47403
-0.257668 -0.626939 3.23596
0.809735 0.785099 2.89303
2.55245 0.117903 2.92909
1.57095 0.073629 2.74109
-1.4382 -1.4373 3.18643
1.6807 -1.9954 3.44345
1.04343 -1.95546 3.80877
1.05194 -1.54889 3.53291
-0.513848 0.205293 2.99447
-0.518926 -1.47975 3.36903
1.08484 -2.44917 3.82727
0.097163 0.942305 3.04112
1.05692 -0.564711 2.96736
-0.222756 1.10923 2.95753
-0.342593 0.159301 2.99787
-1.50522 -1.38454 3.3085
0.500725 -1.50868 3.58225
-0.670349 -0.566867 3.32899
0.98471 0.847942 2.85138
-0.17073 -1.446 3.53886
1.82696 0.286581 2.89412
0.639425 -0.79218 3.20474
-0.324878 -1.45015 3.54337
0.577999 -1.72722 3.64053
-0.270796 0.920094 2.4051
0.798848 -0.0248653 2.86853
0.129155 0.615135 2.98322
1.60905 0.637983 2.65583
2.27967 -1.51476 4.20641
0.668547 -0.884531 3.26672
1.32847 -1.40176 3.07655
-1.27801 0.786317 2.89602
-0.978504 -0.29109 3.11913
-0.272462 -0.790255 3.32123
0.134246 0.0500989 2.88726
2.71978 -0.976204 3.06096
1.48031 0.660298 2.61341
1.448 -0.67605 2.9974
0.44369 0.0164043 2.89204
1.27347 -1.85563 3.85182
1.72749 0.548471 2.76688
0.772551 -0.17057 2.95311
-1.04646 -0.646473 3.33748
0.626484 -0.727933 3.1955
1.37161 -0.878094 3.0184
-0.362264 0.914314 2.63936
-0.251883 -0.947916 3.41379
0.525574 1.2347 2.87789
-0.146357 -0.0532875 1.07426
0.161384 1.2337 2.90487
-0.275468 -0.124668 2.99893
0.646909 0.550205 2.91332
1.3792 1.08449 2.63678
0.834131 -0.884986 3.26808
2.10315 0.135827 2.85032
-1.08854 0.215524 3.85123
-1.33177 -0.078308 3.13209
0.584167 0.656932 2.97208
1.0869 0.603152 2.86573
1.33421 1.15415 2.63935
1.23725 -0.804237 3.11754
1.28676 0.984084 2.72185
-0.970452 -0.187678 3.10777
-0.249704 -0.0636667 3.05943
-0.304255 0.0650777 2.99448
-0.890995 -0.783536 3.38398
2.19733 -2.10716 3.72705
1.47872 0.677631 2.60232
-0.784436 0.0238139 3.10125
0.693732 -1.98922 3.57793
0.154799 0.748684 3.05159
0.35507 -0.721961 3.24679
-1.10897 -0.605024 3.30562
1.81059 -0.489662 2.74999
1.20936 -2.7296 3.53633
-0.206062 0.829627 3.14612
-0.475289 -0.869545 3.34242
0.580263 0.0887398 2.87032
1.82155 -2.35519 4.99907
2.55639 -1.64446 3.30961
-1.12491 -0.697337 3.34899
1.84255 -0.285202 2.82256
0.927924 -1.71992 3.70091
1.08648 -0.110487 2.82641
-0.0515423 1.13726 2.62315
2.46507 -0.758735 3.38554
1.39104 -0.844125 2.98298
-0.148969 0.646041 3.08354
1.25122 0.846707 2.71206
0.0280037 -0.0757517 2.97882
1.37322 -1.55522 3.36669
1.49695 0.113448 2.82402
-0.236116 -1.37472 3.56565
0.337809 -0.883161 3.32003
-0.528369 0.596439 3.1248
0.885175 -0.814885 3.17887
-0.928125 -0.133654 3.0946
-0.765558 -0.0222487 3.13323
1.13559 1.1821 2.71905
1.17052 -0.0570453 2.75245
0.803971 -1.68529 3.45602
-0.83746 0.751874 3.10987
-1.28083 -0.798533 3.29133
-0.000746578 -0.0531614 0.650221
-0.954901 0.661418 4.40324
1.17584 1.20898 2.62345
1.77802 0.98298 2.53545
0.431712 0.631073 2.9356
-0.890026 -1.07931 3.4523
-0.183383 0.520702 3.03659
1.82807 -1.91411 3.42866
1.07696 -0.228336 2.80725
-0.329225 0.894969 2.56584
1.43556 0.783472 2.48189
1.02998 -1.02134 3.32274
-1.10988 0.499104 2.93933
1.35892 -1.59359 3.46191
0.64231 -1.5494 3.51633
-1.15123 -0.199426 3.08633
-0.792549 0.747866 1.77808
0.898668 1.18234 2.78224
-0.152059 1.16691 2.95854
0.81905 0.522085 2.88449
-0.827259 -0.167786 3.16439
0.750851 -2.12987 3.54591
1.02258 -0.964012 3.24298
-1.46082 -0.407527 3.19917
-1.18699 -0.258073 3.14075
-0.711113 0.723728 1.8857
0.585238 -1.31761 3.58656
0.66047 -1.77052 4.01134
-0.84793 0.395275 3.00132
-1.06689 -0.126714 2.95932
1.58757 0.963087 2.59721
1.66584 -0.33626 2.68482
-1.1417 -1.12164 3.18288
1.21284 -2.73448 4.13762
-0.396515 0.332335 3.00667
2.77429 -0.670003 3.05579
1.62793 0.394828 2.6288
-1.28105 -1.11472 3.24187
0.2928 -0.325446 3.07442
0.631629 1.13396 2.89076
2.46503 1.01579 2.91112
1.51377 -1.73139 4.0792
0.534153 0.39538 2.90978
-0.939688 -1.05528 3.17782
0.781441 1.19239 2.40815
1.07723 -2.53347 3.80439
0.515597 -0.265168 2.98016
-0.696844 0.733035 1.8656
-0.309357 0.936619 2.71642
2.50926 -0.211488 3.01652
0.471717 -2.33988 3.57469
-1.15876 0.720471 3.12758
0.100327 1.33735 2.88583
2.56534 -1.16622 3.14827
-0.247807 -1.14689 3.5106
1.09765 -0.0521157 2.78986
-0.429927 -0.820155 3.33089
0.0153759 1.18812 2.85011
2.81339 -0.894152 2.99166
-1.00982 0.755728 2.92578
1.42962 -0.723063 2.94415
-1.05255 0.0346429 3.04201
1.06725 1.11825 2.47342
1.094 0.678858 2.85067
0.139553 1.24992 2.89215
1.33695 -0.692976 2.94926
1.58573 -0.911738 2.90462
1.04307 0.534884 2.88987
1.10855 1.23561 2.7272
-0.398833 -0.0145369 3.00269
-0.0785877 -0.195415 3.0428
1.196 1.17689 2.72349
1.76379 -0.502019 2.78645
-0.747837 -0.318702 3.13153
-1.09207 0.265476 3.66761
0.56652 -0.963655 3.30136
-0.649169 0.546229 3.05967
1.80557 0.527426 2.68345
0.564539 -0.162297 2.92013
-0.240387 0.895025 1.98875
-0.0566015 0.00652152 0.84119
1.53147 0.960594 2.67459
-0.112865 0.679054 3.16053
-1.44874 -0.878135 3.11168
1.46087 0.833181 2.62808
0.0397333 0.62664 3.00645
-0.726622 -0.11485 3.09191
-1.12287 -0.893063 3.37339
-0.777561 0.60293 2.98236
1.61822 0.668 2.72501
-1.09225 -0.0730341 3.21475
2.35209 0.0201152 2.93988
1.00767 -0.348508 2.89504
1.07291 1.02677 2.64691
1.61207 -2.93538 4.35976
-0.91308 0.432026 2.94896
1.00706 -1.7657 3.76913
1.60665 -1.14338 3.10874
0.167553 1.08511 2.93283
-0.868821 -0.320781 3.12725
-1.18943 -0.289533 2.98179
-0.67475 0.385918 3.08993
-0.204008 -1.16011 3.35127
0.695293 1.30334 2.84847
1.9809 -0.0902697 3.16298
0.200208 -0.278161 3.0211
-0.019376 0.866621 2.05224
2.32062 -1.23393 3.26422
0.0201556 1.20999 2.31709
0.276812 -1.21135 3.63757
0.181811 0.468147 2.90273
2.41667 -1.23437 4.00202
1.10551 -0.227676 2.80817
1.02031 1.09958 2.73294
0.212417 1.58369 2.74579
1.23475 0.418432 2.80695
0.903838 -1.04567 3.33508
2.53719 -0.454702 3.32941
-0.523797 0.307795 3.05153
-1.28091 -1.31675 3.36496
0.0537018 0.575919 1.37399
0.37807 1.03847 2.99677
1.13941 -0.435039 2.81145
0.898453 1.11007 2.44327
-0.798186 -1.31981 3.4961
-0.611031 0.262801 2.98996
0.633863 -2.18703 3.65842
0.271447 0.996871 3.026
1.55213 -0.40573 2.83013
-1.03541 -1.25548 3.476
2.26085 -0.105104 3.20478
2.81916 -1.23374 3.103
0.92145 -0.388415 3.06027
1.85386 -2.12974 4.52796
2.76554 -1.13723 3.1159
0.0888622 1.12166 2.34249
1.69762 0.292403 2.64682
-0.692261 0.708697 1.9142
2.28951 -0.372346 3.34099
0.63629 1.1197 2.85696
0.148677 -1.17261 3.55462
-1.20978 0.465291 2.93066
0.160937 0.197471 2.92417
1.2049 -2.34084 3.62374
-0.622794 -0.280749 3.11688
1.77056 -1.86023 3.34177
0.825719 -1.56084 3.79353
0.777307 -0.229727 2.97651
-0.514021 0.822693 1.891
-1.44091 -1.01354 3.16522
0.830775 0.506445 2.92502
-0.310587 0.795494 1.90381
1.38038 -1.6959 3.93646
1.12118 -0.191329 2.80617
1.14528 0.465643 2.81838
2.74903 -0.573841 2.8809
-0.050207 -1.02789 3.39711
0.019455 -0.428179 3.11011
-0.0151882 0.333558 2.91255
0.221793 1.48997 2.73004
0.790296 -1.34463 3.48885
0.82675 1.02076 2.80529
2.82499 -0.735877 3.09206
0.770197 1.22336 2.43326
-1.21958 -0.291701 3.16711
0.985648 -1.31351 3.55147
0.744943 0.990594 2.80975
1.65517 0.758752 2.61368
2.08117 -2.0529 4.66722
-0.529295 -0.39977 3.18864
-0.581086 0.298485 2.9858
2.17509 -1.79495 3.90532
-0.820246 -1.20964 3.40047
-1.09938 0.419196 2.84549
-0.412543 -1.42614 4.33936
-0.976105 -0.372717 3.17099
-0.648662 0.747234 1.87781
2.03808 -1.1272 3.4831
2.73198 0.77583 2.8089
1.18789 -1.12968 3.27609
0.0582511 0.358631 2.89482
1.48188 -2.60736 3.81364
2.7214 -0.371635 3.77257
-0.402854 0.752616 1.94618
1.39385 -0.305145 2.80255
0.708166 -1.51305 3.67827
1.39528 0.815568 2.61903
2.22947 0.425736 2.61505
0.723541 0.195042 2.8526
2.7358 -0.93686 3.13472
0.991751 -2.36318 4.06666
0.616411 -0.545647 3.11974
1.8361 -1.95979 3.7584
-0.567352 -1.43672 3.46314
2.35571 -0.123176 2.96884
0.342823 -0.501461 3.11906
0.63636 0.966893 2.87535
2.57825 -0.739043 3.40156
0.479486 0.266115 2.81509
0.583384 -1.60151 3.92804
2.30985 -0.225221 2.93422
1.42634 -0.442038 2.83165
0.788782 -1.74747 3.61393
-0.746513 0.672673 1.98539
2.36145 0.58872 2.76236
0.884809 -1.3885 3.51774
-0.733664 0.256821 3.05949
-0.89142 -0.446808 3.22004
-1.13399 0.105863 3.1626
1.49134 -1.8943 3.831
0.782779 -1.5506 3.57564
-0.628273 -0.746965 3.45024
1.50969 0.730208 2.62431
2.29232 0.771951 2.88117
-1.16796 0.0796389 3.12967
-1.28332 -1.56066 3.35114
0.889305 -2.10371 3.71477
-0.364869 0.788875 3.08131
0.22095 -0.684535 3.25683
-0.468982 -1.55168 3.47187
0.716973 0.147491 2.84563
-0.167657 -0.857324 3.33079
0.769539 -1.66616 3.82941
0.524433 -0.642814 3.18693
1.24099 0.779016 2.66751
2.5926 -0.624705 2.6682
0.692029 -1.72427 3.59197
0.623076 0.114211 2.84984
0.328817 -1.53118 3.57026
-0.734637 1.05373 2.87714
0.918877 -2.69654 3.62941
-0.37637 -0.596325 3.31919
-1.24329 0.840496 2.83033
0.704749 -1.91901 3.57744
1.11528 -0.6449 3.01021
1.20696 0.09858 2.73894
-0.912182 -0.30347 3.15643
0.990478 -1.60019 3.64956
1.83716 -0.42072 2.74878
-0.211643 0.855748 3.05482
-0.427279 0.823356 3.08109
0.506373 -1.63758 3.67333
1.92476 -0.595239 2.9854
2.14062 -1.34024 3.55511
-0.0555317 0.0779513 2.95796
-0.375041 -0.65626 3.33903
2.59849 -0.836907 3.11519
-0.927736 0.217161 2.99181
0.746405 -2.02514 3.56749
1.97701 -0.69808 3.10687
0.458396 -1.58015 3.66514
-1.48489 1.0495 3.25054
0.114312 0.154233 2.88359
0.651422 -0.589961 3.07645
-0.0391621 -1.48282 3.5392
2.24539 -0.121301 3.01901
0.305861 0.152802 2.90222
0.991051 -1.61975 3.63103
1.36735 -0.520216 2.8741
0.486817 0.865391 2.93478
0.796541 -1.69421 3.58942
1.19942 0.668359 2.82659
0.439856 -2.0687 3.58387
1.71066 -2.43227 3.63196
0.417584 -0.0252747 2.9317
-0.476087 0.891972 2.65533
0.635142 -1.88074 3.57473
-1.16202 -0.816629 3.37777
1.95592 -2.17242 4.75469
2.59896 -0.872426 3.26
1.29388 0.695857 2.72113
-1.17896 -0.782616 3.37869
-1.04378 0.0616781 3.0778
2.54491 -0.380676 3.39477
0.169516 -0.720544 3.2216
0.839082 -1.71371 3.67293
-0.0534808 0.718218 2.97097
1.47358 -1.37908 3.3692
1.66357 -0.0862385 2.59515
1.7142 0.00793754 2.70685
-1.27846 -0.987527 3.38078
-1.47276 0.634702 3.11604
1.73735 1.09761 2.5503
2.66724 -0.247048 2.98946
-0.385703 1.01034 3.02491
0.329255 -0.159389 2.9628
-0.439763 -0.999693 3.57355
-0.147485 0.545772 3.00626
1.92778 0.157917 2.73643
2.57596 -0.0316568 2.9999
-1.33405 -0.123039 3.0735
-0.0280085 1.13278 2.68823
-0.578719 -0.830359 3.31803
1.31475 -0.816521 2.98969
1.10189 1.21706 2.51894
0.98811 0.638218 2.91542
-0.252269 -1.03799 3.43179
1.62491 -0.0940354 2.81724
-0.696046 -0.890704 3.39352
-0.628128 0.624508 3.01755
1.17107 1.19395 2.7179
0.835649 -2.5109 3.64898
-1.20897 -0.0449224 3.05706
-0.584798 -0.84059 3.34975
1.32304 1.03808 2.57131
-0.749882 0.465545 3.01135
0.632729 -1.42423 3.60227
0.362814 1.39681 2.86686
1.65632 -0.278601 2.83556
1.34614 -1.1582 3.45636
0.974559 -2.15186 3.61346
1.6748 -1.8595 3.35224
-0.985068 -0.246221 3.13302
-0.575993 0.855943 1.86488
0.69845 1.2982 2.42176
-1.23073 -1.02998 3.24622
1.62777 0.472356 2.63461
1.92998 0.549576 2.63858
1.04088 -2.21727 3.83519
2.05976 -1.90054 4.16649
0.790747 -0.192398 2.94721
-0.108604 0.85246 2.04575
0.325786 -0.072757 0.154992
1.3108 -0.954808 3.0732
0.812761 0.465089 2.94861
-0.850431 0.657494 3.09093
0.673625 -0.0929194 2.91111
1.21872 -0.124836 2.79604
1.88059 0.474404 2.64241
0.623033 -0.93632 3.31205
1.60386 -0.733202 2.58151
0.827481 1.2655 2.81663
1.0597 -0.0869875 2.80877
2.62459 -0.172185 2.99711
-0.0527135 -1.51449 3.55579
-1.31375 -0.873844 3.23386
0.575928 0.574242 2.94826
-0.0853307 -0.0208018 2.95507
1.72233 -0.765807 2.8725
-0.571067 -0.782287 3.32555
2.48519 0.0488651 2.98559
-1.38879 -0.0461606 3.10924
-0.182666 0.685208 3.00052
1.38933 1.17997 2.60754
1.77506 0.491082 2.63793
1.17672 -0.72961 2.98253
-0.917762 0.0930079 3.7254
-0.354492 1.03506 3.01643
0.313679 0.659927 3.00833
1.02932 -1.07917 3.3793
1.3968 -2.56951 3.57535
0.442418 -1.72031 3.61984
-0.0164351 -0.241784 3.03304
-0.57099 -0.778386 3.31516
0.315561 0.446385 2.84628
-0.476557 0.780619 1.86418
0.834897 -1.78819 4.08841
1.51454 -0.201827 2.75706
-0.380329 0.858638 1.90478
0.462206 1.4299 2.86544
0.177018 -1.02125 3.37657
1.16866 0.515567 2.80857
-1.25485 -0.16424 3.15477
-0.0330442 1.16628 2.68483
0.554806 -2.01312 3.65432
-0.469233 -1.00447 3.39554
-0.720647 0.519715 3.02739
0.306062 -0.392396 3.04805
1.3142 0.347792 2.75016
-1.15748 -0.530369 3.20127
0.308289 -1.31025 3.54729
-0.298418 0.769289 1.99384
2.11093 -2.5661 4.65157
0.596935 -1.56581 3.64626
1.61218 -1.20425 3.28458
0.816493 -0.362359 3.01028
-0.195784 0.779159 2.08982
-0.156426 -0.104612 1.0571
0.142415 0.32116 2.86826
2.3276 -2.31293 4.38948
1.72819 0.640922 2.63943
-1.25856 -1.12348 3.25302
0.825326 0.423911 2.90474
2.33637 -0.837082 3.53872
0.31921 -0.332815 3.12389
1.16617 -1.58977 3.59007
0.934482 1.09127 2.75136
2.69447 0.664784 2.73183
1.03141 0.400133 2.84491
1.66417 -1.06247 3.17626
0.174978 1.44482 2.64688
0.158128 1.10456 2.91571
0.30669 -0.289126 3.10812
1.01597 1.02114 2.51562
1.80746 -1.79846 4.15519
-0.052854 -1.43023 3.51534
0.164043 -1.56979 3.59038
0.0611193 0.946854 2.97139
2.38756 -0.0365613 3.12129
-1.26932 0.260538 3.02758
2.37186 -1.26459 3.26211
0.528749 -0.524421 3.12182
1.9864 -2.23848 4.4362
1.2 -0.32015 2.85661
0.772621 -0.578039 1.10378
-0.836883 -0.488961 3.24263
1.3492 0.94039 2.65944
1.70977 -1.95876 3.60329
0.4499 0.28239 2.82875
0.706979 -1.56691 3.90614
1.5435 -1.85174 3.46201
0.911932 -0.433633 2.99848
1.3505 0.922216 2.71662
2.13486 -1.20892 3.69944
0.320551 -1.36464 3.57386
0.546772 0.240734 2.80538
-1.38514 -0.995328 3.22788
1.4998 1.16179 2.57473
-0.456757 0.560787 3.01446
-0.354839 -0.22034 3.09239
-0.967457 -0.192487 3.10773
0.990806 1.23339 2.7433
0.00892464 0.4999 2.97303
-0.824794 -0.0237953 3.54763
0.619867 -0.962229 3.32278
-0.515578 0.899135 1.877
-0.677367 -0.161434 3.11972
0.157129 1.34236 2.73021
1.83723 0.50764 2.85917
0.936257 -0.938544 3.30856
-0.308453 -0.118363 3.00362
-0.911172 0.579903 2.89156
0.280245 -1.74409 3.63305
-0.893236 -0.451467 3.1673
0.496143 -0.359003 3.02226
0.844649 1.04753 2.73454
0.758202 1.25259 2.41659
0.951791 1.23879 2.44812
0.260446 -1.34377 3.7011
0.0286118 0.397735 2.91147
-1.06768 -0.126118 2.95943
0.943962 1.04591 2.78119
-0.46932 -0.332323 3.0835
0.480759 1.46905 2.84557
0.0985908 -1.21641 3.5696
0.858271 0.348874 2.90619
2.6528 -0.38992 3.79118
-0.990935 0.497501 2.9841
1.18606 -1.53283 3.55563
1.26217 -0.261555 2.79289
0.102349 1.35977 2.65323
0.668376 1.14292 2.85325
-1.17326 -1.06957 3.234
-1.37208 -1.00299 3.14638
0.0892275 1.13258 2.90727
1.78262 0.0515586 2.72624
-0.913162 -0.238336 3.11053
1.81326 -1.80422 4.15447
0.526478 0.434626 2.8898
-1.07125 -0.280383 3.13997
0.557261 0.281112 2.8117
1.37911 -1.38539 3.41083
2.62816 -1.19616 3.19311
-2.46735 -0.866256 5.30022
1.41312 0.959233 2.66402
-0.670616 -1.29127 3.40969
-0.372461 0.262643 2.9716
1.5344 -1.65303 4.02023
1.73966 -1.7384 3.42075
1.64895 -0.398804 2.80342
1.28955 0.954315 2.78854
-1.04177 -1.2215 3.37901
-0.526288 0.727349 1.94803
1.94561 -0.405417 2.70863
2.26125 -0.281374 3.15989
-0.0885109 -0.412287 3.11094
1.6872 0.319133 2.71087
-1.24658 0.10626 3.94105
0.0121715 0.628708 1.31139
2.44545 -0.822746 3.4278
1.61598 -2.92164 4.33197
0.0616124 0.871466 3.03631
1.66533 0.655511 2.63096
1.23757 -0.564765 2.81873
2.39719 -0.269895 2.89961
1.57399 0.140365 2.79696
-0.822793 -1.53368 3.43297
-0.992978 -0.608539 3.22393
2.11044 0.232312 2.87995
-0.703676 0.864534 2.8957
1.5798 -1.31861 3.32618
-1.38784 -1.41672 3.28912
2.24161 -1.11275 3.27667
1.26681 -1.49594 3.50988
-0.014511 0.1337 2.92444
-0.373077 -0.567187 3.29475
0.672479 1.53934 2.85593
0.199104 0.24096 2.92046
-0.800857 -1.42938 3.4471
-0.683738 0.887033 2.94855
0.317076 0.994103 3.06172
0.745887 0.919514 2.93057
0.739145 -1.59491 3.65445
-1.0013 -1.33515 3.32316
1.21436 -1.87002 3.53593
0.684932 0.191077 2.85916
1.30064 -1.70019 3.67765
2.72759 -0.457518 2.92993
-0.744018 -0.512185 3.16319
1.25134 0.317446 2.8295
1.01495 -1.31303 3.44111
0.0327687 1.13676 2.46813
-0.72703 0.714499 1.92129
1.62742 -2.10191 4.5297
-0.531133 -0.43831 3.20799
1.27139 -1.23535 3.31619
-0.246749 0.297421 2.9848
0.843679 0.980281 2.81844
2.69255 -1.04635 3.16907
0.0929289 -0.395561 3.08367
0.0303392 0.633825 1.30997
-0.518789 -1.26174 3.54843
-0.869095 0.423098 2.94147
1.75242 0.538948 2.69637
1.9187 -2.03797 4.47127
0.270536 -0.374097 3.04367
0.664712 1.07778 2.84065
1.14403 -1.18206 3.39592
2.4298 0.512696 2.63815
-0.807361 0.389801 3.01681
2.63156 -0.95676 3.18053
2.46277 -1.135 3.82556
-0.272049 0.773947 2.02491
-1.32328 -0.334799 3.15541
1.00914 -0.575921 3.0072
0.538033 0.909794 2.94349
1.34774 -1.67593 3.48886
1.01852 -1.63373 3.71452
-0.120914 0.200914 2.92759
2.23117 0.447946 2.60618
2.50932 -0.807855 3.30483
-0.563397 -0.565784 3.30107
1.45769 0.78618 2.65411
0.13622 -1.79027 4.17474
0.969136 -1.43439 3.55967
0.559335 -1.53624 3.61827
1.1879 0.142463 2.79683
-1.39902 -0.534648 3.25485
2.34262 -0.0252933 2.99384
-0.576718 0.694509 1.99466
-1.12942 -1.33682 3.32616
1.00411 0.242733 2.83193
1.76172 -0.42836 2.75591
-0.797246 -0.475379 3.18729
1.06896 -0.465382 2.90065
1.49174 0.870148 2.61407
2.29185 -0.246376 2.90547
1.24121 -1.82763 3.7746
0.484048 -1.43213 3.6277
-1.13758 0.263515 3.05432
1.89099 0.0613862 2.91478
-0.0872345 0.620735 3.02015
-0.398954 0.0894114 2.97381
1.04639 -1.57942 3.57695
1.57462 -1.31826 3.30722
-0.992406 0.808705 2.85991
-1.14786 -0.743821 3.39251
-0.569665 0.0557742 3.02072
-1.32277 -0.705649 3.33825
1.12842 -2.44465 3.73603
0.0480686 0.773007 3.02291
-1.46883 -1.44599 3.19557
2.35175 0.375131 3.71216
-0.664404 0.147915 3.04823
0.943572 -0.646432 3.12249
0.64502 1.62451 2.86006
0.151756 0.128232 2.91755
-0.306051 0.818593 1.93444
1.8163 -2.35764 3.60317
1.48194 0.751894 2.58471
0.870775 -2.01326 3.5664
-0.254458 0.683305 3.05285
-1.10883 -0.0752852 3.07372
1.31064 0.605367 2.77325
2.58817 -1.35543 3.1538
-1.25406 -0.876517 3.25813
0.025089 1.27804 2.88422
0.509712 -0.0499817 2.93325
1.81919 -0.5773 2.82113
0.919215 -0.809722 3.17449
-0.36291 0.625863 3.1053
1.74329 0.595903 2.64949
0.357828 -1.91219 3.59651
-0.0481589 -0.0207248 0.782727
1.45239 -1.69364 3.58677
1.06414 0.0153838 2.82041
1.10152 0.702299 2.82891
1.03407 -0.749328 3.06265
0.723907 0.682208 2.95343
-1.24088 0.294279 3.00838
-0.796303 0.356431 3.03389
2.86314 -0.540156 2.97078
-1.31666 -0.0107134 3.04072
1.10519 -1.74446 3.59621
0.859433 -0.767419 3.20392
1.85678 0.154009 2.71379
2.49878 -0.114 3.09423
-0.962609 -0.0423929 3.02932
0.474655 -1.89764 3.59123
1.29853 0.627671 2.74388
-0.670845 0.869879 2.71368
-1.4714 -0.829777 3.15577
0.77064 -2.54311 3.67727
1.74408 -0.0284456 2.72663
0.581291 -1.54129 3.58267
1.12371 0.63386 2.88284
1.35772 -0.725952 2.93809
2.48962 -0.0284106 3.85675
2.46377 -1.50132 3.23085
0.567542 0.754621 2.93543
-0.74193 0.411059 3.05174
-0.152795 0.0503112 2.9836
1.82527 0.390304 2.66006
0.458961 -0.802789 3.33579
1.69933 0.645156 2.59292
-0.484454 -0.71203 3.25033
-0.319697 0.625661 3.06495
2.70626 -0.856966 3.14262
1.62931 0.0135048 2.82201
1.71857 -0.779497 2.86656
0.113595 -0.996979 3.42732
-0.923038 0.76831 2.73717
0.0935461 0.564912 2.95282
-0.271328 0.589356 3.10063
-1.18864 -0.168009 3.10306
0.215054 1.36931 2.71052
1.65794 0.482155 2.66971
0.953207 -1.38283 3.40015
-1.45158 -0.868001 3.01947
-0.496653 0.869902 1.89266
-1.22406 -0.127388 3.10482
-0.589324 0.391536 3.42943
-1.34894 -0.864617 3.15437
1.72892 -0.0844525 2.75809
1.8094 0.393575 2.80296
1.12974 1.24709 2.72966
-0.889186 0.650459 3.08337
1.05196 -2.78062 3.85677
-0.933348 0.0134203 3.08915
0.525923 -0.334111 3.00722
1.19726 1.08394 2.71187
0.594284 -1.8165 4.27075
1.62654 0.398522 2.58363
0.335257 1.56016 2.81647
0.0770508 -1.18378 3.41547
-0.120464 0.797058 2.02176
0.751973 -0.285501 2.99204
0.211457 -0.559039 3.17658
0.0968848 0.381728 2.87409
1.21829 -1.10127 3.24298
1.05898 -2.51049 3.71683
0.716218 -0.966204 1.29405
-0.425482 0.517193 3.06444
0.129362 -0.244719 2.99852
-0.287768 -0.415874 3.13178
-0.168548 0.942032 1.98468
-0.793162 -1.11079 3.51514
0.271436 1.39242 2.73435
0.134513 1.16654 2.87613
-0.560122 -0.219618 3.13339
-0.195862 -0.886779 3.44757
0.87404 -2.05241 3.7268
-0.377381 -1.03856 3.32766
1.34693 0.4448 2.80814
-0.119425 -0.121501 0.989206
1.09264 -1.32437 3.41414
0.06118 0.320863 2.86343
0.0136299 1.1002 2.36197
0.961277 -2.21676 3.81745
-2.43969 -0.98378 5.54671
0.875539 1.01498 2.79569
0.882369 1.19132 2.48226
0.772072 -1.29701 3.47196
0.0643268 0.288592 2.90046
-1.43407 -0.420991 3.22443
-0.169836 0.843024 2.32921
0.870948 -1.3541 3.7164
-0.0274586 0.556217 1.39059
1.18641 -1.46064 3.48151
1.51942 -2.18235 3.87861
1.60017 -0.360407 2.8112
0.842245 -1.5337 3.63263
2.69653 0.74915 2.79814
-0.579663 0.368145 3.01178
0.230445 1.08035 2.95161
1.06614 -1.63753 4.02644
0.843042 1.12039 2.76333
-0.489153 -0.0190762 3.05102
0.00308273 0.46372 2.92846
0.986345 -2.45347 3.26778
1.27297 -0.235962 2.80928
1.57342 -1.36214 3.30563
0.155889 -1.12824 3.53628
0.551914 -1.90115 3.67796
1.57941 -0.207744 2.79398
-0.317639 0.860877 1.939
-0.669558 -1.04504 3.444
0.65029 0.454007 1.01538
1.14669 0.513446 2.84246
-0.666839 0.809359 1.86461
1.21788 -0.163009 2.79096
-1.24735 0.520572 2.91571
-0.224803 1.11704 2.97655
-0.552971 -0.98489 3.31334
-0.131123 0.351506 2.93922
0.133289 -1.31394 3.52845
0.853325 1.30282 2.79203
1.54641 0.997339 2.62686
0.482902 -1.2168 3.53028
1.24759 -0.379578 2.82389
-0.45317 0.331894 3.02062
1.19464 -2.24029 4.08523
-0.542686 -1.23167 3.44043
-0.989327 0.0701127 3.10502
-0.295929 0.754494 2.0271
0.123398 -0.363304 3.05794
0.501448 -1.68895 3.78415
0.964526 1.12463 2.56432
2.60173 0.693249 2.7669
1.31234 -1.16174 3.32724
2.55507 -0.45862 3.32673
1.08257 0.431142 2.85203
1.88766 -2.25974 4.51053
-0.303883 -0.348264 3.1184
-0.171933 0.817002 2.02557
-1.06746 -0.118734 3.11721
2.2004 -0.140375 3.09901
0.813892 0.392663 2.89575
-0.907872 -1.10492 3.36318
1.89715 -2.59037 4.31707
-0.620961 0.740384 1.90139
0.68056 -0.282471 3.01658
-0.437409 0.690213 2.0747
1.16979 -2.34543 3.7144
0.680642 0.220715 2.87866
-0.000380172 0.548712 1.29838
2.49618 -0.806454 3.28885
-1.01397 -0.523778 3.13299
1.59976 0.802382 2.57706
0.799111 -1.68618 3.87208
-0.156986 -1.46646 3.60738
0.932133 -0.342605 0.89398
1.57509 -2.19308 3.43172
1.39626 -0.46652 2.85668
1.24237 1.02976 2.59189
-0.340622 0.742231 2.05907
-0.714043 0.292095 3.04087
1.19137 -1.54735 3.53987
-0.103235 -1.43458 3.60595
2.01732 0.311109 2.76916
0.606893 -0.438653 3.06997
-0.78738 -0.302455 3.11003
-0.665812 0.685843 2.01533
-1.15294 -1.258 3.32153
0.488959 -1.67273 3.57662
0.26978 0.25908 2.89564
2.33056 0.910547 2.93798
-0.455451 1.36703 2.95712
1.20993 -1.48026 3.5232
-1.04101 0.136957 3.03138
-0.222578 -0.683087 3.26415
0.12314 0.817467 2.98749
1.30853 0.797054 2.70186
1.17579 0.0699914 2.78133
0.780737 -1.77492 3.8535
1.47788 -2.35852 3.90201
1.26736 0.741194 2.72082
0.0125576 -0.641359 3.22209
0.758856 -1.75485 3.9395
-0.475242 0.194369 3.00067
3.01814 -0.829396 2.97386
-0.239944 1.05807 2.86936
0.0155535 -0.59395 3.18678
0.763558 -2.0349 3.57849
2.16912 0.25592 2.85719
0.236449 -1.46689 3.51242
-0.163757 0.144206 2.94833
-0.577084 0.21211 3.0054
1.10681 -0.53249 2.90989
-1.00672 0.716286 2.364
2.06 -0.084904 2.92448
0.221258 -0.174799 0.530659
-1.10515 -0.379617 3.15281
0.507845 1.08194 2.87383
1.03992 -2.91899 4.14759
-1.28935 0.138274 4.01449
0.465637 -1.27696 3.53736
1.08447 0.398095 2.82525
-0.161194 1.15675 2.96197
0.899891 1.02283 2.75311
-0.498782 -0.322063 3.09476
1.15922 -1.19259 3.37513
0.356417 0.354332 2.8516
2.49909 -0.209014 3.01367
-1.43107 -1.10292 3.28038
-1.15764 0.487508 2.89938
0.891962 -2.11293 3.72849
1.03281 1.00644 2.52015
0.0550887 -0.276263 3.04456
1.40851 1.09147 2.61558
0.0432703 1.21423 2.44841
-0.704816 0.45411 2.98908
0.242235 -1.15285 3.63777
0.620417 -1.91082 4.39902
1.66088 -0.253024 2.87431
-0.759601 0.748046 1.84973
0.912387 1.30259 2.77376
0.394623 0.271364 2.8391
-0.412839 -1.40719 3.57475
1.67513 -2.67858 4.34126
1.28561 1.24092 2.5438
0.0131204 0.570539 1.50195
1.65024 -0.450688 2.85737
1.48556 0.625517 2.67801
1.18875 0.957119 2.71412
-0.884033 -1.31628 3.4439
-1.24544 0.292771 2.99998
1.62335 -2.40817 4.05646
1.67539 -0.444213 2.96375
2.71753 0.73083 2.75011
0.676356 0.964087 2.88294
0.858613 -1.68979 3.64747
-0.460126 0.726832 1.95452
2.33199 -0.0470583 3.10655
0.578675 0.326048 2.8431
1.00983 -2.82206 3.62054
2.80397 -0.846772 3.14005
-0.849305 -0.415789 3.19264
-1.39505 -1.22491 3.31739
-0.751605 -1.59479 3.38606
0.814491 -0.633524 3.11331
-0.879818 0.649204 2.13188
2.31749 0.20874 2.87036
1.27045 -1.7513 3.81431
0.68924 0.158838 2.89115
1.39378 -1.73304 3.4701
2.04129 -0.942618 3.26236
1.16437 -1.78024 3.70571
0.101409 -0.613742 3.18748
0.458453 0.836364 2.96961
2.26999 0.367487 2.6084
-0.08052 0.11907 2.95095
-0.996305 -1.47307 3.4033
1.56088 -1.85274 3.45586
0.715509 1.49271 2.85114
1.23437 -1.53341 3.57008
1.36108 0.225869 2.82821
1.10452 -1.69711 3.67218
-1.21085 -0.580608 3.27704
-0.811685 0.66721 2.00762
1.60551 -1.93432 3.90896
-0.248588 -1.42319 3.51577
0.894066 0.206076 2.83199
-0.134407 1.11064 2.96262
1.05773 -0.492749 2.93002
0.481444 0.912661 2.93549
1.34573 -1.89697 3.47725
2.16511 -0.97381 3.31606
1.36505 -0.708438 2.98392
0.846223 1.33688 2.8179
1.33207 1.19166 2.60844
2.42317 -1.06417 3.92054
0.200912 0.0148731 2.95022
1.86984 0.0519714 2.83348
-0.742539 0.737875 2.94893
-0.259917 1.03511 2.45554
2.32936 -2.0093 3.59289
1.94336 0.193494 2.66993
-0.840782 -0.744453 3.34405
1.66385 0.702775 2.55269
-0.224026 -1.62612 3.57104
-1.04915 0.107013 3.06965
2.57498 -1.05243 3.1071
0.372687 0.772395 2.95679
0.430955 -0.679915 3.17925
1.24992 0.0385926 2.80505
0.155573 0.92514 3.05738
2.06422 -0.345394 3.09069
-1.45607 -0.599583 3.12782
2.2257 -1.26994 3.38415
-1.39105 0.216417 3.01629
-0.56109 -1.50383 3.49122
1.34517 -0.538093 2.87936
2.13751 0.484522 2.61237
0.697432 0.856198 2.92788
0.0756347 0.577769 1.32497
0.439395 -1.45341 3.48387
-1.17861 -0.38528 3.88037
-1.33562 0.180752 3.0672
1.26095 -1.82513 3.80491
-0.490709 -0.535866 3.23315
1.38455 -2.12875 3.4555
1.08514 0.250834 2.79194
-0.156685 1.00844 3.02698
0.651569 -1.52718 3.68703
-0.432686 1.29831 2.95595
0.980604 -1.80557 3.80099
0.838344 0.935022 2.88688
1.04893 -1.68191 3.6839
1.563 -1.88776 3.44438
-1.10351 -1.29902 3.31651
1.61065 0.217559 2.6631
1.9181 0.364302 2.66458
1.48792 0.074613 2.87368
-1.25805 -0.485253 3.15592
1.60562 0.0787207 2.73201
1.42494 0.731418 2.65875
1.69608 0.525636 2.71288
1.4538 -0.650305 2.81705
