ply
format ascii 1.0
element vertex 1835
property float x
property float y
property float z
end_header
0.180334 -0.0936357 3.01662
1.33601 1.20246 2.64947
1.66152 -0.775725 2.84117
0.139466 -0.0644435 2.9772
0.192471 -0.829918 3.32323
-0.916891 0.754175 2.58566
1.30226 0.608985 2.75389
0.255715 -0.0302232 2.9788
1.66775 -0.2987 2.91919
-0.514512 0.774606 1.85322
0.936809 -1.17773 3.44958
1.6584 0.461826 2.81363
0.443088 -0.256905 2.9945
1.6556 1.02704 2.53683
1.63022 0.398457 2.62641
-0.800662 -1.06283 3.35243
1.17714 -0.208783 2.79056
-0.563644 0.827969 1.88046
-0.121376 -1.06852 3.46202
0.351314 0.532015 2.90317
0.23498 -0.176975 3.01638
0.0751563 1.28343 2.88089
-0.183663 -0.997381 3.3662
0.437609 0.494114 2.89027
-0.318258 -0.0951174 3.04217
1.6488 -1.06698 2.94957
1.25134 -0.848 3.01965
0.192886 0.679219 3.07485
-0.63284 0.830894 2.52371
1.24578 -0.809385 3.00337
1.31462 -0.0650247 2.67333
0.880657 0.6002 2.90959
1.57074 -0.724677 2.81845
1.32796 0.00142233 2.72331
-0.828651 -0.0245301 3.08914
1.31251 0.681459 2.74136
1.80796 0.591617 2.64205
1.90605 0.281444 2.68962
0.745599 -0.768492 3.18258
0.199398 0.725568 3.12296
-0.255288 0.912715 1.9714
1.10566 0.494359 2.87288
0.719594 -0.225687 2.99865
-1.30509 -1.00151 3.2345
-0.602093 -0.179946 3.13462
0.663051 1.28174 2.85691
0.392357 -1.02568 3.44974
1.54503 0.526015 2.67945
0.118667 0.169564 2.95772
0.117156 -0.140061 2.98985
-0.726687 0.586216 3.17504
-0.415534 -0.978647 3.46603
-0.950962 -0.381276 3.21456
-0.173074 0.39663 2.94175
-0.887332 -1.22726 3.43128
0.228221 1.13003 2.94554
-1.29747 -1.10322 3.16516
-0.0437443 -0.341724 3.08559
0.389251 1.09098 2.90285
-1.13864 0.381016 2.99083
1.39124 -1.26478 3.67296
0.426721 0.46788 2.91595
-1.36744 -0.297174 3.08411
1.04378 1.13204 2.73343
0.379822 0.435678 2.91761
0.875031 -1.14987 3.50854
-1.3353 -0.265718 3.13737
0.97857 0.968487 2.83149
0.888983 1.10813 2.76861
-0.00655706 0.523508 1.44936
1.4012 0.251069 2.8133
-0.636097 -0.528147 3.36002
2.06234 0.894399 2.83306
-1.06373 -1.34244 3.40264
0.558737 -0.455286 3.09131
0.209469 1.07513 2.97295
-0.0616963 -1.38586 3.58909
-0.867773 0.339134 2.98462
-0.373246 -0.420736 3.19249
-0.584649 0.684455 1.94567
-0.016113 0.563016 1.22706
-1.37164 -1.24829 3.33704
1.2823 0.281519 2.81301
0.590563 1.00695 2.89011
0.0325462 0.68545 1.37016
0.218613 0.286151 2.91524
0.18138 -0.463806 3.1032
-0.269073 -1.37493 3.56675
0.585652 -0.418542 3.06089
-0.56778 0.730849 1.92934
0.0330183 -1.30426 3.49146
-0.312616 0.352189 2.9503
-0.803957 -0.383021 3.12835
0.549429 1.0507 2.91893
0.0144584 0.603443 1.58659
-0.194958 -1.30891 3.6139
1.26188 0.302107 2.81056
-0.691507 -0.644983 3.35086
1.42718 0.177824 2.78279
1.92092 0.213587 2.80917
-0.193379 -1.66701 3.75201
-0.436882 0.903394 2.88582
1.32721 -1.53589 3.53283
2.36868 0.814575 2.90441
0.562709 0.135526 2.88561
-1.41657 -0.63871 3.4619
1.56718 0.774165 2.59475
-0.923955 0.274327 2.96261
-0.783284 -1.46855 3.59958
-0.0389067 1.37039 2.89125
1.84074 -0.515836 2.92446
-0.635005 0.680572 2.01382
0.143993 -1.45497 3.62952
0.780491 0.211927 2.87906
1.80159 -0.284248 2.71326
-0.0843985 -0.508252 3.15712
-0.629268 0.67028 2.03385
1.70549 0.664752 2.55307
0.635137 0.031503 2.93315
2.18277 1.0715 2.92314
-1.48262 -0.734469 3.15152
-0.981502 -1.33448 3.43825
-0.0233055 0.853883 3.05917
1.58621 -0.662327 2.95349
1.31733 0.0960193 2.77914
1.44018 -0.637261 2.94399
-0.569947 0.78199 2.94121
-0.525819 -1.58615 3.48079
1.66103 0.0627065 3.09938
1.36869 -1.55552 3.37256
-0.627194 -0.935747 3.37207
1.91306 0.0543196 2.64831
1.00786 -0.104451 2.89177
0.697636 0.634807 2.97053
-0.966961 -1.58674 3.34174
0.330084 -0.866668 3.29908
0.700344 0.597015 2.95817
0.0172193 1.27783 2.88544
-0.38931 -0.0671162 3.00615
-0.44272 0.00593679 3.01109
-0.509208 0.719331 1.96062
-1.21033 -0.842061 3.38003
-1.00499 0.724173 2.89857
0.0777843 -0.0301343 2.99795
-0.0611265 -0.785481 3.29108
1.91376 0.182605 2.74631
-0.383046 0.694254 3.04385
1.28271 -0.65039 2.87
-0.467056 -1.04632 3.52866
0.575841 0.0723718 2.90707
-0.67789 0.807047 2.96468
-0.992859 -0.608622 3.31167
2.23399 1.00479 2.98864
1.35611 -0.619749 2.88166
0.263457 0.904845 3.06902
-1.22349 -1.57321 3.42197
-0.497598 0.140493 2.98704
1.69765 -0.576621 2.82927
1.40716 0.754647 2.67297
-0.380398 0.109899 2.96123
-1.07352 -1.4722 3.33306
-0.794732 -0.0629221 3.04853
-0.915741 0.777072 2.80796
-0.0346019 -0.890062 3.37667
1.21267 0.650065 2.82506
1.57142 -0.759888 2.91435
-0.810882 0.667031 3.05274
2.00239 0.0145282 2.62362
1.69262 -0.0358138 2.69707
-0.714026 -0.791418 3.34829
0.146799 0.0332388 2.95775
1.07176 0.728705 2.82257
-0.814703 -0.869048 3.38274
0.100074 1.32366 2.88292
-0.146341 -0.746811 3.27319
0.987452 -0.00313132 2.85724
0.0669862 -1.67082 3.55727
1.17912 0.693231 2.80872
0.722904 -1.00351 3.31352
0.616269 -0.187639 2.98714
1.61101 0.467975 2.59417
1.7599 0.824746 2.55708
-0.714834 0.871725 1.86062
0.446417 -0.147926 2.97016
0.0529696 -0.966765 3.35525
1.65271 0.542703 2.65653
-0.774044 0.699434 2.29267
-1.38208 -0.0998756 3.11506
-1.0756 -0.899843 3.35527
0.141601 0.556274 2.93204
0.802051 0.430926 2.90399
-0.198369 -0.348101 3.11837
-0.29577 -1.23809 3.55953
1.14391 1.07741 2.7002
-0.16795 -1.09674 3.26806
1.06422 1.06668 2.76331
8.49499e-05 -0.298019 3.0686
0.51351 0.391499 2.89314
-0.617202 -1.10077 3.39586
-0.0800767 0.508994 2.97591
1.39159 -0.262837 2.83632
-0.383508 0.721932 2.10708
1.06154 0.462 2.88114
1.12725 -1.07129 3.36139
-0.894076 0.811342 1.96059
0.0941723 -0.226329 3.04547
0.817052 0.715293 2.91934
0.234421 -0.0331322 3.00291
1.79214 -2.09618 4.54843
-1.40138 -0.804898 3.20753
1.64869 0.0102607 2.77794
-0.558566 0.689324 3.01386
0.785871 -1.45188 3.41561
1.07844 -0.757868 3.08409
-1.01514 -0.762205 3.35869
-0.722807 0.084234 3.02512
-0.947568 0.786848 2.83595
1.52809 -0.031583 2.25804
1.28901 0.720965 2.74527
-0.922717 0.748529 2.71925
-0.636587 0.0461823 3.04655
-0.807531 -0.728297 3.41938
1.4795 -0.86592 2.94899
1.92749 0.246987 2.69044
1.20068 0.578986 2.82862
-1.29193 -0.13847 3.10228
-0.323222 -1.66525 3.51527
0.306878 0.561738 2.92187
1.07693 -0.969025 3.42581
-0.40008 0.757412 2.07543
-1.33976 -0.0973123 3.22966
-0.267368 -0.867474 3.36874
-0.677659 -0.0622779 3.04882
1.75022 0.848045 2.55325
1.18858 0.618454 2.83916
-0.905963 -0.299566 3.14369
-0.388859 0.782165 1.90483
0.198302 -1.2297 3.57518
0.878402 0.463873 2.88666
1.26384 1.09462 2.72155
1.55071 -0.273885 2.94102
0.188099 0.43467 2.91677
-0.478488 -1.11743 3.46554
-1.06286 0.553962 2.99191
0.865432 -0.227326 2.98902
-0.427071 0.898959 2.65707
0.655398 -1.06814 3.38155
-1.28906 -0.949503 3.20375
-0.749792 0.676347 2.06743
1.08529 -0.180779 2.83901
1.35476 0.487772 2.79004
-1.48316 -1.2068 3.17723
-0.0503334 0.360731 2.96115
-0.733145 -0.427159 3.20915
1.06836 1.03399 2.74977
1.56817 -1.279 3.4107
1.4919 0.300846 2.73978
0.869075 -0.371674 3.00007
-0.101527 0.957716 2.55827
1.44559 1.00941 2.58336
2.72195 0.887604 2.82048
0.980177 0.393651 2.90155
-1.27445 -0.356132 3.1706
0.650867 -1.18 3.32795
-0.767167 -0.260548 3.04535
-0.688678 0.687041 1.96447
0.589365 0.498451 2.93922
0.606405 -0.225358 2.94864
-0.611208 0.759243 1.86665
1.40323 0.482607 3.04089
-0.938001 -1.08457 3.51164
0.417994 1.33705 2.89598
-1.29305 -0.181898 3.12582
0.861655 -0.980699 3.23047
0.722867 0.55609 2.9109
-0.580163 -0.143388 3.08543
-0.409925 0.895206 1.91591
-1.07239 -0.982802 3.4637
0.754797 0.531111 2.93444
-0.958801 0.408416 2.94952
0.206272 -1.30285 3.57789
0.350374 1.11625 2.90041
-0.205922 -0.378348 3.11442
0.764099 0.349786 2.90809
-0.627002 -1.16693 3.36451
-0.0763404 0.916668 2.37899
1.13019 -0.335608 2.90268
-0.962377 -1.12543 3.36832
-1.22517 -0.302613 3.1612
-0.232845 -1.10258 3.40197
-0.0466607 0.444971 2.97066
-0.398413 0.771284 1.92177
-0.21524 0.973056 2.89405
0.483607 -0.546637 3.1731
0.264858 -1.54483 3.75522
-0.159512 0.262072 2.96729
0.0454907 0.539182 1.34517
1.51529 -0.472383 2.82925
0.322374 0.971762 3.01319
0.994277 -1.53716 3.77095
-0.801109 0.231671 2.98481
0.801147 -0.453445 3.0476
0.00894515 0.572697 1.30083
-0.360596 0.740499 2.01194
2.31869 0.12532 2.95094
0.965161 -1.40713 3.55764
0.130697 0.311953 2.90925
1.17053 -0.400096 2.87283
0.937464 0.979795 2.81283
0.374733 -1.32042 3.49838
1.81263 0.27603 2.7715
2.07653 0.603372 2.64869
2.03155 0.365977 2.73778
1.53576 0.140224 2.84665
1.07768 -1.74969 3.81689
1.41596 0.788788 2.63921
-0.0240552 -0.669258 3.24722
1.05512 -1.58078 3.57068
0.621909 0.101759 2.90748
-1.27778 -0.64144 3.31891
0.0326075 0.84945 3.02321
0.404549 -1.51343 3.54649
1.68122 0.620774 2.62417
-1.40148 -0.603882 3.3053
-0.879256 0.196622 3.03982
-0.293716 1.40985 2.92508
-0.54747 0.671654 2.15701
0.42042 -1.60474 3.61898
0.565874 0.168015 2.88881
2.1161 0.284634 2.73491
1.23305 0.847468 2.74263
-1.13676 -0.646782 3.28527
1.60729 0.127164 2.71819
1.26291 -1.66972 3.49696
1.21596 -1.59307 3.65239
1.24824 -0.57594 3.03254
-0.255945 0.869048 3.00885
0.343701 -1.48743 3.58515
-0.404617 0.979188 2.96292
1.69794 -0.501659 2.81355
1.50893 0.198497 2.76673
-0.286993 -1.41166 3.53474
2.2776 0.238338 2.73551
-0.691174 0.664553 2.0312
-0.370305 0.764318 3.01781
0.128591 -0.795158 3.25949
2.40291 -1.53419 4.44556
-0.89133 0.0443609 3.07497
0.85557 0.701479 2.87538
-0.244788 -0.769203 3.35863
-0.983246 -1.10319 3.40953
1.12806 -0.00846514 2.81494
0.52967 -0.718951 3.2524
0.0903806 0.848641 3.04276
1.48321 0.0919992 2.92433
-0.899855 0.775997 2.67336
-0.468544 0.816189 3.06968
1.5527 -0.618376 2.8661
1.79607 0.071234 2.8296
0.0319647 -1.65139 3.61087
1.95595 -0.0431803 2.62802
-0.233119 -0.941781 3.43371
-0.164915 0.910843 1.95835
-0.0391821 -0.10904 3.00663
-0.00891873 0.827615 3.736
0.249244 0.60007 2.93837
-0.351277 -0.880558 3.38864
1.42242 -0.0736765 2.83064
0.366146 -0.838547 3.31371
1.76801 1.04687 2.55561
-0.911227 -0.0279815 3.1016
1.80166 0.892719 2.53849
0.826219 0.66372 2.90225
1.18551 -0.25896 2.86958
-0.732385 0.687928 1.97572
-0.456022 -1.16783 3.59577
1.49224 0.474514 2.76105
-0.688166 0.757374 1.8391
0.402454 -0.228538 3.05116
-1.03732 -1.02005 3.26772
-0.598841 0.483173 2.99757
-0.712067 0.599375 3.18565
-0.673821 -0.188921 3.07316
1.44771 1.15463 2.59903
0.497361 -1.02369 3.38711
0.240523 -1.01466 3.52133
-0.467409 0.83472 1.89963
0.838324 -0.151376 2.94483
0.778455 0.522879 2.92852
0.761935 -1.63585 3.74784
0.0947566 -0.0709277 2.9787
-1.2583 -0.839177 3.17731
0.96269 0.661769 2.89415
1.48054 -0.763197 2.89189
-0.986417 0.235092 2.99431
-0.946124 -0.0285783 3.08275
1.69297 0.577801 2.67202
-1.07126 0.04377 3.01083
-0.488793 0.714141 1.98687
-0.936454 -0.798321 3.3429
0.202411 0.782027 3.07504
0.514824 -0.00121392 2.96679
-1.4064 -0.757761 3.2587
-0.0979728 0.950685 2.03509
0.301033 0.743254 3.02996
0.0113534 1.22462 2.80178
-0.0531957 0.536553 2.99987
0.87271 -0.195217 2.9788
-1.49506 -0.99237 3.26894
1.73322 0.763707 2.57767
1.05575 -0.152263 2.847
-0.212324 -0.966537 3.38061
0.364262 0.597523 3.00284
-0.125854 -0.11949 3.08207
1.72882 0.510793 2.64974
0.387601 1.2457 2.90632
0.389945 -0.91308 3.28303
0.213677 0.424385 2.91435
0.363347 -1.28387 3.60703
-0.1735 -0.359155 3.12718
1.37134 1.04185 2.60626
-0.890572 0.403001 2.94838
-0.497228 -1.21285 3.57034
1.35667 1.01145 2.59815
-0.0615977 -0.308624 3.08843
-0.855197 -1.07911 3.34765
1.05325 0.487546 2.90083
0.588369 -0.276962 2.99172
-0.308641 0.798527 1.88363
-0.485518 0.485696 3.01386
-1.18067 -1.01658 3.30085
-0.858197 -0.22922 3.12906
0.404386 1.15922 2.85323
-0.798872 0.691624 1.95947
-2.09127 -0.767686 4.60077
1.13277 0.26978 2.80865
0.0747719 0.764156 1.55595
-1.14981 -0.469419 3.13971
-0.533933 0.695571 2.04281
-0.0179755 -1.44284 3.70856
1.08782 0.247714 2.88113
-0.259925 -1.21553 3.52357
-0.704342 -0.432783 3.23818
0.432818 1.06716 2.86212
2.4335 0.832634 2.89784
1.05123 -1.30944 3.39619
-1.33036 0.3759 3.00307
1.68872 -0.368496 2.7541
1.48564 0.939423 2.58766
-1.53469 -1.23503 3.33275
2.30065 1.02884 2.98103
0.797523 0.307615 2.92286
1.08771 -0.980605 3.31437
0.967163 0.58795 2.89946
-0.166139 -0.149832 3.0571
0.147256 -0.934867 3.35388
-0.501463 0.579254 3.03944
-0.859971 -0.103608 3.08286
0.592375 1.29492 2.8645
-0.918793 0.775648 2.79802
0.240146 0.668383 3.12678
0.873635 -0.0780389 2.95144
-0.483368 0.806728 2.42395
-1.21793 -0.872987 3.3448
1.32618 -0.290665 2.80581
0.509827 1.16776 2.87512
0.253482 -1.22834 3.59078
0.733224 0.466811 2.91351
0.803829 -0.272265 2.98108
-0.314733 0.784313 1.94953
-0.337637 0.438549 2.98874
-1.46691 -1.05409 3.19644
0.367493 -1.07663 3.42518
1.27238 0.506719 2.80187
1.80828 -0.217274 2.7477
-0.568366 0.853002 1.88067
-1.42098 -0.965616 3.21573
-0.913704 0.512405 2.96231
-0.507469 -0.184243 3.0711
-0.413423 0.899507 2.65593
-1.27258 -1.25058 3.31785
-0.839111 -0.424937 3.20866
-0.789813 -1.25765 3.46655
0.697557 0.308938 2.9065
-0.400807 0.731203 1.99746
0.133173 1.11523 2.91284
1.82717 -0.362106 2.84799
2.51539 -0.942174 3.15643
0.700832 0.387604 2.90415
1.54376 0.943774 2.47698
-1.06224 -0.358512 3.23832
1.15816 0.34333 2.86066
1.66514 -1.12756 3.11728
0.456314 -0.590579 3.17044
0.900219 0.927908 2.87562
2.20295 0.336954 2.6144
-0.181056 -1.46342 3.37539
-0.420441 0.220002 3.04255
0.43531 -0.547943 3.15986
0.227849 0.904593 2.97722
-0.0960856 0.461409 1.42334
1.33457 -1.50851 3.57809
0.58821 0.168459 2.87846
-0.515998 -1.46085 3.65783
0.308113 0.280893 2.9263
2.16989 0.256734 2.63222
1.5519 0.913014 2.59518
-0.51477 -0.49564 3.13381
-0.804516 -1.32339 3.43592
0.951029 0.255478 2.8938
0.351215 -0.46369 3.08909
0.43054 1.00117 2.97266
2.32034 0.538567 2.68323
1.03939 -1.31191 3.5091
-0.499786 0.39577 2.98095
1.37305 -0.372144 2.84636
-0.483812 0.751168 1.93168
-0.346912 -1.23287 3.49311
-0.929901 0.362805 2.94105
0.714329 1.06229 2.84659
0.173556 -0.355206 3.06664
-0.710766 0.726115 1.81526
1.40738 -1.11416 3.18494
-0.559048 -0.31293 3.10091
-0.437696 0.435387 2.97987
0.0163297 0.991315 2.96811
0.823271 -0.534936 3.07975
-1.30299 0.281076 3.02212
-0.85835 -1.44419 3.52778
1.91697 0.422665 2.63394
-0.80859 -0.48323 3.08246
0.115682 0.977269 3.03766
2.67567 -2.00378 3.66098
-1.2536 -1.33489 3.37454
-1.20164 0.232711 2.97583
-0.725922 -0.475286 3.2501
1.7484 0.296606 2.74544
-1.22386 -1.29099 3.36285
-0.617105 0.695417 1.95001
1.97468 0.0612809 3.0042
-0.578082 -1.29314 3.43615
-1.03526 0.305048 3.00146
-0.27901 0.749125 2.11718
1.96902 0.495439 2.62522
0.965379 -0.420218 3.00726
1.24262 -1.657 3.56793
1.31948 0.128082 2.78935
-0.150252 -0.675381 3.26864
-0.690388 -1.55283 3.25848
0.597548 0.862979 2.93356
0.798073 0.099227 2.916
-0.929195 -1.50556 3.40404
1.07196 -0.611564 3.03336
0.363623 0.837803 3.00284
2.04973 0.478693 2.60819
-0.634492 1.13515 2.85884
1.51733 0.800696 2.58064
-0.632518 0.1786 2.99879
-0.316993 1.41548 2.94107
-1.39685 -0.591242 3.20202
-2.30699 -2.44226 5.48962
0.608778 -0.0375112 2.93763
-0.353799 0.768948 3.18078
-1.03915 0.11226 3.04586
-1.34986 -0.809769 3.19532
-0.736995 0.0036879 3.0431
2.15043 1.00886 3.04031
-1.00256 0.681248 2.9059
0.519479 -0.793848 3.24388
0.367334 0.0705484 2.92815
0.232227 -0.757614 3.28128
0.708231 0.786178 2.92805
0.0454329 1.32001 2.85232
1.22319 0.0200261 2.7896
0.875693 0.746034 2.89744
0.833509 -0.69646 3.1543
-0.233683 1.00447 2.74478
-0.319918 0.749478 2.98667
0.0901811 -0.802266 3.28975
0.350893 0.0216038 2.9614
-0.279432 0.568599 1.83388
0.41279 0.729162 3.03484
-1.11805 -1.03136 3.33893
1.03628 -0.738564 3.09373
1.70141 -0.018733 3.10279
-0.0689631 -0.714478 3.27551
1.03457 0.0892498 2.84941
0.162892 0.835235 3.0222
1.37875 0.194669 2.01439
1.57283 0.698989 2.596
-0.844097 -1.59814 3.44969
1.87873 -0.281973 2.7101
0.896763 0.0581362 2.90139
-1.00669 -0.673309 3.30541
1.49689 0.573711 2.65409
0.704713 -0.930348 3.28777
0.622184 -0.1177 2.98273
0.557807 -1.77183 3.74142
-0.949703 -0.87469 3.35849
1.42213 0.544231 2.68596
-0.615599 -0.0771936 3.08037
1.78258 -1.06049 3.00016
1.20424 1.24161 2.72863
0.0993507 0.67987 3.00255
1.29337 -0.0518645 2.80578
-0.97316 -1.35311 3.41087
0.559992 -0.861897 3.33668
-0.0457223 -0.266479 3.05578
-0.56364 0.777648 1.84839
0.677227 -1.13919 3.43134
-0.819362 0.521573 3.05848
-0.679355 -0.237268 3.11134
0.314295 1.17835 2.92523
0.654262 0.455806 2.91096
1.25427 -1.03424 3.20675
-0.914603 0.624577 3.23344
-0.192268 -0.19941 3.05785
1.27913 1.20423 2.69268
-0.855185 -1.0302 3.42976
0.448137 -1.00392 3.42858
0.939386 0.519636 2.88013
1.46535 -0.155397 2.77133
0.000739425 1.23032 2.72951
-1.16069 -1.1756 3.26927
-1.00723 0.395383 2.91775
-1.3304 -0.39815 3.1872
0.0636306 1.11904 2.93468
0.425369 -1.26647 3.55142
-1.38763 0.370538 3.00213
-0.54373 0.734232 1.95064
0.293531 -0.365358 3.08326
0.918072 1.09304 2.75807
0.0639439 0.613763 1.32843
0.906235 0.426375 2.92099
-1.35598 -0.326762 3.16853
-0.0364179 -1.19204 3.48478
1.35392 -0.228218 2.80793
-0.483744 0.824693 1.89043
1.15127 -1.07349 3.32796
-0.334613 0.535959 3.04406
-0.0339314 -0.201646 3.06218
0.751013 1.17414 2.81319
1.14993 1.24295 2.72779
0.81911 -1.00779 3.26131
1.27562 0.475957 2.819
0.647616 -0.158765 2.981
1.75892 -0.898849 3.02171
-0.0440549 0.660722 3.21301
-0.449487 -0.113386 3.04751
0.499116 1.30908 2.87832
-1.4067 -0.903221 3.23041
1.5004 0.511621 2.67926
-1.50475 -1.18762 3.29819
-0.80847 0.438791 3.01068
1.05583 -0.353018 2.92412
-0.472112 0.747648 1.89724
0.00190627 -1.18141 3.44699
1.62572 0.349403 2.66727
0.655955 1.1027 2.89541
0.191343 -0.324781 3.07517
0.404593 -1.18119 3.569
1.05139 -0.270724 2.88399
-0.507094 0.46216 2.96417
0.13675 1.1585 2.89009
0.382836 1.02704 2.97535
0.254281 -0.507964 3.1263
1.35351 0.26336 2.78717
1.01915 -1.42619 3.47459
-1.12276 -0.618686 3.31132
0.0117274 0.613311 1.52562
1.30634 -0.450184 2.87727
1.02308 0.939304 2.77702
1.07121 -1.38454 3.48949
0.112135 0.247587 2.92009
-1.18319 -0.438917 3.20612
0.874242 0.342 2.90812
0.540871 -1.37668 3.59731
0.00853734 1.07659 2.92244
2.11008 0.449596 2.61745
-0.996521 -1.26538 3.48144
0.717073 1.01913 2.84918
2.18924 -0.118089 3.17522
1.63011 -0.366293 2.75036
-1.37809 0.325444 2.95922
1.72243 0.163525 2.74575
-1.27042 -1.42184 3.16121
1.4881 0.796125 2.593
0.0725676 -0.63833 3.20884
-0.486912 -1.49098 3.47915
-1.17535 0.145745 2.95695
1.70376 -0.541081 2.78343
2.16399 0.194176 2.86491
0.15495 0.86707 2.98889
1.24896 -1.58836 3.75321
0.689093 -1.46289 3.58308
-0.091362 0.958352 3.03124
-0.0352277 -0.555307 3.17365
1.73175 0.202174 2.74677
2.12044 0.333313 2.63332
1.49202 0.427808 2.68953
1.00557 -0.31395 2.92845
-0.638768 0.757717 1.86741
1.53886 -1.15057 3.26243
0.2233 -1.15201 3.5127
-0.20215 0.785191 1.96111
0.914523 -0.273461 2.97136
-1.03093 0.454822 3.04756
-0.263254 -1.05395 3.36372
-0.883192 0.563884 3.08191
1.38981 -0.227333 2.82099
-0.567785 0.835244 1.87882
-0.542856 0.503274 2.98961
-0.489941 -1.08907 3.56818
1.08546 1.14052 2.69507
1.76685 -0.197735 2.79186
-0.354374 -1.31959 3.50175
0.25494 1.07032 2.97486
1.43724 -0.402713 2.83367
0.0619314 0.610455 1.40419
-0.211679 0.316189 2.98676
1.24572 1.05369 2.72125
0.0346607 -0.386238 3.10205
1.48246 0.385894 2.91147
0.245798 -1.30637 3.56113
1.41405 0.986454 2.61804
1.25106 -0.347263 2.85013
0.0518052 0.918784 1.89649
-0.986813 0.36266 2.96189
-0.866822 -1.1946 3.40977
-0.9402 -0.577934 3.15033
2.09079 0.42319 2.62146
-0.0981835 0.213445 2.97261
-1.00141 -1.42265 3.30924
1.28006 0.882737 2.73579
-0.31798 0.918879 3.04891
1.0125 -1.58471 3.746
2.44059 1.08278 2.91808
1.74653 0.159237 2.728
0.338494 -0.545699 3.13888
-0.601513 -1.63086 3.42236
-0.158943 0.284553 2.97109
0.922392 -1.56287 3.82533
2.43923 1.10903 2.8632
1.04082 -0.481906 2.92587
-0.0774845 1.03544 3.0048
2.33702 0.617836 2.75077
0.527782 -1.48172 3.75513
-0.325181 0.258102 2.98619
-0.213375 -0.469022 3.17015
-0.728359 0.676287 1.98476
-0.0114466 0.790116 2.97729
-0.683665 0.068145 3.02337
-0.982786 -0.576162 3.30192
-0.685427 -0.736569 3.38981
-0.112716 1.35311 2.90413
-0.822781 0.668905 2.25702
0.451866 -0.660405 3.15041
-0.560463 0.136424 2.98085
0.365809 -1.63451 3.58031
-0.914941 -0.657349 3.40619
1.33908 0.759259 2.69023
-0.508302 -1.55867 3.50559
0.47656 0.0952244 2.90989
1.22966 0.919594 2.73352
-1.34141 -0.561384 3.2301
2.19411 0.968732 3.0395
1.95277 -0.476407 2.78527
-1.75037 -1.50448 3.52941
1.4905 0.244483 2.84054
0.481164 -0.516577 3.15117
-0.413754 0.684936 2.10552
0.0779753 0.697289 1.46389
-2.22352 -1.91726 4.62604
-1.12509 0.233411 3.05333
-0.836245 0.320761 2.96648
-0.998941 -1.37561 3.46272
0.373002 1.07055 2.96988
2.32417 0.964962 2.93292
1.59446 -0.448868 2.86206
-0.755642 -1.31873 3.50478
-1.32937 0.309546 3.01652
-0.707714 0.69414 1.97161
-0.0348828 -0.43927 3.16821
2.11881 0.357647 2.62279
0.868995 -1.69654 3.6849
1.25275 -0.643839 2.98791
0.774829 -1.68134 3.65223
-1.37872 0.118659 3.08407
-0.566742 0.821726 2.95681
2.23214 0.270958 2.62875
1.29584 1.03245 2.71176
1.31373 -0.583962 2.85194
-0.665245 0.643281 2.07408
1.18228 -1.7197 3.78445
-0.206582 0.17885 2.9858
0.495756 -0.602668 3.21565
1.08309 0.827665 2.81125
1.69086 0.124811 2.7584
-0.0800245 -1.56893 3.63691
-0.0594163 0.710987 2.96701
1.16692 -0.0450832 2.82568
0.0867054 1.28038 2.76926
-0.552546 -0.00240032 3.05047
1.40937 -0.766335 2.92601
-0.915681 0.674446 2.93904
2.27155 0.936884 3.20414
0.884952 -0.782483 3.15798
1.44811 0.0540987 2.8666
-0.551429 -0.767611 3.30826
-0.322389 0.799838 3.02486
0.791241 -1.53686 3.73594
-0.935249 0.041765 3.06704
-1.10954 0.229129 3.0297
-1.00851 0.775297 2.99947
0.0388763 -0.71401 3.25208
-0.10181 -0.967774 3.38087
0.314537 -1.72296 3.62573
-0.19033 -0.155813 3.04186
0.0701305 1.2372 2.78096
0.968888 0.551027 2.88751
0.259988 1.32295 2.9108
1.82303 0.885586 2.54426
-1.16353 -0.109106 3.12657
-0.507228 0.646949 3.05686
1.50443 -0.821469 2.83561
-0.281379 -0.0788674 3.05172
1.66017 -0.804942 2.89596
1.22318 0.55976 2.78988
-1.25618 -0.910625 3.26698
-1.30577 -0.114594 3.10074
1.80944 0.514743 2.63511
0.20364 0.582053 2.9323
-0.650363 0.703271 2.20442
0.590528 -0.0803141 2.94367
0.5149 1.28352 2.88188
-0.603598 0.683614 3.06143
0.265365 -0.901014 3.32967
-1.26544 -0.0421404 3.08051
1.03615 -0.856486 3.27853
0.614801 0.626947 2.98446
-1.28927 -0.287711 3.19929
-0.745702 0.752392 1.79274
-0.720501 -1.11883 3.42454
-0.288313 0.493226 2.97988
-0.21052 -0.237986 3.08768
0.436132 1.16483 2.8908
-3.40985 1.10839 7.05097
0.59054 -1.08935 3.39648
-0.780006 -1.05317 3.48111
1.00564 0.544853 2.8957
0.665377 -0.201784 2.96331
-0.32226 0.800773 2.09879
0.059589 0.52731 2.96614
1.14568 -0.985636 3.29455
-0.30506 0.898205 1.93697
-0.757357 -0.157092 3.08281
0.858964 -1.36624 3.68429
-0.985182 -0.392723 3.15349
-0.0746966 0.347667 2.97606
-0.762932 0.706307 1.89747
1.76792 -0.349786 2.72668
1.61288 1.00729 2.53237
2.50682 0.700941 2.79124
1.55482 0.366956 2.51135
-1.06231 -1.09054 3.10158
-0.671716 0.733013 1.92055
0.410367 -0.326564 3.08368
-0.262267 0.374172 2.93521
0.48857 -1.28454 3.70465
0.143513 -0.557759 3.16387
2.34786 -0.151651 3.01508
-0.237708 0.247318 2.98974
-0.736645 -1.45796 3.52486
1.6863 0.858641 2.54226
1.38764 0.84723 2.63526
-0.92822 -1.39539 3.48539
0.284087 1.38827 2.90773
-0.0524717 0.211755 2.95141
0.88033 -0.510763 3.04329
-0.685478 -1.35064 3.46463
-0.794763 0.32562 3.00606
1.13411 -0.446888 2.8814
0.689053 1.02246 2.86519
2.28896 0.630832 2.75596
-0.140073 -1.35264 3.58071
0.0872367 0.272401 2.90882
2.38245 0.898109 2.93062
-0.74713 -0.43076 3.15724
0.626307 0.998875 2.88848
-1.3923 -1.14101 3.16723
0.0584148 0.414912 2.93062
1.16078 -0.359388 2.87719
-0.784899 0.730852 1.8483
0.579659 -1.22825 3.53201
0.269847 0.367451 2.89927
-0.827717 0.716452 1.85854
1.08597 -0.320398 2.87808
0.20011 1.18149 2.94764
1.36377 0.434228 2.79024
-0.474464 -0.290159 3.09339
-0.652718 -1.11454 3.39485
0.383159 -1.4274 3.5698
1.33787 -0.481407 2.8375
-0.491105 0.701573 2.02319
1.23151 0.270853 2.84729
0.517921 -1.50043 3.68559
-1.38019 -0.494313 3.24437
0.634669 0.972816 2.91392
0.056372 0.931927 1.97105
-0.952135 -1.38858 3.56705
0.663375 0.235961 2.91904
-0.614102 0.346095 2.96088
1.3978 -1.31806 3.36636
0.0468602 1.07239 2.92429
2.34772 0.23471 2.73771
-0.649244 -0.443886 3.17615
0.631816 0.296049 2.90929
0.423583 -1.29469 3.50571
-0.79603 0.684459 1.88429
0.565274 -0.398083 3.04994
1.08803 -1.67206 3.63945
-0.0694101 -1.58 3.53295
-0.528943 0.169023 2.98198
-1.44068 -0.614741 3.04716
0.784452 0.87088 2.86161
0.867537 0.122735 2.89657
-0.80886 -1.44977 3.35503
0.374582 -1.74562 3.63813
-0.553564 -0.574284 3.11152
0.357631 0.863292 2.97867
2.01996 -0.796167 3.26303
0.658419 -1.61384 3.62618
-0.45206 0.678813 2.10565
1.32372 0.19473 2.78612
1.83692 0.323522 2.79969
1.26943 -0.536584 2.92254
0.78132 -1.71833 4.0414
1.343 0.690631 2.71896
2.2431 -0.197133 3.57548
-0.279244 0.0252678 3.02087
0.40353 -0.814055 3.32011
-0.248751 0.736061 3.09562
-0.0851981 1.09792 2.95701
0.712893 -0.0171984 2.93307
-0.794191 -0.801536 3.4469
0.915922 0.0919703 2.88946
1.67685 -0.768059 2.55868
1.0377 -0.684308 3.03777
-0.109502 0.83861 3.05961
-0.256246 0.0588361 3.03904
-0.807357 -1.60305 3.44705
1.86824 -0.504158 2.73881
1.65771 0.707293 2.64377
-0.918519 -0.690562 3.31601
-0.196368 0.768722 2.10857
-0.568077 0.318756 3.02135
-0.935795 0.0182341 3.08657
0.466729 -0.429853 3.05932
-1.05064 -1.25213 3.29652
0.975051 -0.388273 2.98499
-0.346634 0.766223 1.98102
1.33866 -1.22951 3.2686
0.595809 0.376594 2.9414
0.704496 -0.364539 3.02722
1.45042 0.98283 2.62805
1.49236 -1.22891 3.35781
0.514687 0.333246 2.86945
2.51982 0.305255 2.64306
0.78843 -1.71313 3.91551
1.1857 0.200691 2.80138
2.27613 0.140406 2.958
0.160489 -0.596376 3.18678
-0.362012 0.918267 2.7804
-0.177478 -1.50669 3.62968
0.965259 0.157903 2.85558
2.3727 -0.0925136 2.9757
1.58979 -0.50028 2.7578
1.081 0.858379 2.81647
1.41567 -1.4119 3.38965
1.42098 0.268079 2.77112
2.19053 0.287193 2.62809
0.655711 -0.514191 3.12075
-0.33161 0.726409 2.06491
-1.45773 -1.23005 3.06677
-1.37964 0.282463 3.08954
-0.008338 1.32017 2.90312
-0.753284 -0.475275 3.19607
0.383403 0.987224 2.97045
0.137554 0.801398 3.04214
-2.48476 -1.26761 5.22427
-0.100307 1.32773 2.89586
0.448099 0.0560876 2.92885
-0.518246 0.76475 3.03489
-0.304062 -0.71375 3.24623
-0.677152 -0.984667 3.57578
-0.168905 0.0271078 3.00411
1.06165 -0.656949 3.03725
-0.499786 0.799854 2.76914
-0.0872168 -1.69275 3.63665
1.7402 0.122872 2.73122
1.85665 -0.323342 2.70934
1.56494 -0.58988 2.85104
-0.510713 0.824987 3.0093
-0.46228 0.0981995 3.01802
0.685904 -1.73831 3.8856
0.710195 -1.578 3.76265
0.404522 -0.881297 3.27227
-0.998346 0.78664 2.84642
-0.829224 0.704887 3.05935
-0.852154 -0.0735889 3.08513
0.0384188 -0.841914 3.29116
0.560787 0.629927 2.95634
-0.573454 -0.0416386 3.07883
1.26573 -1.78798 3.71699
-2.15819 -1.1022 4.39083
-0.283758 0.883733 2.43393
-0.30451 0.952959 2.74774
0.132017 -0.0118812 2.95619
-1.13198 0.724386 2.94486
-3.14285 -3.24878 6.92852
1.09254 0.775 2.7905
1.46149 -0.635691 2.91414
-1.18674 0.118998 3.13699
-0.101769 -1.69848 3.5255
0.608941 -1.47106 3.58829
2.19765 0.313267 2.61957
1.2444 0.822858 2.71513
-0.193054 -0.642189 3.27232
-0.0716466 0.170597 2.96941
-0.879473 -1.52634 3.42641
1.20521 -0.583873 3.01507
1.43013 0.760903 2.59795
0.178511 -1.52082 3.53364
-0.230903 0.132565 3.00213
-0.218716 1.1575 2.9594
0.294199 -0.0455958 2.95778
-0.229119 -0.0140261 3.0549
0.014194 1.17833 2.88502
1.44025 -0.769213 2.90457
0.139383 0.724849 3.03134
2.31561 -1.52465 4.21549
1.15496 -0.774344 3.10478
-1.16223 0.670174 2.89067
0.319016 -0.783767 3.31621
1.78332 0.0594246 2.76887
-1.00428 0.79265 2.91933
1.52932 -1.49227 3.44557
1.64143 -0.827721 2.7296
1.61119 0.0261582 2.67378
-1.33561 -0.718932 3.27628
1.71726 0.700536 2.71444
0.241562 1.26352 2.92811
-1.19936 0.534979 2.76319
1.27355 1.14339 2.67539
-1.02012 -0.158169 3.15297
0.294216 -0.998189 3.40586
1.86285 0.998359 2.54569
-0.0692218 -0.117512 3.03764
0.193341 -0.928555 3.31582
-0.711208 0.636835 2.99344
-1.20111 -0.0739962 3.10071
-1.07136 0.590061 2.90579
1.31777 -0.841887 3.0392
-0.917876 0.466833 2.96074
-0.738232 -1.16403 3.41774
1.6031 -0.297401 2.73645
0.831037 1.12689 2.78568
1.49513 0.390216 2.7129
-1.04235 -1.07057 3.32585
-0.299425 -0.280774 3.07514
-0.0924804 0.832476 2.11994
-0.017782 -1.06977 3.40373
-1.09348 0.532945 2.93606
-0.512186 -0.242491 3.08892
-0.458283 0.873202 1.89729
0.185104 -1.10232 3.62815
-1.71161 0.622165 3.63977
-1.04449 -0.197159 3.11275
-0.136412 0.84262 2.00492
0.392054 0.474276 2.92921
1.26409 -0.279576 2.85328
-0.156334 0.839289 1.99258
-1.11054 -1.09282 3.32988
-1.31312 -1.03599 3.25759
0.750874 1.12873 2.80568
1.56433 -0.247431 2.84015
-1.10344 0.460743 2.92463
0.800329 -1.06645 3.42305
-0.954982 0.557577 2.95485
-1.35381 -0.207174 3.08635
-0.607946 0.841751 1.87088
1.38364 0.496962 2.7924
1.17867 -0.95937 3.22159
-0.884188 -0.167125 3.11579
0.945289 1.02555 2.78725
0.132179 1.33031 2.88447
1.0604 0.336016 2.88029
-1.06383 -0.405686 3.16621
0.617898 -1.29834 3.4886
-1.35572 -0.38201 3.17953
0.306652 1.17358 2.98145
-1.37073 -1.16416 3.25189
1.79665 0.403484 2.78058
-0.267649 0.775308 2.01052
0.502965 -0.329791 3.03468
2.64995 0.637871 2.72458
0.392673 -1.23179 3.53927
1.50386 0.344958 2.72844
-0.00771569 -1.51845 3.64619
-0.787396 0.251557 3.03594
2.15172 -1.09984 3.52304
1.51632 -0.502585 2.72299
-0.694507 0.66973 2.04262
0.7904 -1.71231 4.13595
-0.7513 0.212034 2.96155
1.31647 -1.72078 3.72405
0.761524 -0.51797 3.07075
-0.769362 0.64648 2.0337
-0.332207 0.308382 2.97587
1.40923 -1.67936 3.55657
1.41451 -1.51784 3.74076
2.07403 0.269586 2.75303
0.916689 -0.469953 3.01986
-0.00492727 1.04164 2.94042
0.435274 -1.39986 3.63853
0.839861 0.270809 2.88316
1.87952 0.679555 2.64513
-1.03086 -0.438148 3.17508
1.67195 0.878889 2.55648
1.65098 0.74321 2.66034
1.01159 -1.58462 3.62609
0.0417349 0.0935609 2.9991
-1.4031 -0.674426 3.15296
0.499235 0.630741 2.94613
0.576888 0.886042 2.94005
0.134474 -0.64596 3.21908
0.634999 0.156544 2.88452
-1.04761 -1.5518 3.44299
1.25258 -2.00493 4.12043
0.984644 -0.588529 3.03988
0.735498 0.835388 2.89163
0.467396 -1.63255 3.77615
-0.73834 0.131663 3.00573
-0.278682 0.971916 2.38086
0.286617 -0.526589 3.12265
-0.0767301 0.481252 1.47176
0.166019 0.267154 2.91994
-0.186052 -1.4502 3.58013
0.884738 0.972402 2.8432
-1.34522 -0.497317 3.22934
-0.198613 0.976603 2.9805
2.66214 0.871705 2.8345
0.096639 -1.38169 3.49999
-1.38794 0.255317 3.01369
-0.526349 0.345979 3.01757
-0.328476 -1.34882 3.5488
-1.43299 -0.458204 3.19718
-0.342576 0.746526 2.00972
2.09842 0.490372 2.59866
-0.457155 -1.31141 3.56059
0.331212 0.293275 2.9112
2.02168 -0.449904 2.77725
-0.517809 -0.416806 3.26808
1.30335 0.977559 2.72547
-0.280476 -1.63233 3.63736
1.44405 -0.590893 2.83728
-0.892685 -0.319958 3.16296
0.949311 0.122966 2.88054
-0.373224 0.880679 3.0621
2.01828 0.300177 2.76121
-0.692726 0.958431 2.94597
0.627932 -0.602504 3.1544
0.973307 0.903797 2.84483
0.0331465 -1.53156 3.54493
1.65765 0.189251 2.68259
-0.96476 -0.564779 3.15285
-0.798739 0.638245 2.10681
-0.290676 -1.48155 3.55485
-0.309968 0.164046 2.97913
1.19252 0.00831154 2.77332
1.5297 -1.00987 3.28536
1.2567 -0.762892 3.0026
-0.235539 0.764576 3.05972
-1.19387 -0.768047 3.28022
-0.023551 0.72318 3.04993
-0.276481 1.04846 2.86695
0.15837 -0.0214327 2.9552
-0.761054 0.100374 3.0441
-0.723058 0.822406 2.95751
0.994693 -1.73143 3.68873
-0.466965 -0.732535 3.2926
1.62329 0.601115 2.54735
-1.19012 0.0685395 2.97234
0.492864 -0.691661 3.21481
0.403757 0.791633 2.99234
1.29838 -0.885407 3.05168
0.999606 0.575049 2.9162
-0.546798 -1.61757 3.44876
-0.462809 0.717303 1.93727
1.42983 -0.132316 2.74116
1.92295 0.439442 2.63841
1.18429 -0.0869459 2.75612
0.852531 0.650547 2.89818
0.971491 -0.91684 3.32007
-0.0390236 -0.0553758 3.02303
-0.669666 0.620994 2.99429
0.431868 1.29538 2.88211
1.74223 -0.735056 2.76298
0.254986 0.20197 2.95599
1.04455 -1.56157 3.57437
1.77521 -0.441009 2.73726
0.617526 0.930208 2.93941
-1.39357 -0.632391 3.33365
-1.20995 -1.41337 3.36826
-0.408308 -1.59065 3.42856
1.41539 0.155891 2.82243
-0.144653 -0.556319 3.15338
-0.457871 0.878167 2.90164
-1.08899 -1.32682 3.30135
-0.846305 -0.505177 3.19726
0.896759 -1.78335 3.64982
-0.898188 -0.506924 3.15816
-0.00724571 0.237832 2.94665
2.36805 0.104297 2.94524
-0.309023 0.744246 2.19631
1.23354 0.735919 2.75363
1.40641 -0.725642 2.97324
0.803915 0.0520865 2.88074
-0.163335 0.941205 3.03002
-0.723554 -0.731761 3.31105
1.15686 0.718136 2.81843
0.647571 -1.46049 3.56133
-0.826001 0.0279433 3.0871
-1.22277 -0.714807 3.39058
1.76203 0.113605 2.72254
-1.2191 0.831896 2.82223
-0.272768 0.830836 3.02854
1.82927 -0.533561 2.79117
-1.18534 -1.561 3.4518
-0.299531 0.0988591 2.96438
0.999378 -0.619057 3.02138
1.12715 -2.10662 4.84086
-0.538633 -0.946658 3.54434
-0.0248731 -0.0760879 3.01241
-0.501579 0.689394 3.09472
-0.335378 0.642243 3.09092
1.19556 -0.823104 3.11449
-1.17994 0.0101946 3.09088
1.07308 -0.0518825 2.85954
1.74759 0.986223 2.53273
-1.60794 -0.83297 3.34436
1.29747 0.661873 2.75674
-1.04972 -0.00816858 3.05202
1.87326 0.518645 2.62728
-0.379898 -0.244675 3.0659
-0.0155579 1.22639 2.64658
-1.34772 -1.00967 3.16885
0.693939 0.517949 2.93846
0.978699 1.15108 2.75979
0.0135747 -0.208596 3.05001
1.02722 1.21633 2.74323
0.147093 0.480235 2.91648
-1.286 -1.05581 3.40002
-0.592925 0.620282 3.12571
1.11498 -0.159904 2.81455
0.976 -0.972281 3.25724
-0.141069 -0.941567 3.41065
0.307677 1.2581 2.91151
0.904704 -0.127524 2.92014
0.0220946 0.573992 3.03725
1.87802 -0.553233 2.74774
-0.382506 -0.85688 3.37218
0.453827 -0.0245648 2.96672
-1.04965 -0.0402972 3.11146
-0.749517 0.719222 3.00594
-0.149217 -0.807087 3.3258
1.09557 0.650576 2.88005
-0.767983 0.0669379 3.07414
1.89559 0.142146 2.74216
-1.13768 -0.787706 3.34771
-0.77722 0.799162 3.00818
-0.333296 0.0202126 2.97895
-1.01899 0.783415 2.83075
0.949377 0.725733 2.86385
1.1141 -0.693333 3.00871
-0.595202 -0.207715 3.11948
-0.654658 0.793302 1.86477
-1.82991 -1.1823 3.78325
0.196728 0.542983 2.9105
0.903874 1.19672 2.77133
1.53651 -0.163904 2.79931
-0.595437 0.827256 1.87271
-0.991027 -0.974201 3.35144
0.886436 0.241923 1.36439
-1.0417 0.789633 2.85292
-0.412383 -0.122233 3.02548
-0.582829 0.630218 3.05259
0.274144 -0.961296 3.39944
-2.66445 -0.26506 5.76574
1.39384 -0.796179 2.86254
-1.21517 0.590349 2.90006
0.136788 0.444514 2.92531
1.49519 -1.15893 3.24302
-0.838436 -0.341253 3.19814
-0.661927 0.745041 1.84559
1.4078 -1.1569 3.38433
-0.0964557 0.418456 2.96908
0.81028 1.10363 2.81416
-1.07366 -0.285375 3.14982
-0.557991 -1.13583 3.60339
1.40573 -0.232541 2.74021
1.69393 0.471504 2.85783
0.352723 1.20576 2.90893
0.987395 0.992112 2.76281
-0.998786 -0.462707 3.09405
-0.14283 0.306612 2.98005
-0.538357 -1.35948 3.47391
0.835267 0.970959 2.8256
2.38796 0.461901 2.58855
-0.460198 -0.450741 3.26096
1.12238 -1.33055 3.39751
-0.898196 0.290462 3.00438
0.362529 -0.405429 3.11471
0.676183 1.09032 2.88541
-1.145 -1.22162 3.3547
2.34212 -0.00569154 2.87416
0.468091 0.36536 2.87805
-0.650034 0.719997 1.92824
0.366104 -0.375275 3.12897
0.112984 -1.27431 3.56913
1.72947 -0.140927 2.82105
1.56362 0.304074 2.66732
0.164028 1.07308 2.95559
0.971872 -0.444519 2.99852
-1.14966 0.352317 2.99076
0.693544 -1.40113 3.60796
-0.479905 0.715394 1.98404
1.50284 -0.383429 2.77398
0.502186 -1.35693 3.63242
-0.418133 0.302668 2.96031
0.648261 -0.365977 2.95906
-0.361401 0.764057 1.94932
-0.0447284 0.538021 1.37143
0.0991204 -1.287 3.57944
-1.2358 0.430225 2.99415
1.57473 0.983655 2.55912
-0.266105 -0.335688 3.12936
1.36505 -1.19248 3.33498
2.63148 0.69031 2.7617
0.185136 0.359659 2.918
1.07343 0.226633 2.87813
-1.04141 -1.38258 3.27542
-0.0149509 0.560813 1.28744
-0.377589 0.708805 2.11913
1.51291 -0.537644 2.86858
0.615238 -1.53471 3.71416
0.640822 0.193186 2.89255
-0.584002 -0.532712 3.22637
-0.588185 0.654605 2.05026
1.24085 -1.48142 3.65795
2.06017 0.348709 2.63529
1.57304 -0.449368 2.74832
1.00344 0.26275 2.89355
2.23996 0.470373 2.59686
-0.250898 0.906655 2.58451
1.29072 -0.677849 2.89651
1.3942 0.746933 2.69901
0.55054 -1.45991 3.59324
1.71207 0.0889262 2.76223
-1.1771 0.737237 2.73776
1.35614 -0.657467 2.97615
-0.666929 0.79171 2.97624
1.65533 0.0439304 2.80003
0.737234 -0.644302 3.12489
1.06259 0.151276 2.8253
1.43724 -1.66761 3.62669
-0.829811 0.632459 2.08632
0.67546 0.84941 2.95333
1.34731 -0.572174 2.8852
2.39821 -0.96039 3.83472
-0.587534 0.123407 3.01233
1.20653 -1.68232 3.83172
-0.277238 1.08585 2.45641
0.870891 -0.852325 3.22594
-1.16591 -0.0155882 3.0874
0.507998 -1.45733 3.57977
-0.0754393 -0.0567799 3.02294
1.34751 0.644611 2.70161
-0.195604 -0.795169 3.30321
1.46898 0.609882 2.72374
0.74098 -1.88569 3.97005
0.995012 -0.786094 3.2344
1.9038 0.375675 2.67774
1.5946 -1.47791 3.39831
1.63854 0.0111571 2.74662
0.051325 0.75522 3.0424
-0.760495 0.626127 2.15697
-0.21021 -1.68183 3.60839
-1.3247 0.139514 3.08831
-0.486514 1.38187 2.96069
1.64959 -0.605227 2.839
2.23322 0.228075 2.7461
0.197276 -1.67293 3.71229
-0.478482 0.679734 2.12436
-0.222107 -0.617659 3.2066
-1.05933 0.217397 3.02874
1.1434 -1.49493 3.36526
0.92925 -0.558257 3.01187
-1.1393 0.745894 2.45969
-1.16404 -1.40434 3.32469
-0.714361 0.163931 2.96676
1.86463 0.995941 2.54951
1.08517 -0.785488 3.10348
-0.864382 -1.26664 4.49831
0.910456 0.011665 2.89063
1.49223 -0.0328095 2.78602
1.26508 0.695466 2.76378
-0.589328 -0.756804 3.21885
-0.251984 1.08073 2.45388
1.14558 0.676594 2.8308
0.0153293 0.0868372 2.97112
1.56844 -1.37761 3.19725
0.794552 -0.727952 3.16837
1.11884 0.76769 2.79543
0.958246 0.0472969 2.88414
-0.525982 0.78032 2.26796
0.497388 0.766174 2.91662
1.66483 -0.632102 2.81581
-0.38512 0.593465 3.05533
1.82676 1.03905 2.55017
1.36156 -0.130109 2.69499
-0.0471997 1.07 2.40805
1.37174 -0.901524 3.0839
1.89699 0.0854111 2.70047
-0.322146 0.671289 3.06782
-0.532068 -0.0937621 3.083
1.40463 -0.846197 3.00694
1.7372 -0.0567762 2.77601
-0.0819701 -0.869425 3.34506
1.46512 0.563389 2.66711
1.02172 -1.12391 3.30802
0.568293 0.473905 2.9222
0.500625 1.25331 2.88077
0.735141 -0.287617 3.02656
1.00328 1.13831 2.74028
1.47262 0.423266 2.78284
-1.14221 -1.03321 3.30316
-0.711957 -0.248728 3.0669
0.718678 1.14662 2.85773
-0.592759 -1.10526 3.6209
1.32223 0.515144 2.77396
-0.782148 -0.208326 3.07117
-0.155748 -0.989659 3.37526
-0.769785 0.526621 3.04543
-1.43871 -0.171181 3.088
-0.443713 0.899866 1.87767
-0.115796 0.782447 2.99303
-0.360981 0.843172 1.92765
1.30182 -0.726394 2.96791
1.09387 0.0473592 2.80741
-0.580927 0.757436 3.05093
-1.35773 -0.725996 3.21653
0.509708 -1.46068 3.5877
-0.042021 0.0168721 2.96439
-1.41057 0.136623 3.05333
1.95183 0.717438 2.56553
-0.726882 -0.68763 3.28623
-0.66917 0.857397 2.89341
-1.1116 0.112698 3.12218
-0.443625 -1.60905 3.56746
0.270646 -0.0857754 0.144047
0.63785 -0.651153 3.18686
1.50478 0.727861 2.61715
1.1065 -0.85311 3.08182
-0.182264 0.661911 2.96016
1.87805 0.112495 2.70677
0.966826 -0.0827659 2.89545
-1.28941 -0.824192 3.18784
0.781582 0.607396 2.92476
-1.47618 -1.58449 3.36436
1.47948 -0.0593259 2.82981
1.5268 0.377351 2.27681
1.79454 0.957757 2.52724
-0.861552 0.713455 2.97693
-1.00502 -0.00448218 3.07337
1.17991 -0.771248 3.06636
-1.09396 -0.249879 3.14157
-0.548552 0.819918 1.88862
0.785044 -1.0853 3.35345
1.68791 0.456184 2.58512
0.972645 -0.208575 2.9151
-0.716879 0.781934 1.86342
-0.125541 0.684598 1.64051
-0.564987 -1.04899 3.43683
-0.389114 0.485653 2.97928
-0.488524 -0.995533 3.36422
0.0930317 0.595671 3.00003
-1.46778 -0.167418 3.0931
-0.983951 -0.917942 3.30818
0.511548 0.531653 2.88708
-0.669368 -0.132063 3.06088
-0.653145 0.857668 1.86069
1.37673 -1.22191 3.32203
0.328217 -0.373149 3.09122
1.28562 0.359387 2.82726
-0.540035 0.74827 1.9445
0.0495117 -0.330237 3.06557
-0.315016 0.790245 1.968
-0.550664 0.454706 2.98787
-1.52238 -1.14864 3.26503
1.00359 1.11348 2.83504
0.121073 -0.288326 3.06012
1.82747 0.391333 2.7644
0.534387 -1.18204 3.53442
-0.247621 -0.214483 3.08814
-0.262611 0.869326 1.95665
0.441811 -1.06582 3.43835
0.372285 1.33712 2.89302
-0.858306 0.594701 3.16789
-0.283234 0.921988 1.9355
1.76295 0.731484 2.58193
-0.43055 -0.170362 3.09127
0.277316 0.507759 2.92938
0.202041 -1.04414 3.55134
-0.199936 0.639722 3.09029
-0.547256 -0.138315 3.08967
-1.3227 -0.922027 3.26124
-0.480351 -0.956376 3.53147
-0.0713918 -0.0890634 3.02196
-0.125546 0.59284 2.99924
0.72082 -1.22385 3.48538
1.73151 0.420771 2.696
0.963112 -0.324091 2.89646
1.48352 1.02877 2.52998
0.483278 0.402426 2.89929
1.35947 -1.14556 3.33924
1.12782 -0.281341 2.83847
0.100332 1.12282 2.90872
1.19153 1.12297 2.68825
1.5451 0.429981 2.68947
0.983047 -0.249667 2.9222
0.197821 -1.10971 3.46587
0.880792 -0.485344 3.05823
-0.0557458 1.0597 2.9949
1.54747 0.278114 2.70129
-1.07499 -1.30943 3.3488
2.51156 0.0277975 2.92073
-0.949296 -0.456067 3.2724
-0.0448644 1.01744 2.97087
-1.44797 -1.19888 3.08482
1.72103 0.252223 2.6809
-1.12941 -0.421153 3.25361
0.0783338 0.361695 2.91496
1.52082 -1.3109 3.42657
0.278409 1.12492 2.98064
-0.00549808 0.530909 1.21694
1.61681 -1.18867 3.21312
-1.48035 -0.385226 3.21888
-0.758138 0.70642 1.89606
0.0235256 0.586037 1.46228
0.180763 0.330966 2.92171
0.563843 -1.56945 3.61972
-1.2695 0.222942 3.02592
-1.4303 -0.605547 3.1667
1.57887 0.819829 2.58255
0.500476 -1.57379 3.75072
-1.1059 0.171329 2.92567
2.44929 0.651421 2.78367
1.50413 -0.568675 3.04724
1.40836 0.807767 2.6851
-0.49019 1.44518 2.95956
0.982333 0.937908 2.84237
0.595702 0.22834 2.89547
0.0525804 -0.529381 3.179
2.16429 -0.708989 3.22376
-1.35806 -1.32646 3.25689
0.62994 0.223417 2.91586
-1.18207 -1.36405 3.22739
0.18592 0.968494 2.99684
0.674598 -0.57551 3.12076
-0.413194 -1.46965 3.59166
-0.817738 0.206167 2.97199
-1.27442 -0.541749 3.25634
-0.266616 0.941162 3.03781
0.022995 0.710353 1.80127
0.114987 1.00165 2.96629
2.49697 0.816461 2.88095
-1.03163 -1.62978 3.45937
0.436606 0.260443 2.8891
-1.06118 -0.485758 3.09076
2.27936 0.0228114 2.96073
0.311503 -1.46595 3.66032
-1.12888 0.77059 2.76615
-1.08073 -0.765955 3.33729
-0.22723 0.0870031 3.0294
0.056574 1.31679 2.88024
-0.0430413 -0.698078 3.25326
-0.412033 1.31602 2.95314
-0.0397277 0.772912 2.98855
-0.718508 0.0546551 3.03666
0.372681 -0.646947 3.15603
-0.110977 0.160654 3.01293
-0.33942 -1.59384 3.52051
-0.178325 0.8866 3.02969
0.0837543 0.69204 3.34782
-0.743605 0.861899 2.93904
-1.03317 -1.46144 3.30643
1.41335 0.103799 2.85056
1.44302 -0.582186 2.93391
-0.298409 0.858929 1.9311
-0.840648 -0.993518 3.79959
-0.958014 0.699852 2.944
-0.148555 -0.0575068 3.01985
1.51094 -0.681115 2.66972
-0.97405 0.728643 3.25019
0.30743 -0.0249311 2.96615
-0.212204 1.01318 2.76517
1.82285 0.354773 2.65282
0.702572 0.732935 2.94579
-1.20406 0.0249272 3.09143
1.51559 0.406715 2.27159
1.45721 -0.720906 2.92994
0.432008 -0.214113 2.99242
-0.129502 0.942663 2.14989
0.347053 1.27041 2.90953
-0.44703 -1.08396 3.51037
-0.987684 0.55402 2.96334
1.33055 -0.172305 2.79203
-0.633037 0.807645 1.86557
1.69799 1.11181 2.56109
-1.10889 -0.967978 3.26557
-0.352468 0.512041 2.99172
-0.592558 -0.983396 3.43431
-1.12846 0.606026 2.8669
-1.03534 -0.132677 3.16647
1.7134 -0.794403 2.8063
1.56983 0.526664 2.67857
-0.737813 -0.0871213 3.03549
0.681347 -0.802075 3.18599
1.0486 0.00842363 2.87747
2.54627 0.00769253 3.78106
0.930737 -0.0285581 2.88253
-0.312346 0.757706 3.09222
0.221516 -0.781551 3.28482
1.0328 0.681003 2.87214
1.85746 -1.40646 3.26873
-1.38592 -0.723442 3.14278
-0.869566 0.766737 2.65009
-0.354468 0.0424174 2.97946
1.34888 0.707399 2.70811
-1.38726 -0.173111 3.08305
1.35899 -0.935876 3.06197
-0.394857 0.576903 2.99417
1.90257 0.592455 2.60816
1.55131 -0.137449 2.74457
-0.547124 0.855084 1.88399
1.89015 0.370084 2.63882
-1.43748 -0.910697 3.17817
0.610007 0.536393 2.92238
0.869215 -0.100074 2.95441
1.39481 0.595655 2.6976
-0.10708 -0.903167 3.34534
0.778778 1.26556 2.82656
0.642183 -0.0634046 2.94063
-1.40452 -0.824811 3.13209
1.7407 0.564371 2.70102
1.15217 -1.15867 3.38029
1.74932 0.449847 2.74466
0.0765064 -0.295831 3.06344
-0.451032 0.775919 1.86275
-0.69974 0.456405 3.07599
0.0988628 -1.14775 3.55993
0.000273956 0.844452 2.09144
0.471065 -0.262103 2.97683
1.59469 -1.00065 3.12972
1.66708 -0.206299 2.72214
0.618865 0.501318 2.92037
-0.691954 0.71162 1.91368
1.33275 -0.415247 2.74655
0.967688 1.01473 2.7773
1.29981 -1.36193 3.4437
1.40522 0.312866 2.78601
-0.25294 -0.417682 3.16955
0.524576 1.02349 2.91592
0.333829 -1.31233 3.50487
0.24698 0.291191 2.92345
1.55802 0.365749 2.63275
1.27584 -0.365874 2.85907
0.690752 -1.27885 3.50524
1.19247 1.06274 2.71531
-0.0243912 0.504992 1.3187
-0.613632 -1.19125 3.45441
1.82013 -0.337454 2.81447
1.34631 1.01594 2.67072
2.27193 0.299179 2.51168
1.23179 0.354699 2.84664
0.772188 -0.894617 3.22067
1.55977 -0.097212 2.83874
1.93199 0.000323432 2.73698
0.0839612 0.648717 3.1275
1.03983 -1.74808 3.69319
1.25906 -0.0637193 2.78004
1.65201 1.14291 2.56437
0.370062 0.712769 3.02507
-0.478126 -0.873532 3.36256
0.78294 -0.0274975 2.91336
-1.2318 0.657128 2.88305
0.229632 -0.827629 3.31471
1.32485 0.494841 2.84238
1.2457 -0.245192 2.77736
-0.262005 0.878341 1.97248
-1.22837 -1.05677 3.3061
-1.27342 -1.01478 3.30419
-0.383125 0.779096 2.02934
0.836464 1.15987 2.79552
1.55403 -0.218935 2.86903
-0.462341 0.487648 3.00812
-0.671141 -1.00058 3.42581
-0.898634 0.596521 2.99914
0.064118 -0.173047 3.03171
0.274838 0.540653 2.93137
-0.292975 -0.941566 3.3526
-0.607955 0.872411 1.88271
0.50822 -0.136438 2.95094
0.900711 1.05643 2.77886
-0.641539 0.373346 3.00629
-1.00594 -0.371999 3.14344
-1.15787 -1.21301 3.34447
1.61335 -0.323384 2.83964
-0.474812 0.756778 1.87749
1.12671 -1.21162 3.4208
0.599742 0.441902 2.91089
-0.76635 0.7273 1.85147
-0.5038 -0.294967 3.09698
0.802906 0.405298 2.91784
1.00473 -1.19635 3.50739
1.47207 -0.485439 2.80416
-0.0470314 0.623768 1.34467
-0.580918 0.275687 2.98776
-0.443523 -1.43816 3.52562
1.08209 0.947569 2.76131
1.36362 0.886062 2.68678
0.950674 -1.52227 3.78052
-0.317515 0.236399 3.00421
-0.0315225 0.573543 1.30044
1.25856 -0.479169 2.93815
-1.41191 -1.22748 3.1667
-1.09426 0.348625 2.94983
0.39801 -0.445235 3.09024
-0.695664 0.720306 1.93799
2.31589 0.0390818 2.9553
-0.172838 -1.32684 3.58652
1.00161 0.28751 2.91695
-0.00829934 0.543384 1.289
1.05784 -0.396296 2.91931
0.173643 1.02737 2.9208
0.735292 -1.15866 3.27975
0.990097 0.440923 2.89935
0.0255568 -0.338001 3.08159
-0.523343 0.414778 2.99963
0.371411 -1.192 3.54522
1.01409 1.08216 2.76968
-0.994195 -0.292343 3.13421
0.214291 1.20366 2.89719
-0.842414 0.499781 3.0222
-1.3126 -0.258394 3.14438
1.55116 1.02826 2.54164
-0.956675 -1.02368 3.1619
2.59366 0.936353 2.86923
-0.2421 -0.493545 3.18237
1.35465 0.953417 2.68108
0.59584 0.28845 2.89454
-0.869439 -1.40572 3.53442
-1.30651 -0.452151 3.15984
1.47513 0.883326 2.56371
0.393451 -1.37509 3.56333
0.869234 0.25969 2.87452
1.66153 0.334752 2.67061
0.897229 -1.32062 3.49285
-0.185149 0.790448 2.06965
-0.0174167 0.533292 1.24476
0.236305 -0.408556 3.09741
-1.07447 0.352164 3.02482
1.25993 -1.24061 3.35877
1.11536 1.00846 2.74513
1.59735 -0.360742 2.82229
0.651741 -0.456962 0.857854
-0.967213 -1.48667 3.41114
-1.33858 -0.644854 3.37301
2.26509 0.205596 2.74415
0.394583 0.153577 2.91403
-0.399349 0.893804 3.02284
-0.478522 -1.60469 3.41447
2.25833 0.508544 2.63989
-0.50522 1.40404 2.96384
-1.44955 -0.579636 3.18469
-0.852529 0.668017 2.01882
0.812653 -1.52296 3.5729
-0.827997 0.235476 2.99207
-1.00049 -0.544175 3.21812
1.67352 0.810035 2.54158
0.799188 -1.56062 3.79065
1.24213 0.183531 2.79014
-0.035687 0.0439638 2.95758
-0.229832 1.06848 2.45275
0.992654 0.75716 2.88025
1.68265 -0.714314 2.85652
0.982214 -0.734461 3.14996
0.0289741 0.748177 3.04096
2.00484 1.07237 2.6972
0.681494 0.0110716 2.91356
0.761976 0.115434 2.87019
-0.298996 0.874403 3.02937
1.82709 0.720246 2.57292
0.871594 -0.683862 3.13186
0.608082 -1.7764 3.9082
0.274761 0.0810852 2.95644
1.05498 -0.639553 3.06836
2.50084 0.0139897 3.75469
0.763518 0.802644 2.90597
0.7079 -0.737143 3.16573
1.19495 0.753965 2.76609
-0.0475262 1.12481 2.933
1.06703 0.0745925 2.80374
1.39513 0.691251 2.65869
1.47771 -0.637536 2.84932
-0.280111 -1.07778 3.44281
1.14193 0.030154 2.8438
-0.607975 -1.57219 3.46118
-0.671658 0.149422 2.97556
2.06529 1.16269 2.80725
-1.37156 -0.647619 3.16487
-0.114568 0.914506 3.10296
-0.260408 0.114231 2.9982
-0.678103 -1.54497 3.51879
