ply
format ascii 1.0
element vertex 1838
property float x
property float y
property float z
end_header
1.34315 0.946957 2.68695
0.593667 0.291421 2.88916
-0.869439 -1.40572 3.53442
-1.30651 -0.452151 3.15984
-0.0404019 1.00821 2.282
1.46774 0.878399 2.57004
0.394377 -1.37541 3.55736
0.862813 0.257867 2.86973
1.66153 0.334752 2.67061
0.893755 -1.32326 3.48131
-0.185149 0.790448 2.06965
-0.0174167 0.533292 1.24476
0.239157 -0.401166 3.09696
-1.07447 0.352164 3.02482
1.26156 -1.2383 3.35045
1.10615 0.999278 2.74608
1.59339 -0.356431 2.82655
0.651741 -0.456962 0.857854
-0.967213 -1.48667 3.41114
-1.33858 -0.644854 3.37301
2.25765 0.216213 2.75085
0.395789 0.159995 2.91353
-0.394035 0.890818 3.02413
-0.478522 -1.60469 3.41447
2.2468 0.509373 2.64531
-0.50522 1.40404 2.96384
-1.44955 -0.579636 3.18469
-0.852529 0.668017 2.01882
0.816185 -1.52483 3.56972
-0.827997 0.235476 2.99207
-1.00049 -0.544175 3.21812
1.66574 0.805869 2.55097
0.803123 -1.56041 3.79003
1.23398 0.184077 2.79604
-0.0333651 0.046801 2.95384
-0.229832 1.06848 2.45275
0.985922 0.754809 2.88618
1.67583 -0.713557 2.85741
0.982167 -0.731807 3.14662
0.0311161 0.744157 3.04797
2.00484 1.07237 2.6972
0.678442 0.0133602 2.91176
0.757511 0.115984 2.86457
-0.298996 0.874403 3.02937
1.82284 0.715667 2.57448
0.874074 -0.679303 3.1276
0.608082 -1.7764 3.9082
0.276369 0.0858777 2.95692
1.05436 -0.63509 3.06558
2.48899 0.00882944 3.76027
0.7615 0.798515 2.91274
0.707473 -0.733801 3.16303
1.18382 0.74698 2.77052
-0.0490872 1.1051 2.91633
1.06464 0.0773871 2.79748
1.3836 0.684432 2.66475
1.47356 -0.632874 2.85061
-0.274656 -1.08226 3.43827
1.13572 0.0313802 2.84407
-0.607975 -1.57219 3.46118
-0.668873 0.153204 2.98561
2.06529 1.16269 2.80725
-1.37156 -0.647619 3.16487
-0.108158 0.908059 3.10711
-0.253379 0.119635 3.00157
-0.678103 -1.54497 3.51879
2.11356 1.06307 2.76681
0.239424 -0.627209 3.21476
1.63188 0.741733 2.61461
1.11581 -0.812784 3.06379
0.78676 -0.0639658 2.90234
0.579903 -1.77017 3.7292
-0.260518 0.683802 3.1703
1.91314 0.641975 2.61488
-1.4296 -0.0233483 3.08517
-0.904012 -1.61898 3.41758
0.111486 0.737415 3.04716
1.91833 -0.164655 2.72025
0.810339 -0.806146 3.18054
1.24956 0.00809996 2.76645
0.340002 0.705937 3.03284
-0.403624 -0.787735 3.31839
1.27942 0.514417 2.82067
0.174134 -0.227194 3.02567
-0.278069 0.909576 1.96615
0.0503118 -1.06277 3.406
-0.621361 -1.01015 3.40918
-0.447503 0.756806 2.22485
-0.684305 0.801805 1.86578
0.992601 -0.174474 2.92656
0.825653 0.500546 2.96923
-0.548847 -0.956776 3.32685
1.04452 0.593559 2.89251
-0.382883 -0.142398 3.09274
0.443922 0.555856 2.91599
1.21795 -0.886576 3.14942
0.663096 1.24433 2.84123
0.409366 -0.0976986 2.96382
-1.02841 -1.2102 3.50716
-0.600788 -0.949744 3.42831
-0.37199 -0.345328 3.1298
-1.31516 0.420547 2.95399
-0.393525 0.7593 1.94391
1.65883 -0.282944 2.62233
0.0589575 -0.222159 0.902777
1.15434 1.11464 2.70729
0.296088 -1.20814 3.54105
0.358727 0.46027 2.88052
1.13473 -0.254076 2.82536
0.390529 1.13554 2.87134
-0.581758 0.442622 2.98928
0.450958 -1.15584 3.52293
1.26187 -0.171023 2.77564
-0.422397 0.723903 1.96896
0.297558 1.30129 2.9079
-0.934778 -0.983624 3.37952
1.12023 0.554121 2.84517
-0.685026 0.856499 1.8654
-0.798754 -0.139169 3.09309
-0.548949 0.550795 3.04541
1.83187 0.658213 2.59839
-0.751386 -0.957721 3.36782
-0.560738 -0.0981294 3.09735
-0.866891 -0.904667 3.30068
-0.1179 0.694551 3.12167
-0.193585 -0.892018 3.42311
-0.319828 -0.0546889 3.05247
1.38196 0.560587 2.75464
-1.42953 -1.08678 3.20487
0.0396032 0.481029 3.00486
0.819687 -0.302046 2.98324
0.619917 1.19303 2.88709
1.41243 0.410476 2.77134
-0.39695 -1.1878 3.69466
-0.331259 -0.261969 3.10646
1.42155 1.05539 2.63417
-0.369231 0.850351 2.41277
-0.193109 1.17134 2.95696
0.098363 0.503326 2.96866
1.29121 -0.207444 2.80688
0.693169 -1.09206 3.4083
-0.906564 -0.462125 3.20296
0.101796 1.18688 2.15406
0.812188 1.02841 2.84072
0.194971 -1.42332 3.645
1.65663 0.293126 2.73291
-0.302008 -0.416895 3.1784
-0.251903 -0.0312492 1.42534
1.11791 0.978249 2.7851
0.693061 -1.3687 3.61867
0.905593 0.288107 2.85874
1.52089 0.363656 2.70068
1.6482 -1.21189 3.21814
1.53187 0.987237 2.52426
0.0625903 0.539621 1.29819
1.22785 -0.371807 2.92298
0.00750325 0.362179 2.95762
1.67248 -1.10337 3.06596
-0.808091 0.706946 1.87053
-0.709927 -0.348884 3.12453
2.47637 0.933195 2.90135
-0.730823 -1.47699 3.49445
1.09067 -0.542707 2.91437
2.08543 0.524066 2.60089
-1.36514 -1.29866 3.10457
-0.260569 0.188047 2.97345
1.64618 -0.501218 2.8284
-0.659709 0.644836 2.08339
0.12673 0.596058 1.33913
2.01417 0.457062 2.62414
0.738776 0.967057 2.88406
0.253102 0.267341 2.93256
-0.0313337 -0.504452 3.18569
0.962765 0.928595 2.86585
-0.585545 -1.395 3.49305
1.51007 0.203903 2.71086
1.11619 -1.10688 3.35623
-0.503351 0.516519 3.00372
-0.0710619 -0.252413 3.08395
-0.317597 0.863958 1.94197
1.18613 0.453931 2.82919
-0.738012 -1.06217 3.45737
-1.13586 -0.220573 3.16095
1.55199 1.03375 2.47217
-1.51935 -0.956563 3.17289
1.65079 0.539167 2.76359
1.2458 1.16457 2.69695
-0.234593 -0.174028 3.07652
-1.12992 -0.915115 3.20844
-0.0183824 0.550965 3.02781
0.310906 -0.138381 2.96646
-0.515678 0.853849 1.88441
0.873011 1.06127 2.82543
-1.101 0.378381 2.99407
-0.157722 -0.0882766 1.11634
1.16485 0.985397 2.71238
-0.479587 -0.374988 3.0953
0.971249 0.325117 2.91427
-0.0600989 1.23059 2.84696
0.0694099 -1.31929 3.63159
-1.13705 -0.361335 3.26694
1.54825 1.00426 2.49317
2.64484 0.925798 2.85866
-1.25913 -1.15913 3.33459
0.746545 0.446136 2.91747
0.251373 1.12462 2.95737
0.445997 -0.286234 2.9999
0.1423 1.26 2.3709
1.318 0.38552 2.79616
-0.605225 -1.17757 3.50872
-1.21071 -1.32634 3.24308
1.53109 0.238857 2.59003
0.525778 -0.304431 0.580315
1.29939 0.928388 2.73798
1.30241 -0.506666 2.90509
-0.67524 -1.39184 3.51354
-0.608463 0.226825 2.93654
0.992546 -0.485354 3.00495
-0.46678 0.687049 2.08122
1.85932 -1.89948 3.62123
0.724715 -1.39685 3.55747
0.693531 -0.452067 3.0888
-0.0246905 -1.34379 3.57253
0.766426 -1.81142 3.81853
1.49879 0.276152 2.76067
0.0409081 0.59611 1.30592
-0.189201 -0.41285 3.13936
-0.545804 0.699421 2.00116
-1.46123 -0.69239 3.19233
-0.641878 0.852603 2.98504
-0.501492 1.35557 2.96346
-0.120295 0.128928 2.99996
0.0652928 0.817935 3.03972
-0.715011 -0.678949 3.40137
2.27624 0.6755 2.76214
-0.993491 0.10572 3.22786
0.077715 -1.58355 3.48226
0.742875 -0.608701 3.11056
0.18833 0.927444 3.02635
0.635602 -1.65807 3.72866
1.53028 0.183335 2.80668
-0.178626 1.11824 2.87394
-0.719995 -0.568863 3.2055
1.58478 0.761733 2.57965
-1.34595 -1.40376 3.32542
-1.03971 0.167355 3.00203
0.724683 -1.66222 3.64546
0.998441 -0.471289 2.93555
-0.0294643 0.588081 1.53196
1.07118 0.287921 2.89279
-0.69272 0.706165 1.97822
1.06797 -1.36208 3.33641
-1.08548 -1.27427 3.3397
1.23294 0.254918 2.81894
1.51342 0.876826 2.60022
0.0306028 0.847401 1.81288
0.0807048 -0.444825 3.12171
-1.48341 -1.23678 3.29133
1.07622 0.350337 2.87382
-1.3311 -0.431946 3.24046
-0.231642 0.776785 2.03586
0.0279747 0.550356 1.32358
-0.918322 -1.23047 3.44299
-1.36019 0.343717 2.99125
-0.0225437 0.5224 1.45055
1.48408 -0.360777 2.82204
-0.42152 0.736629 1.99578
1.22004 0.82332 2.76117
2.26959 0.733599 2.841
-0.407982 0.156555 2.99233
-0.747307 -0.620965 3.28719
0.110095 -1.63548 3.69311
2.22414 0.52121 2.64665
-0.709643 0.662478 2.00633
1.46152 -0.557344 3.00893
-0.344817 0.237979 3.06239
-0.182243 -1.53107 3.61491
-0.426276 -0.537065 3.23973
1.3457 0.83499 2.70501
0.228936 -1.46095 3.54805
-0.892605 0.196104 2.97444
-0.215433 1.34467 2.92538
-0.247113 1.01584 2.23591
0.491411 0.0421299 2.9158
-1.08595 -0.788754 3.40039
-0.611246 0.760512 2.95351
-0.564643 -1.03328 3.58793
-1.07296 0.748982 2.97518
-1.41462 0.0209041 3.16808
1.38741 -0.699975 2.98712
0.388587 0.115516 2.92667
1.4676 0.330083 2.1891
0.562078 0.82163 2.93493
-0.86417 -0.699766 3.23477
0.135154 -1.57767 3.47372
-0.817696 0.0882849 3.0615
1.90617 1.12678 2.94506
-1.06975 0.787777 2.8377
0.183527 -0.656979 3.20606
1.27351 0.570221 2.77549
1.84249 0.320645 2.68443
-0.355092 -0.0908714 3.07268
0.0146493 -1.7142 3.68333
-0.979695 -0.898246 3.35091
1.67293 -1.06705 2.94595
-0.646031 -0.0677712 3.07632
1.75434 0.659544 2.79874
1.47675 -0.800264 2.94431
-0.673966 -0.0222988 3.07804
-1.05359 0.661263 2.97496
-1.20345 0.238155 3.00156
-1.18662 -0.794738 3.20053
0.0177677 0.716998 3.24393
0.0351453 1.26545 2.85567
-0.459309 -0.0611364 3.07767
-0.386022 0.866366 2.36069
0.11959 -0.874961 3.33576
-1.45425 -0.0286193 3.08773
-1.2 0.729524 2.91628
-1.23605 -0.789088 3.15122
1.42872 -0.00231575 2.78907
-0.692451 0.698128 3.02572
1.76118 0.93223 2.53133
-0.0886864 -0.789689 3.32323
1.71195 0.48365 2.64187
0.337729 -0.225885 3.03894
-0.377161 0.846988 1.91256
-0.964632 -1.05092 3.41319
1.30381 -0.948403 3.09587
0.457487 0.485114 2.88185
-0.135685 0.992415 2.64358
1.14833 -0.171006 2.77056
-0.354958 0.869008 2.45738
1.84576 -0.861109 2.91416
-1.02252 0.611674 2.97352
0.981234 -0.144648 2.8993
-0.758999 -1.0156 3.6301
0.37498 0.551371 2.93552
0.473619 -0.108145 2.96748
0.911469 1.23505 2.76563
-0.553087 0.745637 1.90837
0.911894 0.388003 2.92499
-1.15976 -0.223313 3.13143
0.470376 -0.33856 3.04606
1.22215 -1.17452 3.28731
1.57622 -0.299651 2.95834
1.65141 1.04779 2.53525
1.1168 -1.19486 3.46526
1.10649 0.460502 2.86751
1.31879 1.05092 2.63333
-1.42535 -0.270369 3.11291
-0.247936 0.448445 2.99505
0.598776 -1.1077 3.36917
-0.250982 -0.0318208 1.42345
0.40344 -1.42765 3.54265
1.168 0.269573 2.80224
0.0668075 1.01228 1.96242
-0.799785 0.692975 1.96871
1.18699 -0.469302 2.86981
-0.19994 -1.38213 3.58117
-0.670686 0.258232 3.00245
-0.366517 0.720926 2.09565
0.0996569 1.1924 2.25617
0.73579 -0.449914 3.01324
-0.0124228 1.35421 2.88957
0.0771868 -1.33983 3.5613
0.446496 0.34271 2.87919
0.702786 -0.41155 3.04109
-0.4521 0.741319 1.95256
-0.0923562 -1.26215 3.47963
0.0935625 0.567184 1.35337
-0.969687 0.328258 2.96013
-0.228338 -0.38262 3.14602
1.49904 0.932207 2.57428
0.867149 -1.16904 3.37999
-1.50975 -0.321261 3.22292
0.449308 0.425897 2.89268
-0.294192 0.781421 1.96586
1.08186 -0.254486 2.83529
-0.696444 0.684897 1.9361
-0.140752 1.18311 2.83379
-1.35136 -1.06488 3.2319
-0.414901 0.513115 3.0159
-0.738526 -0.216702 3.08346
1.0835 1.09453 2.69522
0.907103 0.456385 2.92481
0.412487 -1.07434 3.40158
1.50663 -0.427897 2.8134
1.15261 0.295093 2.81256
-0.939593 0.0805527 3.07589
-0.599709 0.697547 1.94523
-0.432809 -1.35123 3.50055
-0.883432 -1.27527 3.42718
-0.0314642 0.291737 2.92753
-0.660605 0.693995 1.95878
0.188706 1.37005 2.7342
-0.580061 -0.431059 3.24334
-0.73031 -1.25291 3.47492
-0.92874 0.407329 2.95729
-1.09574 -0.37046 3.02538
0.39039 1.09548 2.87698
0.0779516 0.555337 1.35788
-1.06255 -1.18445 3.34904
1.67189 0.324331 2.69894
0.0529072 0.702491 1.39889
-0.610361 0.723529 1.91001
-0.7725 -0.360803 3.1803
0.881842 -1.50675 3.46435
0.881297 -0.568674 3.04817
2.45898 0.73057 2.85844
0.29309 0.18101 2.9318
0.287926 0.922213 3.0403
1.88651 -0.212957 2.78698
0.813372 0.963928 2.87711
1.02405 -0.521714 2.9887
0.199122 -1.69552 3.59895
-1.53939 -1.38462 3.31474
1.13317 0.246479 2.81719
-0.172572 -0.500922 3.18183
1.09602 0.881628 2.75906
0.0378852 -1.4392 3.55321
0.351971 0.206984 2.8928
0.930816 -0.723584 3.1163
1.5387 0.0725221 2.96483
-0.458653 1.05522 2.85706
2.02909 0.52006 2.61187
-0.520589 0.801678 3.00664
1.35534 0.687468 2.67449
-0.141342 1.38762 2.9068
0.282868 0.0397479 2.95506
1.09604 -0.669131 3.01771
0.19877 0.144962 2.96403
-0.566744 -1.56219 3.4349
1.38435 -1.36424 3.25921
0.961667 0.838087 2.8752
-1.35197 -0.665363 3.21196
-0.21857 -1.58627 3.59227
0.240123 0.114798 2.95854
-1.23651 -0.650299 3.34766
2.26224 1.06865 3.01923
-0.389562 0.855819 3.07567
0.46712 1.06176 2.87445
-1.24393 -0.418707 3.1647
1.47151 0.341614 2.8602
0.957995 -1.50298 3.92714
-0.160615 -0.0882845 1.12193
-0.225691 0.764304 2.06991
0.177128 -0.375125 3.0768
0.368362 1.48701 2.73727
0.874979 0.315647 2.90031
0.914193 -1.33301 3.57015
-0.0114062 0.443334 2.9648
1.3433 -0.325118 2.7667
-0.403675 -1.24614 3.55155
0.469806 1.12543 2.869
0.123795 1.37653 2.83013
-0.40293 -1.19359 3.52626
1.10834 1.03476 2.67148
-1.12973 -0.303664 3.18932
0.751647 0.394573 2.91516
0.198381 1.43777 2.58273
-0.0781201 0.264325 2.95402
0.873442 -1.49133 3.59174
-1.16299 -0.562089 3.34225
0.444453 0.987294 2.94954
-0.805568 -1.39003 3.47951
0.228306 0.223602 2.9278
0.0338585 0.522646 1.31094
-1.16686 -0.513 3.24705
0.379798 0.944242 2.95375
-0.401082 -1.36658 3.55193
2.30768 0.46142 2.60452
0.654343 -0.456735 3.06957
-1.35385 0.304563 2.95481
0.0336594 0.557763 1.23163
1.46688 0.904268 2.57657
0.394461 0.828855 2.98262
0.129918 -0.70042 3.23446
0.988374 0.101274 2.85297
-0.00360776 1.36779 2.88465
0.558516 -0.660057 3.21482
0.439127 0.798757 2.95682
1.13986 -1.74979 3.78656
1.87189 -0.667505 3.00677
-0.467479 0.0810377 2.97708
-0.440771 -0.630762 3.31891
1.14942 0.176054 2.7876
-1.21103 -1.42293 3.22923
1.74529 0.0716688 3.29818
0.880277 0.895244 2.91064
1.68857 0.779969 2.63119
-1.11351 -1.41868 3.32504
-0.25692 0.154328 2.96222
-0.666724 0.790878 2.97337
-0.478878 -0.593723 3.31087
-1.24765 0.0180588 3.12593
-0.339263 -0.841251 3.38675
0.896348 0.704426 2.89179
1.71508 -0.0389567 2.70903
-1.41879 -0.77238 3.19803
-0.530767 0.708099 3.08464
-0.785016 -1.26193 4.36702
1.54789 0.0507781 2.37198
0.600936 0.772826 3.00125
-0.600214 0.0513148 3.04263
1.10253 -1.66924 3.51335
0.0381488 1.20675 2.86831
-0.0866375 -0.744013 3.25593
-0.574065 0.823939 2.73082
2.0929 0.264468 2.64865
1.12615 0.134549 2.80974
-0.509737 -0.626271 3.27843
0.257342 0.852259 3.0605
-0.804274 -1.55566 3.52023
-0.940098 -1.62989 3.44006
1.67867 0.0914772 2.7639
0.553199 -0.585096 3.18307
-0.564111 0.68391 2.09054
2.23326 0.564305 2.69785
0.271204 -1.54909 3.63214
-1.00371 0.239867 3.01805
-0.156631 1.05706 2.98117
-1.22206 -0.560087 3.29915
1.19314 0.846658 2.75193
-0.0802747 -1.47771 3.6043
-1.42676 0.199966 3.08526
-0.349772 1.29917 2.94866
2.13884 1.06557 2.93458
0.195053 -0.786452 3.28932
1.63493 0.0296445 2.70845
-1.13093 0.781941 2.96833
-0.593761 0.0133766 3.05425
-0.691887 0.725765 2.9626
-1.18682 -0.725379 3.18959
-0.358847 0.982415 2.70355
1.62392 -0.661602 2.92359
1.55446 0.0689576 2.70211
0.674217 -1.85127 4.01966
1.96683 0.115604 2.61722
-1.25399 -0.678596 3.31223
0.0792447 0.804647 3.02181
1.60671 -0.147609 2.78969
1.43071 -0.867353 2.91919
1.06849 0.586479 2.87444
1.92832 0.551477 2.62793
1.14289 -0.0959979 2.76186
0.388313 1.29718 2.91261
-0.0640643 -0.915737 3.33496
-0.647599 0.592873 3.10085
1.88897 -1.02722 2.90698
1.60546 0.618183 2.64235
-0.721663 -0.0566153 3.06648
1.52967 -0.789914 2.94453
0.865089 0.62839 2.90682
-1.38956 -0.022546 3.11351
1.51542 -0.749405 2.91615
1.18801 -1.2867 3.385
-2.54676 -1.9648 5.52484
0.642446 0.496043 2.91011
0.619019 -0.264027 2.95465
-0.790044 0.735677 2.37372
-0.0951488 0.480091 2.97076
0.48193 -1.09079 3.4483
-0.411878 0.772542 1.87237
0.488869 -0.215959 2.97928
1.4767 -0.886608 2.87416
0.0910308 -0.179143 3.01866
-1.28686 0.532451 2.87086
0.153556 1.28011 2.89603
-1.09533 -1.01986 3.2439
0.450841 0.513929 2.89463
-0.29205 -0.223585 3.11231
-0.611645 0.896036 1.86309
-0.125264 -1.02351 3.45276
1.13162 0.480753 2.88222
0.936435 -0.193214 2.91182
-0.232859 0.814696 1.92897
-0.0420633 -0.975567 3.35303
1.79809 -0.151574 2.80707
-1.33571 0.566818 2.89898
1.0609 1.23179 2.73701
-0.756424 0.7275 1.87359
1.10313 -0.359636 2.89009
-0.753038 0.40207 2.98004
-0.383812 -1.2964 3.55151
0.625734 1.07119 2.89044
0.0929375 -0.348748 3.09408
-0.188693 1.19271 2.95924
-1.23118 0.374537 2.99753
0.507903 -1.28261 3.60843
0.924186 -0.293307 2.95052
1.36608 1.07383 2.61392
-0.936468 0.0353734 3.08412
-1.03941 -1.12605 3.35592
-0.89464 0.478543 2.95742
0.842815 -0.275726 2.99509
1.63044 1.00126 2.49048
-0.299991 1.03031 2.8438
0.272488 0.422813 2.89863
0.0268201 -1.12676 3.43114
1.63132 0.259212 2.63582
1.35863 -1.41283 3.43356
-0.0513549 0.543199 1.31693
-1.24316 -0.51912 3.25903
-0.483358 0.708318 2.00791
0.354594 -1.32453 3.37257
1.30703 0.246413 2.80908
-1.03961 -0.456131 3.10287
-0.512979 0.695874 2.03742
-1.1226 -1.25301 3.33821
2.16462 0.425644 2.61888
0.799949 -0.421971 3.02358
2.40538 1.01723 2.9253
1.44887 0.291289 2.77658
1.59319 0.93996 2.58217
0.0456822 0.88189 3.05993
-1.4203 -0.653552 3.11978
0.344767 0.147231 2.94957
0.0871252 1.34863 2.87746
1.14733 -1.66788 3.58538
2.23163 0.605834 2.72297
0.334582 0.843576 3.03251
-0.491558 -0.643892 3.33339
0.182219 0.107903 2.94583
1.49051 -1.61079 3.54077
1.52268 -0.526339 2.79011
-1.32521 0.24053 3.06117
1.29546 -1.56451 3.60331
0.0470405 1.30302 2.88093
0.298468 0.963073 3.00859
1.42717 0.812729 2.65882
0.928219 -1.52659 3.62914
1.00458 0.163673 2.82945
-0.362595 1.41212 2.93686
0.365432 -0.53965 3.14629
1.5545 -0.4405 2.85803
0.0850612 0.311347 2.9081
-0.0209377 0.930456 2.26333
1.28594 -1.40994 3.52142
0.422817 1.03476 2.90179
-0.188448 1.05495 2.77586
0.571269 -1.35093 3.53363
1.23349 0.946024 2.73119
0.195261 0.280821 2.90904
-1.32449 -0.426874 3.16585
2.2125 -0.803804 3.33786
1.04917 -1.19153 3.22484
1.64465 0.362434 2.68126
0.614985 -0.377917 3.03202
0.0302421 1.08792 2.87888
-0.0990788 -1.34398 3.79856
2.17262 0.89064 2.92686
0.229535 0.349514 2.92677
0.153363 1.07889 2.93718
-1.18231 -0.352828 3.12717
-0.0604594 0.905237 3.02449
1.66835 0.616575 2.63417
-0.963697 0.189632 3.04189
0.821126 -0.573012 3.09787
0.846731 -1.5071 3.45877
2.20128 0.384782 2.61353
-0.600288 0.665586 1.9832
0.963033 -0.535981 3.00623
0.145854 0.262507 2.92686
0.125714 -1.52381 3.68945
1.12463 -0.470839 2.92164
1.51269 0.844553 2.61094
1.48013 -1.40121 3.36658
1.4005 0.203782 2.83969
2.3871 0.171194 2.8465
-1.38691 -0.786558 3.32934
-0.237162 1.31917 2.93399
-1.46054 0.0835233 3.20479
0.301904 0.766999 2.92183
-0.0742749 1.34839 2.89815
-0.957952 0.0432359 3.04365
-0.494953 0.787768 3.07618
0.259987 -0.716476 3.28065
0.795129 -1.73298 3.76316
0.994414 0.124923 2.84236
-0.560171 0.914472 2.86524
1.15491 -0.62534 2.94622
-0.441347 0.862232 3.01238
0.701852 0.0999545 2.88539
0.151879 -1.59773 3.60884
-0.160817 0.527174 1.46593
1.47188 -0.572671 2.81852
-0.836321 0.845511 2.93985
1.12702 -0.105731 2.78219
-0.203607 0.637505 2.99296
1.2 -1.68969 3.66429
1.24442 -0.888158 3.13153
0.37567 -0.0632004 2.93842
-1.02443 -0.873367 3.34811
0.463315 0.586189 2.94131
1.53444 0.262272 2.30669
0.593336 0.721887 2.98843
-0.737682 -0.0378525 3.08759
1.26117 -1.68119 3.53636
0.550405 0.00423609 2.95558
1.77136 0.79508 2.58066
-0.943948 -0.987872 3.80054
1.26587 0.636243 2.77272
-0.561287 -0.850318 3.47983
1.75851 0.907162 2.54349
0.043832 -1.49986 3.64694
-0.271347 0.263074 2.97921
0.245693 0.997933 3.01066
0.894325 -0.537389 3.03891
-1.19915 -1.35146 3.4139
-0.869336 0.229103 3.01951
-0.677453 -0.506253 3.24725
0.697712 0.938489 2.91104
0.626101 -0.401086 0.777847
0.0617458 1.00383 2.92777
2.23972 0.18339 2.86099
-0.96651 0.304425 3.01314
0.126516 -1.71044 3.62312
-0.0598223 -0.476065 3.18827
2.27922 0.802996 2.88092
-1.03966 -1.29573 3.38423
1.15402 -0.671326 2.99267
0.712745 0.82259 2.95828
-1.00854 -0.689762 3.33678
-0.893621 0.119007 3.04437
-0.843293 0.829985 3.05153
0.91266 -0.660564 3.15851
2.39149 0.743055 2.85826
0.517346 0.0758696 2.89482
1.22941 -1.60321 3.48452
1.01599 -1.60834 3.60947
0.0373023 0.172125 2.93391
2.23447 1.03488 3.07859
1.54897 -0.567206 2.77117
-0.382736 0.900076 2.98026
-0.899308 0.151441 2.98334
-0.352644 -1.4632 3.42671
0.0625861 1.32381 2.8847
-1.14762 -0.597559 3.34151
0.176033 0.873569 3.01017
0.422661 -0.83511 3.29361
1.03434 -0.0349093 2.88047
1.59427 0.0463106 2.41192
0.888072 0.660814 2.88007
-0.518315 0.916026 2.87685
-0.0485927 1.11677 2.43854
-0.877039 0.768556 2.95347
-1.35356 -0.795949 3.30382
-0.106418 0.0472751 2.9922
0.483946 0.716496 2.98624
0.569851 -0.751113 3.22623
-0.188069 0.00899794 3.03587
-0.318966 0.66182 1.67571
0.500625 -0.175902 2.98296
1.52609 1.09894 2.5637
0.252334 -1.04361 3.48505
-0.159274 0.544127 2.85847
1.72415 0.920038 2.53333
-0.291387 -0.140374 3.02523
-0.167099 0.878306 2.01452
-1.29082 -0.936824 3.25934
1.63271 0.504411 2.79867
0.548874 -0.922456 3.30714
1.40868 -0.109998 2.71511
-1.30289 0.618041 2.80575
-0.669704 -0.915773 3.45078
1.57701 0.534579 2.63895
1.27101 -0.0701987 2.75342
0.288996 -0.804951 3.34879
0.0285111 0.0391775 2.94652
0.445565 0.746078 2.957
0.916259 -0.737386 3.1607
1.746 0.000938911 2.74405
1.0054 0.704648 2.88264
2.32085 1.01318 3.15279
1.512 -0.0325874 2.21669
0.694757 -0.69279 3.16843
-0.937551 0.083664 2.95926
1.96292 -0.000439189 2.62553
-0.491885 0.803772 3.03305
-1.13307 -0.148107 3.1015
0.76033 -0.969165 3.29527
1.70609 0.914772 2.5432
0.406346 0.566023 2.78793
0.750436 1.23399 2.82845
1.54835 -0.881175 2.80403
-1.47177 -0.104986 3.20357
-2.80831 1.13414 5.80529
-0.852832 -1.64652 3.45334
0.115406 -0.929272 3.34362
-0.909192 -0.0592617 3.0917
0.994179 -0.883621 3.29012
1.25039 0.648911 2.79859
-1.99913 -1.05163 4.04714
0.0532653 0.711404 3.21791
-0.347034 0.906233 2.60468
-0.297899 -0.0301399 3.06195
1.08485 -1.13583 3.42048
1.70026 0.457083 2.64536
-0.151612 -0.260979 3.06484
-0.370783 0.760643 2.17196
0.469498 0.454365 2.88653
-0.15906 -1.07248 3.45344
1.01249 -0.22518 2.89385
-0.190871 0.8113 1.96998
-0.61316 0.878672 1.86664
1.21046 0.49931 2.79836
0.435583 -0.178927 2.9945
1.50122 -0.980464 3.20254
0.204233 1.3918 2.66304
1.30822 -0.386195 2.78643
1.47214 0.985833 2.6338
-0.268654 -1.32303 3.48688
0.695544 0.348101 2.91367
-1.00142 0.0128766 3.1031
1.39361 -0.351699 2.8212
-0.532851 0.713465 1.95112
1.4536 -1.2688 3.373
0.186599 0.310221 2.91342
-0.508143 0.436922 2.96593
1.67314 -0.32472 2.70393
-0.207877 -1.22114 3.48116
-0.362835 0.77134 1.91824
0.0560785 0.68346 1.41155
-0.126656 -1.17107 3.45636
0.324926 0.383081 2.9047
-0.187045 0.792989 2.0354
-0.631675 -0.302469 3.0733
2.52451 -1.75569 3.54503
1.70525 -0.362255 2.68172
0.725243 1.07827 2.8532
-1.32993 -1.215 3.30863
-1.34219 0.39804 2.93293
0.0830743 1.36106 2.62549
0.557118 1.06939 2.9157
-0.44528 -0.360336 3.21868
-0.112792 -1.32392 3.719
1.71434 0.327839 2.71842
1.37748 0.436141 2.79039
0.584703 -0.32275 3.00894
-1.15063 -1.12829 3.27064
0.269069 1.18858 2.95388
-0.0217702 0.963539 2.29977
0.575524 -1.17193 3.5141
0.0563534 1.10619 2.84729
-0.184389 -0.265012 3.06677
-1.0465 0.424016 2.8659
1.05499 -1.40926 3.44504
1.77346 0.272295 2.7843
-1.22649 -0.379259 3.19348
0.461512 -0.52207 3.18859
1.57472 0.895392 2.56463
-1.3385 -1.28067 3.27191
0.514512 0.245215 2.80367
1.44497 -0.442288 2.80615
1.57674 0.847479 2.53267
-1.14198 -0.591481 3.31255
-0.15244 0.901821 2.4534
2.51429 1.02088 2.85914
-1.33553 0.338641 3.03043
-0.131412 -0.437265 3.1478
1.99477 -0.502516 2.78386
-0.81805 -1.27034 3.36777
0.638052 0.860829 2.95541
-0.069419 -1.70414 3.60473
0.618782 -0.670023 3.17769
-0.645837 0.136369 2.99531
2.04832 0.583864 2.662
-0.0445689 -1.67795 3.66283
1.24526 -0.606398 2.99816
2.04599 0.255362 2.66532
-0.867396 0.824219 2.87292
0.872006 -1.72951 3.83043
-1.47654 0.124126 3.22625
-1.41107 0.228334 2.98102
-0.4155 -1.47666 3.42654
-1.18711 -0.613309 3.3322
1.30103 0.861876 2.68503
-0.376637 1.06704 2.87906
1.75187 -1.57246 3.68514
-1.29576 0.188305 3.04769
0.749049 -1.5816 3.62345
0.751767 -0.543852 3.09538
-0.777618 0.670276 2.17089
1.50055 0.0236727 2.87794
0.316399 -0.814617 3.34613
1.5192 0.66594 2.6016
-1.42728 0.00016425 3.07337
-0.913754 -0.77377 3.32641
1.53561 0.639598 2.64329
-0.348055 0.696871 2.19072
1.50649 -1.45756 3.361
1.67178 0.706666 2.6289
1.27649 0.0533384 2.78484
1.89687 -0.291696 2.71384
0.0129012 -0.71815 3.22369
-0.923844 -0.627375 3.22342
1.13139 0.838841 2.75489
1.10436 -1.6325 3.61255
1.69109 0.154562 2.76654
2.08948 0.211856 2.87427
2.27602 0.846421 2.91158
0.333197 -0.578915 3.14639
-0.0475428 0.882822 3.07723
-1.34151 0.154134 3.06427
-0.616568 -1.48724 3.4722
0.762075 0.947542 2.86211
-0.652819 -0.573507 3.33328
1.16153 -1.59739 3.76362
-0.0408416 0.258597 2.93747
1.79525 -1.90392 3.96585
0.74369 -0.5071 3.10354
0.779169 0.916276 2.89135
0.701342 -1.50574 3.57332
-1.24142 -1.3056 3.23616
1.46614 0.205423 2.81623
2.34281 0.766567 2.87409
-0.0198887 -0.756523 3.25741
0.729867 0.0616074 2.90323
0.240719 0.636211 3.00203
1.16484 0.736916 2.77425
-0.0808842 0.0306939 2.96327
0.772277 -0.699245 3.17595
-0.181462 0.753217 3.04051
1.35715 -1.69859 3.62953
1.92152 -0.325363 2.72267
1.15387 -0.644337 2.99922
-0.175825 0.108022 3.00533
0.252604 0.782365 3.57391
-0.168916 0.838458 3.08344
-0.185853 -0.103864 3.0472
0.413795 -0.928224 3.31676
1.63804 0.241167 2.73016
1.13104 0.61156 2.87784
1.73816 -0.504305 2.768
1.20865 -0.0861991 2.76801
1.15354 0.570447 2.8225
0.601032 -0.893352 3.29521
0.751905 -0.0379984 2.90725
0.768045 -0.00549556 2.9238
0.257416 -0.847655 3.2913
-0.506612 0.716244 3.06361
-0.0166508 0.65246 3.05992
-0.355531 -0.822274 3.41027
0.0619895 0.730719 3.14408
1.5365 1.14723 2.56485
1.16367 -1.03301 3.22043
0.888283 0.518845 2.90184
-1.02914 -0.236158 3.16062
-0.647712 0.830512 1.85623
1.70278 0.462613 2.7434
0.932773 -0.999926 3.22831
1.0516 1.12946 2.72233
-1.18417 -0.194534 3.10732
-0.381037 0.762095 2.06359
-0.379298 -0.986939 3.43068
1.65938 0.517547 2.72738
0.69687 -0.151345 2.9726
1.23236 -0.656643 2.95343
-1.23187 0.113213 3.02226
-0.298814 1.03096 2.96473
0.857659 0.810414 2.93162
-0.134238 0.786192 2.97093
-1.12987 -1.56156 3.3845
1.98058 0.731688 2.73244
1.68377 0.0559896 2.70161
-1.33902 -0.684826 3.28819
1.71141 0.148549 2.72772
-0.533737 -1.55085 3.49246
1.26717 -2.0082 4.32766
0.00847493 0.939861 3.12128
-0.911933 -0.631969 3.29626
-1.51587 -1.3737 3.1454
-1.09732 0.149953 3.0293
1.04136 -0.561971 2.95888
0.975214 -1.40342 3.53326
-1.15179 0.822378 2.76707
1.33263 -0.757855 2.91948
-0.417315 0.696733 3.07415
1.40267 -0.0455955 2.80824
-0.676783 0.719221 2.25802
1.62833 -0.917451 2.91921
-0.595409 0.760351 2.99765
1.01399 0.0272791 2.86181
1.83081 -0.718928 2.86724
1.13701 -1.98538 4.12952
0.338835 0.736568 3.04599
-0.121092 0.951232 2.03463
-1.42642 -0.730469 3.12907
0.223809 -0.00214049 2.99707
1.09977 0.543759 2.8693
-1.09966 -0.192273 3.13162
1.84831 -0.15565 2.72476
1.2397 1.21603 2.72411
-0.304912 -0.994964 3.2955
0.182893 -1.02116 3.50304
1.76553 0.883561 2.55044
0.218592 1.33441 2.89277
0.747952 -0.152597 2.96566
-0.4261 0.541194 3.03528
-0.0140602 -0.918671 3.3313
-0.216259 -0.105295 3.02399
0.751265 0.62568 2.94218
0.335256 0.595857 2.97723
0.0690793 -0.876819 3.29484
1.10365 -0.0731866 2.81453
0.57496 1.13143 2.87111
-0.123705 0.429509 2.97655
-0.794369 -0.311142 3.17746
-0.844635 -1.14354 3.39904
0.402118 -0.272483 3.09793
1.41843 1.0769 2.54014
-1.27084 -1.06687 3.27616
-0.205505 0.496389 2.94887
1.46891 1.04993 2.54137
-1.23332 -0.228035 3.13098
-0.954325 0.481918 2.97312
0.296462 -1.09986 3.48432
-0.203562 1.16592 2.95817
1.76884 0.857282 2.55119
-0.649473 -0.155235 3.05485
-1.071 -0.953616 3.34243
0.907127 0.575187 2.91835
0.770909 -0.113894 2.91649
-0.33422 0.763739 2.0732
0.851123 -1.63002 3.80174
0.836052 -0.921827 3.25599
0.475815 0.548603 2.90638
-0.301975 -0.890303 3.38466
-0.415199 -0.0693692 3.0123
0.457142 0.659741 2.97684
1.00886 -0.847228 3.27182
-1.26646 0.625776 2.87128
-0.188091 -0.0376364 3.03161
0.822109 1.2324 2.79301
-0.104973 -1.12998 3.4461
0.151864 -0.270567 3.02994
-0.320572 0.473755 3.02389
0.994835 1.09903 2.71836
0.288868 -0.220008 3.01781
-0.635246 0.852292 1.86649
-0.568703 -1.06317 3.38753
1.65225 0.51621 2.80705
1.41364 -0.183631 2.71365
0.647104 1.17887 2.84695
1.5208 -0.944444 3.02917
-0.587973 0.512529 3.02738
0.0725842 1.22106 2.38482
1.10092 -0.411126 2.92829
-0.39067 0.744753 1.99181
-0.619226 -1.28202 3.40956
-1.25765 0.369735 2.97885
-1.21094 -0.397319 3.21537
1.23572 0.994565 2.72149
-0.987968 -0.00630516 3.10059
-0.0759481 -1.28266 3.52515
-0.382417 0.31504 2.98882
0.943932 0.416403 2.91553
0.913866 -1.26073 3.47283
0.90453 -0.345507 2.98627
-0.0106972 0.58643 1.27934
-0.791739 0.724279 1.81225
-0.338459 0.386833 2.97223
1.45574 -1.13531 3.21299
0.0160173 0.979387 2.14771
0.356562 -0.327756 3.14687
1.13875 1.03845 2.70191
-0.990569 -1.41516 3.37849
0.0322053 -0.552409 3.1713
2.35796 0.859503 2.93661
-0.52381 0.221681 3.00368
-0.300159 0.885006 2.78705
1.95163 -0.507539 2.79656
-0.104064 1.01287 2.9978
0.575632 -0.512383 3.15474
2.09013 0.323476 2.74279
-0.30668 -1.38611 3.45042
-1.09983 0.297048 2.96837
-0.379958 -0.472707 3.22113
1.27005 0.926503 2.77206
-0.623735 -1.3343 3.43393
-0.518177 0.266341 3.04753
-1.27887 -1.3069 3.21711
1.38219 -0.489547 2.85388
2.4096 -0.132923 3.04711
1.60513 0.236531 2.80699
1.41029 0.884784 2.66562
0.190361 1.34865 2.90257
0.112421 1.04051 2.95245
0.125358 -0.461435 3.10718
1.84002 -0.431809 2.72419
-1.18474 0.327168 2.98267
1.40872 -1.34983 3.32059
0.218758 1.03963 3.03133
-1.06954 -0.434863 3.15442
-0.531064 -1.30438 3.4362
-0.101401 0.283764 2.96063
-0.493853 -0.673342 3.25999
0.875631 0.845908 2.90927
-0.944875 -0.367989 3.1766
0.25096 -1.64456 3.59253
-0.97428 0.139631 3.00337
-0.268005 -0.635402 3.23023
0.815299 0.799047 2.90591
2.55614 0.110109 2.92466
1.57932 0.0844753 2.743
-1.4382 -1.4373 3.18643
-0.504091 0.214794 2.99384
-0.518926 -1.47975 3.36903
0.0932227 0.959821 3.03185
1.06113 -0.570254 2.96329
-0.222756 1.10923 2.95753
-0.340145 0.174622 3.00935
-1.50522 -1.38454 3.3085
0.494554 -1.52373 3.59042
-0.682448 -0.568239 3.32648
0.991827 0.862295 2.86001
0.637079 -0.793986 3.20574
-0.270796 0.920094 2.4051
0.802422 -0.0227814 2.89029
1.61337 0.63991 2.6476
2.27599 -1.51769 4.20889
1.32847 -1.40176 3.07655
-1.27801 0.786317 2.89602
-0.278887 -0.787524 3.3339
0.132271 0.0621991 2.9287
1.48786 0.658469 2.60461
1.45061 -0.680816 2.99118
0.453809 0.0217893 2.92026
1.26898 -1.87837 3.86395
1.73438 0.548588 2.75777
0.779804 -0.164322 2.97123
-1.04646 -0.646473 3.33748
1.37322 -0.894568 3.00561
-0.362264 0.914314 2.63936
-0.262991 -0.945533 3.42648
0.541035 1.25935 2.87135
-0.276197 -0.113114 3.01155
0.652508 0.560278 2.94347
0.834232 -0.892154 3.26474
-1.33177 -0.078308 3.13209
0.591231 0.67052 2.98917
1.09556 0.609257 2.86687
1.33421 1.15415 2.63935
1.2338 -0.81353 3.11153
-0.25027 -0.049221 3.07158
-0.299701 0.0722506 3.00697
-0.890995 -0.783536 3.38398
1.49125 0.692308 2.6016
-0.785136 0.0253858 3.1084
0.157947 0.770193 3.07886
0.353526 -0.724882 3.24509
-1.10897 -0.605024 3.30562
1.82747 -0.496303 2.74159
-0.220914 0.852085 3.1388
0.589054 0.100161 2.91215
1.82155 -2.35519 4.99907
-1.12491 -0.697337 3.34899
0.926327 -1.73171 3.70817
1.09105 -0.109954 2.82631
-0.0515423 1.13726 2.62315
1.39646 -0.856822 2.97707
-0.150889 0.646739 3.07878
0.0264804 -0.0691076 3.00469
1.37322 -1.55522 3.36669
0.336941 -0.892515 3.31396
-0.536963 0.608194 3.1084
0.886029 -0.825503 3.17372
-0.785347 -0.0140123 3.10054
1.13559 1.1821 2.71905
1.17936 -0.0508449 2.77169
0.803971 -1.68529 3.45602
-0.83746 0.751874 3.10987
-1.28083 -0.798533 3.29133
1.77802 0.98298 2.53545
0.434751 0.653716 2.96106
-0.890026 -1.07931 3.4523
-0.170101 0.544429 3.06352
1.08393 -0.227302 2.81678
-0.329225 0.894969 2.56584
1.02779 -1.03158 3.31476
-1.10988 0.499104 2.93933
-1.15123 -0.199426 3.08633
-0.792549 0.747866 1.77808
0.915633 1.214 2.77552
0.824614 0.535233 2.89286
-0.845144 -0.161533 3.14066
1.02931 -0.97126 3.23806
-1.46082 -0.407527 3.19917
-1.18699 -0.258073 3.14075
-0.711113 0.723728 1.8857
0.581474 -1.32835 3.58264
-0.84793 0.395275 3.00132
1.58757 0.963087 2.59721
1.68013 -0.339199 2.67888
-1.1417 -1.12164 3.18288
-0.39436 0.348201 3.00545
1.64286 0.400778 2.6185
-1.28105 -1.11472 3.24187
0.294362 -0.325867 3.09415
0.647913 1.16021 2.88621
2.46503 1.01579 2.91112
0.542994 0.411722 2.93816
-0.939688 -1.05528 3.17782
0.519936 -0.268005 2.98177
-0.696844 0.733035 1.8656
-0.309357 0.936619 2.71642
-1.15876 0.720471 3.12758
0.100327 1.33735 2.88583
1.11352 -0.0472743 2.80893
-0.445602 -0.825996 3.33327
0.0154318 1.19227 2.85574
-1.00982 0.755728 2.92578
1.43519 -0.732817 2.93359
-1.05255 0.0346429 3.04201
1.09699 0.687563 2.83908
1.33808 -0.705447 2.94688
1.58573 -0.911738 2.90462
1.04995 0.544388 2.88914
1.10855 1.23561 2.7272
-0.403911 -0.00477121 3.00261
-0.0804005 -0.190715 3.05722
1.196 1.17689 2.72349
1.76379 -0.502019 2.78645
0.567997 -0.9732 3.29641
-0.646833 0.543562 3.06633
1.81174 0.527942 2.6703
0.573618 -0.157079 2.94798
-0.240387 0.895025 1.98875
-0.098985 0.692184 3.15997
-1.44874 -0.878135 3.11168
-0.748864 -0.107374 3.05054
-1.12287 -0.893063 3.37339
-0.777561 0.60293 2.98236
-1.09225 -0.0730341 3.21475
1.01331 -0.349083 2.89843
1.07989 1.04848 2.66789
-0.91308 0.432026 2.94896
1.60665 -1.14338 3.10874
0.168476 1.09951 2.92466
-0.870241 -0.318777 3.13723
-0.68698 0.396234 3.0595
-0.204008 -1.16011 3.35127
0.20354 -0.275418 3.04759
-0.019376 0.866621 2.05224
0.0201556 1.20999 2.31709
0.281723 -1.21181 3.6356
0.188687 0.486804 2.93067
1.12043 -0.225801 2.81931
1.02611 1.09872 2.73345
0.212417 1.58369 2.74579
1.24567 0.42807 2.79959
0.901752 -1.06044 3.32176
-0.532756 0.319299 3.01842
-1.28091 -1.31675 3.36496
0.0537018 0.575919 1.37399
0.385187 1.05977 2.98375
1.15142 -0.438376 2.81228
-0.798186 -1.31981 3.4961
-0.618906 0.275508 2.95799
0.280516 1.02291 3.01199
1.56016 -0.406052 2.82194
-1.03541 -1.25548 3.476
2.26085 -0.105104 3.20478
0.935048 -0.391482 3.06491
0.0888622 1.12166 2.34249
1.71908 0.307195 2.65858
-0.692261 0.708697 1.9142
0.655265 1.1441 2.8534
0.138055 -1.17981 3.5549
-1.20978 0.465291 2.93066
-0.637604 -0.277094 3.08398
0.784518 -0.233222 2.97653
-0.514021 0.822693 1.891
-1.44091 -1.01354 3.16522
0.839955 0.51476 2.93223
-0.310587 0.795494 1.90381
1.12681 -0.189104 2.81329
1.16013 0.473973 2.82863
-0.0578526 -1.03518 3.39467
0.0172346 -0.42826 3.12333
-0.0176013 0.347276 2.9476
0.215707 1.48407 2.73166
0.7862 -1.35693 3.48554
0.841033 1.04086 2.82776
-1.21958 -0.291701 3.16711
0.990248 -1.32107 3.54254
0.755427 1.00989 2.83022
-0.54301 -0.401404 3.17178
-0.587754 0.307356 2.96232
-0.820246 -1.20964 3.40047
-1.09938 0.419196 2.84549
-0.982735 -0.37076 3.17356
-0.648662 0.747234 1.87781
2.04238 -1.13006 3.47929
2.73198 0.77583 2.8089
1.18653 -1.14558 3.26512
0.0617375 0.376465 2.92856
-0.402854 0.752616 1.94618
1.3987 -0.305141 2.79915
1.40332 0.842509 2.63578
2.22947 0.425736 2.61505
0.735246 0.20763 2.88859
0.621127 -0.550937 3.12439
-0.567352 -1.43672 3.46314
2.36355 -0.120199 2.96301
0.35065 -0.506087 3.12265
0.644557 0.992977 2.89626
0.488767 0.279558 2.86041
0.583384 -1.60151 3.92804
1.43147 -0.444543 2.83124
0.788782 -1.74747 3.61393
-0.746513 0.672673 1.98539
2.36145 0.58872 2.76236
0.883746 -1.4039 3.51332
-0.742484 0.261294 3.02456
-0.904764 -0.448801 3.20584
-1.15252 0.11496 3.13369
-0.637889 -0.74361 3.45012
1.51212 0.730999 2.61878
2.29232 0.771951 2.88117
-1.16796 0.0796389 3.12967
-1.28332 -1.56066 3.35114
-0.3711 0.800163 3.06751
0.232656 -0.689286 3.25951
-0.468982 -1.55168 3.47187
0.730197 0.160878 2.87471
0.769539 -1.66616 3.82941
0.528607 -0.644303 3.19655
1.25767 0.808874 2.68741
0.631242 0.127836 2.89434
0.309615 -1.54447 3.57236
-0.734637 1.05373 2.87714
-0.38343 -0.603591 3.3061
-1.24329 0.840496 2.83033
1.119 -0.651363 3.00429
1.21802 0.109345 2.74671
-0.912182 -0.30347 3.15643
-0.216797 0.871976 3.0423
-0.42522 0.823752 3.07755
0.499349 -1.652 3.67523
1.92822 -0.610673 2.97832
-0.0513884 0.0920292 2.98412
-0.396174 -0.659332 3.32146
-0.927736 0.217161 2.99181
0.447239 -1.59613 3.67423
-1.48489 1.0495 3.25054
0.109639 0.16368 2.94254
0.652822 -0.592761 3.07984
-0.0391621 -1.48282 3.5392
0.313427 0.163089 2.92675
1.00669 -1.61637 3.63453
1.37395 -0.524834 2.86603
0.491351 0.884474 2.95502
1.20248 0.680598 2.82484
0.425152 -0.0174636 2.95747
-0.476087 0.891972 2.65533
-1.16202 -0.816629 3.37777
1.95592 -2.17242 4.75469
1.31175 0.722203 2.74602
-1.17896 -0.782616 3.37869
-1.05468 0.0668302 3.06161
0.167417 -0.728111 3.22698
0.839082 -1.71371 3.67293
-0.0631729 0.739769 2.98447
1.67653 -0.086613 2.59269
1.72809 0.00921342 2.70696
-1.27846 -0.987527 3.38078
-1.47276 0.634702 3.11604
1.73735 1.09761 2.5503
0.332509 -0.15877 2.98186
-0.457736 -1.00505 3.57366
-0.138165 0.565282 3.03174
1.92778 0.157917 2.73643
-1.33405 -0.123039 3.0735
-0.0280085 1.13278 2.68823
1.32128 -0.827737 2.98406
0.993894 0.647643 2.91202
1.6338 -0.0904976 2.8156
-0.696046 -0.890704 3.39352
-0.628128 0.624508 3.01755
1.17107 1.19395 2.7179
-1.20897 -0.0449224 3.05706
1.32304 1.03808 2.57131
-0.749882 0.465545 3.01135
1.66651 -0.276986 2.83287
1.3515 -1.16928 3.45022
-0.985068 -0.246221 3.13302
-0.575993 0.855943 1.86488
-1.23073 -1.02998 3.24622
1.62777 0.472356 2.63461
1.93398 0.552812 2.63401
0.797725 -0.193891 2.9484
-0.108604 0.85246 2.04575
1.32078 -0.970073 3.06784
0.818473 0.47853 2.95856
-0.850431 0.657494 3.09093
1.22778 -0.1224 2.80213
1.8838 0.476109 2.63942
0.61731 -0.944526 3.30976
1.60386 -0.733202 2.58151
1.06601 -0.0814296 2.81532
-1.31375 -0.873844 3.23386
0.594993 0.585687 2.97442
-0.0790385 -0.015397 2.97502
1.72233 -0.765807 2.8725
-1.38879 -0.0461606 3.10924
-0.191327 0.701036 2.99413
1.38933 1.17997 2.60754
1.7961 0.492635 2.6433
1.18147 -0.740617 2.97269
0.324202 0.676906 3.02845
1.02251 -1.0901 3.36856
-0.0130513 -0.24125 3.06772
0.323097 0.464685 2.86952
-0.476557 0.780619 1.86418
1.52394 -0.202833 2.75469
-0.380329 0.858638 1.90478
0.166718 -1.03807 3.37648
1.18048 0.5246 2.81468
-1.25485 -0.16424 3.15477
-0.0330442 1.16628 2.68483
-0.469233 -1.00447 3.39554
-0.720647 0.519715 3.02739
0.310109 -0.395275 3.06201
1.32817 0.352076 2.75428
-1.15723 -0.528612 3.20634
0.287346 -1.3228 3.55201
-0.298418 0.769289 1.99384
1.61255 -1.21995 3.27791
0.817298 -0.366207 3.00554
-0.195784 0.779159 2.08982
0.139593 0.338676 2.90221
-1.25856 -1.12348 3.25302
0.829666 0.437895 2.91081
0.328998 -0.33462 3.1364
0.949795 1.11459 2.78137
2.69447 0.664784 2.73183
1.03837 0.406169 2.86187
1.66025 -1.08493 3.16756
0.174978 1.44482 2.64688
0.154288 1.12498 2.92047
0.322345 -0.289102 3.11741
-0.052854 -1.43023 3.51534
0.0590178 0.966371 2.96232
2.39972 -0.0537219 3.12203
-1.26932 0.260538 3.02758
0.527538 -0.524121 3.12551
0.772621 -0.578039 1.10378
-0.83863 -0.490367 3.25438
1.34948 0.942868 2.6577
0.458067 0.297094 2.87957
0.694854 -1.56675 3.91455
0.909861 -0.433087 3.00986
1.3523 0.925275 2.71275
2.16309 -1.19019 3.69534
0.322812 -1.38081 3.57482
0.549418 0.259124 2.83605
-1.38514 -0.995328 3.22788
1.4998 1.16179 2.57473
-0.456757 0.560787 3.01446
-0.359569 -0.209925 3.09072
0.990806 1.23339 2.7433
0.0176503 0.520317 2.99884
0.616484 -0.976187 3.31465
-0.515578 0.899135 1.877
-0.689695 -0.15812 3.07881
0.939125 -0.944473 3.30167
-0.307903 -0.111973 3.01846
-0.911172 0.579903 2.89156
0.501644 -0.359855 3.02593
0.85608 1.07465 2.75803
0.260446 -1.34377 3.7011
0.0289315 0.415388 2.93766
0.946775 1.05011 2.78126
-0.474365 -0.332061 3.0702
0.103071 -1.23436 3.57283
0.864273 0.363659 2.91254
-0.990935 0.497501 2.9841
1.26877 -0.262166 2.79028
0.102349 1.35977 2.65323
0.683521 1.17277 2.84386
-1.17326 -1.06957 3.234
-1.37208 -1.00299 3.14638
0.0904479 1.1505 2.90726
-0.913162 -0.238336 3.11053
0.539907 0.448019 2.91245
-1.07611 -0.279381 3.14041
0.552403 0.29876 2.84737
1.37911 -1.38539 3.41083
-2.46735 -0.866256 5.30022
1.41294 0.95943 2.66412
-0.670616 -1.29127 3.40969
-0.367842 0.280251 2.97608
1.72137 -1.7581 3.42728
1.65729 -0.403697 2.79771
1.2904 0.954109 2.78549
-1.04177 -1.2215 3.37901
-0.526288 0.727349 1.94803
1.96082 -0.416499 2.71057
-0.0923259 -0.407402 3.12791
1.6872 0.319133 2.71087
0.0121715 0.628708 1.31139
0.0625024 0.895447 3.02851
1.2447 -0.575541 2.81753
1.5857 0.149558 2.79627
-0.822793 -1.53368 3.43297
-0.992978 -0.608539 3.22393
2.13365 0.22139 2.85862
-0.703676 0.864534 2.8957
1.57359 -1.3444 3.30817
-1.38784 -1.41672 3.28912
-0.0131104 0.139008 2.95703
-0.388275 -0.572233 3.28451
0.204624 0.250121 2.93952
-0.800857 -1.42938 3.4471
-0.683738 0.887033 2.94855
0.324787 1.01125 3.06182
0.754955 0.933279 2.93998
-1.0013 -1.33515 3.32316
0.70223 0.202924 2.90034
1.30064 -1.70019 3.67765
-0.752994 -0.509191 3.15544
1.2601 0.32773 2.83825
1.00873 -1.33151 3.42642
0.0327687 1.13676 2.46813
-0.72703 0.714499 1.92129
-0.539328 -0.442188 3.19294
1.27446 -1.25181 3.30987
-0.247359 0.314434 2.9942
0.856335 1.00085 2.83327
0.0957705 -0.398139 3.10523
0.0303392 0.633825 1.30997
-0.518789 -1.26174 3.54843
-0.869095 0.423098 2.94147
0.265413 -0.369377 3.09065
0.679577 1.10396 2.8328
1.14187 -1.19458 3.38451
2.4298 0.512696 2.63815
-0.807361 0.389801 3.01681
-0.272049 0.773947 2.02491
-1.32328 -0.334799 3.15541
1.01367 -0.580641 3.00427
0.5434 0.931083 2.95872
1.01852 -1.63373 3.71452
-0.117992 0.214559 2.96731
2.23117 0.447946 2.60618
-0.573969 -0.567116 3.29265
1.4634 0.793025 2.6471
0.550446 -1.53468 3.63585
1.20296 0.152828 2.80802
-1.39902 -0.534648 3.25485
2.35766 -0.0295229 2.98
-0.576718 0.694509 1.99466
-1.12942 -1.33682 3.32616
1.01749 0.25714 2.85328
-0.807065 -0.477771 3.19195
1.07827 -0.463541 2.90496
1.49174 0.870148 2.61407
0.471086 -1.44321 3.63033
-1.13758 0.263515 3.05432
1.89324 0.0656826 2.91261
-0.404573 0.0987851 2.96949
1.04867 -1.56585 3.58389
-0.992406 0.808705 2.85991
-1.14786 -0.743821 3.39251
-0.55966 0.06169 3.01529
-1.32277 -0.705649 3.33825
0.0551152 0.793366 3.03059
-1.46883 -1.44599 3.19557
2.36265 0.376618 3.70259
0.94576 -0.644404 3.12549
0.156483 0.13711 2.96964
-0.306051 0.818593 1.93444
1.48409 0.754934 2.58088
-1.10883 -0.0752852 3.07372
1.31843 0.617787 2.76374
-1.25406 -0.876517 3.25813
0.025089 1.27804 2.88422
0.516696 -0.046228 2.96144
1.81919 -0.5773 2.82113
0.920729 -0.822164 3.16715
-0.397946 0.635953 3.06834
1.45239 -1.69364 3.58677
1.07414 0.0186897 2.83359
1.10864 0.711151 2.82115
1.02975 -0.757853 3.05907
0.729196 0.697925 2.95603
-1.24088 0.294279 3.00838
-1.31666 -0.0107134 3.04072
1.11516 -1.75313 3.59308
0.860517 -0.769976 3.20599
1.87104 0.154088 2.71005
-0.962609 -0.0423929 3.02932
1.30601 0.644384 2.73766
-0.670845 0.869879 2.71368
-1.4714 -0.829777 3.15577
1.75882 -0.026202 2.72301
1.13233 0.646905 2.87751
1.36369 -0.736843 2.93184
2.48397 -0.0365192 3.84965
0.571395 0.771601 2.95218
-0.148952 0.0591049 2.99961
1.84175 0.390325 2.64388
0.454596 -0.801375 3.33785
1.69933 0.645156 2.59292
-0.503674 -0.715055 3.24041
1.63944 0.0117357 2.81776
1.72798 -0.78804 2.86194
0.108074 -1.0074 3.43248
-0.923038 0.76831 2.73717
-0.289554 0.599259 3.08925
-1.18864 -0.168009 3.10306
1.67228 0.479336 2.6544
-1.45158 -0.868001 3.01947
-0.496653 0.869902 1.89266
-1.22406 -0.127388 3.10482
-1.34894 -0.864617 3.15437
1.72892 -0.0844525 2.75809
1.12974 1.24709 2.72966
-0.889186 0.650459 3.08337
0.533824 -0.331056 3.02404
1.19959 1.08875 2.71076
1.62654 0.398522 2.58363
0.0623351 -1.19673 3.4234
-0.120464 0.797058 2.02176
0.760583 -0.287449 3.0013
0.104222 0.401916 2.91206
1.21258 -1.1099 3.23626
-0.447487 0.523557 3.00768
0.133631 -0.245075 3.02829
-0.168548 0.942032 1.98468
-0.793162 -1.11079 3.51514
0.266454 1.38925 2.7345
0.13357 1.18062 2.87975
-0.565 -0.216617 3.10904
-0.377381 -1.03856 3.32766
1.35241 0.453465 2.80444
-0.118517 -0.119425 0.99057
1.09421 -1.33912 3.40718
0.0651416 0.336174 2.90229
0.0136299 1.1002 2.36197
-2.43969 -0.98378 5.54671
0.889421 1.03355 2.81881
0.766194 -1.30832 3.47464
0.0608137 0.301059 2.93503
-1.43407 -0.420991 3.22443
-0.169836 0.843024 2.32921
0.882157 -1.36132 3.71475
-0.0274586 0.556217 1.39059
1.60885 -0.357098 2.80859
2.69653 0.74915 2.79814
-0.57524 0.377148 2.99291
0.234261 1.10137 2.93777
0.857249 1.14691 2.7837
0.00912003 0.481712 2.95775
1.28113 -0.236148 2.80579
0.141752 -1.13492 3.53323
1.58528 -0.209928 2.793
-0.317639 0.860877 1.939
-0.669558 -1.04504 3.444
1.15691 0.522929 2.84785
-0.666839 0.809359 1.86461
1.2268 -0.162163 2.79665
-1.24735 0.520572 2.91571
-0.552971 -0.98489 3.31334
-0.126639 0.368863 2.95748
0.133289 -1.31394 3.52845
0.8512 1.30335 2.79242
1.54641 0.997339 2.62686
1.25484 -0.379707 2.82345
-0.456052 0.341225 3.00629
-0.542686 -1.23167 3.44043
-0.98905 0.0685707 3.10685
-0.295929 0.754494 2.0271
0.128711 -0.365123 3.08471
2.60173 0.693249 2.7669
1.30446 -1.18256 3.31963
1.09367 0.439348 2.86877
-0.304215 -0.343118 3.13251
-0.171933 0.817002 2.02557
-1.06746 -0.118734 3.11721
0.825307 0.402784 2.92064
-0.907872 -1.10492 3.36318
-0.620961 0.740384 1.90139
0.688897 -0.286276 3.02976
-0.437409 0.690213 2.0747
0.690475 0.232433 2.91681
-0.000380172 0.548712 1.29838
-1.01397 -0.523778 3.13299
1.59976 0.802382 2.57706
-0.156986 -1.46646 3.60738
0.932133 -0.342605 0.89398
1.40477 -0.469401 2.85521
-0.340622 0.742231 2.05907
-0.728505 0.300716 3.0152
-0.103235 -1.43458 3.60595
2.03103 0.303778 2.7545
0.615096 -0.444574 3.07214
-0.665812 0.685843 2.01533
-1.15294 -1.258 3.32153
0.489942 -1.66977 3.57846
0.275655 0.27219 2.94067
2.33056 0.910547 2.93798
-0.455451 1.36703 2.95712
-1.04101 0.136957 3.03138
-0.230119 -0.689816 3.2563
0.121958 0.845195 2.98817
1.18301 0.0779309 2.78747
0.770168 -1.76878 3.85934
1.28149 0.761695 2.74293
0.021646 -0.649526 3.24269
0.753096 -1.75235 3.94283
-0.46784 0.205421 2.9966
-0.239944 1.05807 2.86936
0.0120095 -0.600717 3.19052
0.225683 -1.48149 3.52232
-0.160296 0.1602 2.97817
-0.576872 0.22026 2.99433
1.11476 -0.536223 2.90891
-1.00672 0.716286 2.364
-1.10515 -0.379617 3.15281
0.517993 1.10444 2.87118
0.465637 -1.27696 3.53736
1.10379 0.401597 2.85183
0.912755 1.04841 2.77788
-0.502322 -0.32968 3.08399
1.16569 -1.20146 3.3736
0.360467 0.366626 2.8888
-1.43107 -1.10292 3.28038
-1.15764 0.487508 2.89938
0.0587357 -0.278621 3.07306
1.40851 1.09147 2.61558
0.0432703 1.21423 2.44841
-0.704816 0.45411 2.98908
0.243467 -1.16513 3.63388
1.66775 -0.248748 2.87238
-0.759601 0.748046 1.84973
0.912851 1.30542 2.77439
0.401982 0.288181 2.88034
-0.412839 -1.40719 3.57475
0.0131204 0.570539 1.50195
1.65714 -0.456295 2.85163
1.19741 0.97387 2.73466
-0.884033 -1.31628 3.4439
-1.24544 0.292771 2.99998
1.68235 -0.441229 2.95657
2.71753 0.73083 2.75011
0.683404 0.987683 2.90237
-0.460126 0.726832 1.95452
2.33199 -0.0470583 3.10655
0.585356 0.335883 2.87677
-0.866651 -0.411329 3.19061
-1.39505 -1.22491 3.31739
-0.751605 -1.59479 3.38606
0.822681 -0.63752 3.11416
-0.879818 0.649204 2.13188
2.32015 0.192116 2.8564
1.27045 -1.7513 3.81431
0.706428 0.164346 2.92441
0.0978672 -0.611532 3.20508
0.464474 0.855335 2.98964
2.26999 0.367487 2.6084
-0.0776988 0.130282 2.97626
-0.996305 -1.47307 3.4033
1.23345 -1.52906 3.57523
1.37247 0.226546 2.81307
1.10663 -1.69945 3.68636
-1.21085 -0.580608 3.27704
-0.811685 0.66721 2.00762
-0.248588 -1.42319 3.51577
0.909711 0.20657 2.89758
-0.134553 1.11329 2.97122
1.07032 -0.497872 2.92956
0.486463 0.931574 2.95515
1.36828 -0.719889 2.97926
2.42317 -1.06417 3.92054
0.210425 0.022739 2.96725
-0.742539 0.737875 2.94893
-0.259917 1.03511 2.45554
1.95406 0.189327 2.65726
-0.840782 -0.744453 3.34405
1.66385 0.702775 2.55269
-1.05162 0.107854 3.06796
0.374437 0.789549 2.98574
0.435101 -0.685382 3.18215
1.25777 0.0452773 2.80901
0.155738 0.948472 3.04386
-1.45607 -0.599583 3.12782
-1.39105 0.216417 3.01629
-0.56109 -1.50383 3.49122
1.35143 -0.536039 2.87564
2.13751 0.484522 2.61237
0.705139 0.87163 2.9347
0.0756347 0.577769 1.32497
0.433264 -1.47328 3.49335
-1.33562 0.180752 3.0672
-0.498795 -0.539031 3.22285
1.0965 0.26014 2.81166
-0.163548 1.01329 3.01833
0.651569 -1.52718 3.68703
-0.432686 1.29831 2.95595
0.981051 -1.80315 3.80301
0.843219 0.949407 2.89736
-1.10351 -1.29902 3.31651
1.61065 0.217559 2.6631
1.91911 0.366714 2.66307
-1.25805 -0.485253 3.15592
1.61554 0.0801944 2.72976
1.4296 0.7301 2.65385
1.46201 -0.654812 2.80797
-1.26505 0.0656574 2.9813
-1.48632 -0.683518 3.15172
-0.743828 0.788004 2.98329
-0.56714 0.932495 2.96547
-0.664727 -1.54826 3.42847
1.46306 -1.93695 4.18527
-1.00942 0.736247 2.51503
-0.20183 0.140059 3.01808
-0.258971 0.939684 2.16362
0.221657 -0.650784 3.22813
1.42981 -0.0910643 2.71197
0.681881 0.653088 2.9521
1.10612 -0.940688 3.4014
1.35227 0.751819 1.99559
0.566156 -0.0623362 2.93219
0.132346 0.676337 3.15976
0.556431 -1.47018 3.62002
1.59427 -0.762619 2.83301
-0.382353 0.0235762 3.01168
0.0468635 -0.808352 3.30321
1.42497 0.667408 2.70206
-0.83053 -0.885339 3.38418
1.2625 -0.736132 2.99643
1.40424 0.643486 2.71404
1.80698 0.398269 2.63598
-1.26524 -0.0114945 3.15408
1.23859 -1.0452 3.30769
