ply
format ascii 1.0
element vertex 1832
property float x
property float y
property float z
end_header
-0.179543 0.907155 3.00194
1.29894 -1.07313 3.2468
-0.336435 -1.60951 3.50315
1.24901 -0.252462 2.8989
-0.0961708 0.163982 2.9993
0.380324 -0.655478 3.16041
1.44979 -0.584338 2.96507
-0.884782 0.495692 2.97543
0.0557663 -0.218238 3.05913
1.41871 0.119219 2.89185
-1.03361 -1.46686 3.30056
-0.715644 0.545401 3.08007
-1.31763 -0.996768 3.16266
-0.752565 0.852436 2.92144
0.0902869 1.14936 2.72807
0.686348 -0.578549 3.13129
-1.33838 -0.177715 3.10424
0.18259 0.993849 2.98699
1.25856 0.564236 2.8111
-1.18805 -1.37953 3.20515
0.646878 0.237981 2.94065
-1.40483 -0.984746 3.27309
-0.000520581 -0.136271 3.00493
-1.28566 -0.552743 3.23363
-0.273852 0.959137 3.00713
-0.86919 -0.945436 3.27048
-0.404851 -1.49146 3.55992
-0.823932 0.207956 2.94316
1.40576 0.518183 2.75863
0.449946 0.275119 2.9197
1.7458 0.567795 2.70612
-1.03163 -1.62978 3.45937
0.114906 1.02211 2.95345
0.306098 -1.48625 3.64039
0.746877 -0.923531 3.29896
-1.06697 -0.492124 3.07712
1.33198 -0.0826872 2.71667
-0.471196 -1.09659 3.46737
1.3323 -1.63657 3.67795
0.857764 0.207062 2.94196
-1.00243 0.554991 2.94314
0.451171 -0.213695 3.00679
1.4593 -0.575833 2.91882
1.06081 0.90651 2.8396
-1.11253 -0.979492 3.25405
-0.352647 0.526428 2.96745
0.381146 -1.53189 3.55459
1.33849 -0.164815 2.82864
0.243109 0.164334 2.969
1.47773 -0.534704 2.87929
0.0899064 0.90414 2.97465
-1.17693 -0.584535 3.42298
-1.03529 -0.138166 3.14167
0.0757739 -1.49705 3.57832
0.690164 0.274218 2.90181
-0.596332 -0.991938 3.42117
-1.13928 0.604952 2.85898
-0.385897 -0.516271 3.20933
-1.10389 0.839705 2.53808
-0.743961 -0.0895633 2.99474
1.18069 0.961371 2.77613
1.22712 -1.4319 3.50613
1.03313 0.235227 2.90953
1.70382 -0.790995 2.81668
1.55622 0.546866 2.72544
-0.13668 -0.054701 3.00226
1.04926 1.04669 2.81717
1.06336 -0.437971 2.97539
-0.972569 0.706142 2.92298
-0.851153 -1.00229 3.74712
-1.048 0.345002 2.99248
0.0713159 -1.35476 3.44203
0.323862 -0.0201581 2.96979
1.34366 0.995251 2.77283
0.773623 -0.40981 3.04334
-0.973368 0.732726 3.23576
1.51094 -0.681115 2.66972
0.47104 -1.36736 3.5919
0.385342 0.303356 2.92602
-1.20837 0.0225671 3.0795
-0.725264 0.377085 2.94092
0.707028 0.750157 2.96459
1.51686 1.02482 2.66895
0.775859 -1.28828 3.48797
1.45587 -0.723091 2.96006
1.53311 -0.357615 2.86164
0.501173 -0.922038 3.30482
0.60825 0.303251 2.91796
-0.862087 -1.4278 3.50862
0.234555 -0.0912243 3.01237
1.35161 0.973508 2.71344
-0.232816 -0.504235 3.14058
-0.567198 -0.928882 3.49363
-0.975619 0.614524 2.904
0.399296 -1.39767 3.5491
0.875072 0.275336 2.91363
0.0713611 -0.054725 2.99591
-0.0385775 0.734066 3.23911
-1.30778 -0.459606 3.14967
1.46318 0.89962 2.59902
-0.520351 -1.61851 3.42878
0.249395 -0.414572 3.10306
-0.667035 0.738358 2.91785
0.350081 -0.0209422 2.97237
-0.161235 0.792815 2.06591
0.904017 -1.33396 3.50336
0.612844 0.0199562 2.94014
-0.587179 -0.820863 3.22185
1.6527 0.344333 2.68183
0.238138 0.731547 3.02907
1.1193 1.03262 2.77942
1.59406 -0.356317 2.85573
1.25199 -1.25181 3.37831
1.48166 -0.710313 2.91226
-1.08472 0.35077 3.00914
0.0351436 -0.343623 3.07527
0.124085 -0.753439 3.24123
0.993375 0.456956 2.9427
0.726237 -1.17274 3.28583
-0.0127549 0.0901406 2.96459
-0.999051 -0.300591 3.10651
0.910893 0.774236 2.89722
0.193807 -0.702979 3.20538
-0.524931 0.423231 2.96627
0.382272 -1.21305 3.53686
-0.496964 0.0535045 2.9792
1.01958 1.10697 2.79676
0.584987 0.12315 2.91679
-0.849701 0.499098 2.99841
1.16916 0.830164 2.84655
0.216653 1.21734 2.88729
0.307799 -1.6667 3.62285
-0.962762 -1.03254 3.14973
0.407906 -0.65106 3.14023
0.213416 0.852051 3.04821
-1.31752 -0.262603 3.13083
0.993205 0.77736 2.90833
1.67092 -0.705777 2.88634
1.22309 1.08748 2.74726
1.53635 -1.21152 3.27153
-1.0729 -0.38933 3.18886
-0.0182279 0.0531767 2.95361
0.462724 0.414226 2.90831
1.5464 1.04392 2.57148
-0.96613 0.377783 2.92516
1.00203 -1.22054 3.42164
0.136226 -0.343226 3.07028
0.692923 0.0189585 2.93769
0.202479 1.12799 2.93172
0.989945 -0.73925 3.17152
0.0247338 0.765647 3.01227
0.878589 -0.691803 3.1552
0.592275 1.22425 2.90675
-0.721671 -0.296843 3.07373
-0.309003 0.879292 3.01524
-0.701943 0.50857 3.05426
0.768893 0.123468 2.89808
0.779471 -1.14322 3.33517
0.664989 -0.253625 2.99706
0.760948 0.817915 2.91499
1.06375 -0.643423 3.09597
-0.527837 0.762262 1.88441
0.37622 -1.14019 3.47386
0.292487 0.0910958 2.9671
0.628495 -1.79782 3.90762
-0.40719 0.465287 2.98116
1.09884 -0.204561 2.87243
-1.34914 -0.651542 3.35247
0.118343 -1.06732 3.38313
-0.960911 -1.50359 3.38994
-0.406483 0.912818 2.99779
-0.482238 -1.60964 3.41098
0.756438 0.524023 2.95463
0.410076 0.16337 2.92518
0.814595 -1.54407 3.5795
-0.835003 0.243141 2.96207
-1.05343 -1.00338 3.33074
-0.97418 0.589292 2.92742
-1.45405 -0.582667 3.17792
-0.840665 0.667072 2.00911
0.0512211 -0.171247 3.00445
0.822344 -1.58826 3.79443
1.24376 0.198555 2.82809
-0.334323 -0.967006 3.34748
-1.00821 -0.545273 3.20158
-0.911974 0.552452 2.93409
-0.919876 -0.137263 3.08391
1.66469 0.822739 2.57663
-1.23663 -1.07433 3.28451
0.422919 0.904396 2.96833
-0.31096 -1.63297 3.5601
1.24956 -0.238577 2.81377
-0.805762 0.17119 3.00245
1.62952 -0.603113 2.89748
-0.841326 -0.627563 3.24386
-0.463352 0.497033 2.98241
1.55996 -0.208916 2.90494
1.65346 0.128195 3.09293
0.240536 -1.63848 3.69248
1.32434 0.513683 2.88776
-1.2833 -1.03262 3.28243
1.48608 0.775142 2.65014
0.846679 1.18559 2.81865
-0.846884 -0.601057 3.28724
0.0753001 -0.172297 3.03205
-0.287761 0.941008 2.82091
-1.25418 -1.38499 3.22129
-0.908966 0.59859 2.9811
-0.688907 -1.0156 3.38141
-0.683941 0.239898 2.91553
0.523502 -0.13216 2.97223
-0.561802 0.668993 2.08825
0.700244 -0.535582 3.12476
-0.290374 -0.958786 3.32023
-1.33975 0.216084 3.01891
-1.0613 -1.34854 3.23646
0.283774 0.554903 2.9349
1.55924 -0.0881909 2.8761
0.798795 -0.495216 3.0811
0.77247 -0.90265 3.23745
-0.158069 -1.4246 3.50654
-0.414056 0.702222 2.03211
0.094876 0.660197 3.11336
-0.795626 0.285022 2.99588
-1.42668 -1.21847 3.1126
-0.483314 -0.883282 3.32317
1.29023 0.331505 2.83746
0.283742 -0.451442 3.08622
0.369905 0.732009 3.02826
1.26876 -0.0512532 2.82201
1.059 -1.31605 3.45306
0.882527 0.306315 2.93951
0.237393 -0.839671 3.31084
-0.771115 0.69349 1.8637
0.485129 -0.408374 3.04773
-1.23638 0.65356 2.87888
0.791598 -0.0200372 2.94412
-0.751083 0.694396 1.93362
0.63774 -0.95975 3.31414
-0.434251 -1.45864 3.50001
0.960737 -0.130746 2.9548
-0.277766 -1.70354 3.60981
1.46946 -0.48727 2.83463
-0.579311 0.281275 2.95294
-0.597587 0.599582 2.97705
1.27112 -0.478216 2.97082
-0.304185 0.24566 2.97307
-0.641178 -0.0880807 3.03715
0.644625 0.636169 2.99666
0.970496 -1.54414 3.78383
1.3631 0.90691 2.71964
1.12845 -0.919973 3.29951
0.408368 -0.452781 3.0946
1.08292 0.970684 2.79755
1.47084 -0.0534974 2.89665
0.781936 0.714565 2.95347
-1.41642 -1.2376 3.15805
-1.10776 0.344768 2.93437
-0.129981 -0.887466 3.337
-0.695664 0.720306 1.93799
1.10189 -0.0198143 2.87019
0.172274 1.04798 2.91218
1.07221 -0.395688 2.95355
-0.661487 0.68713 3.01986
0.790532 -0.815498 3.20564
-0.173513 -1.34886 3.5598
0.808201 0.0196388 2.91027
1.00674 0.307817 2.95725
-0.646775 0.384138 2.97584
1.19825 0.718391 2.83154
0.90721 1.07918 2.8019
-1.15827 -1.22548 3.33184
-0.679789 -0.792864 3.27982
-1.01646 -0.379759 3.11275
1.12552 -1.22457 3.43314
0.607132 0.458543 2.93423
-0.558206 0.0939952 2.96919
1.27421 -0.706881 3.02965
0.914671 0.811956 2.89296
1.61026 -0.322674 2.87577
1.01327 -1.20985 3.52177
0.678886 0.0533081 2.95365
-0.461663 0.757889 1.87353
0.808834 0.420581 2.94985
-0.507304 -0.294081 3.06025
1.18748 0.746026 2.7931
0.948868 -0.67564 3.08151
-0.75161 0.726121 1.84425
0.838458 -0.300285 3.02248
0.622693 1.21156 2.89326
0.917056 -0.69065 3.11767
1.54637 0.763008 2.64695
-1.43279 -1.1001 3.19514
0.0521645 0.495216 2.99575
-0.822432 0.122182 2.99293
-0.326336 -0.268952 3.07202
0.645084 0.833554 2.9988
0.808685 -0.661517 3.15424
1.41303 0.4322 2.81187
-0.389696 -1.2079 3.65148
0.622932 0.0839215 2.93549
-0.905149 -1.55382 3.36652
1.42418 1.07634 2.66184
0.538383 0.150802 2.90897
0.10768 0.517822 2.95621
-0.141514 0.917461 3.04359
-1.14418 -1.41867 3.1812
0.695385 -1.09545 3.42931
-0.0669577 -0.62831 3.18815
1.302 -0.210177 2.83504
-0.920075 -1.48485 3.41955
1.13104 0.569486 2.87752
-0.950438 -1.00828 3.33127
0.501766 0.227886 2.92689
-0.345479 -0.604672 3.25969
1.27232 -0.170686 2.81192
0.813443 0.956376 2.90096
-0.782865 -0.96663 3.31383
1.74926 0.177159 2.74889
1.41132 -1.56197 3.7031
-0.561369 0.561693 3.00065
-0.922169 0.659169 2.08947
-0.810203 -0.14139 3.0419
-0.197306 -0.544488 3.14542
-0.898255 -0.911604 3.25326
-0.113326 0.694087 3.12027
-0.753135 -1.41798 3.46837
-0.569673 -0.101357 3.06116
-0.688084 0.309543 3.01377
-0.314217 -0.516673 3.17629
1.58457 0.911243 2.56032
1.38841 0.583538 2.80156
-1.06855 -1.65082 3.48329
-1.39271 -0.467833 3.17416
-0.313499 -0.0621092 3.02888
-0.832183 0.276401 2.9547
0.0982016 -1.37732 3.47173
0.474017 1.00819 2.93085
-0.181766 -0.909176 3.40776
-0.799196 -0.180626 3.02952
1.10446 -0.549067 2.94799
-0.786826 -0.996258 3.28373
-0.731457 -1.50161 3.46439
1.64276 -0.494786 2.8548
-0.634891 0.652723 2.0726
-0.861327 -0.984347 3.38183
1.09087 0.544649 2.91264
-1.36844 -1.29957 3.10044
-0.252693 0.193219 2.94162
0.263861 0.274496 2.94199
-0.47325 0.630663 3.01609
-0.520248 -0.14452 3.0824
-0.58956 -1.41447 3.45824
1.49883 0.214421 2.74587
-0.807971 -0.996655 3.55151
-0.0094106 0.606961 3.06174
-0.0303121 -0.515026 3.17205
0.969367 0.953497 2.8878
0.0744568 -0.0989831 3.00263
0.738611 0.996461 2.89431
0.734484 -0.87636 3.2763
1.65193 0.311849 2.76601
0.206051 -1.44417 3.63641
0.728302 -0.0590271 2.92129
0.826304 1.05676 2.85966
-0.913864 -0.467923 3.17012
0.112714 -0.845039 3.3048
0.537901 0.703603 2.96695
0.675027 -1.38812 3.6224
0.915115 0.300242 2.90515
1.94912 -0.0289178 2.98477
1.12967 1.00665 2.81844
-0.296428 -0.429359 3.14203
-1.30294 0.637163 2.86804
1.24337 -0.370837 2.95853
1.03936 0.757715 2.85491
1.52302 1.00367 2.5567
1.62717 -1.21284 3.25104
0.72448 0.0449618 2.95321
-0.461643 -0.814945 3.33122
1.52553 0.383738 2.74105
0.395262 -0.754244 3.23365
-0.136711 0.738933 2.93728
-0.725829 -0.353398 3.08657
1.67248 -1.10337 3.06596
0.0762443 0.0144334 2.96235
0.014304 0.372615 2.95484
-0.792861 0.706732 1.86385
0.799077 -0.0591155 2.93899
-0.40489 -0.468942 3.1615
1.11576 -0.828363 3.09506
-1.41653 -1.27521 3.23046
1.15667 1.00615 2.81764
-0.266791 0.701706 3.13787
0.964213 0.304864 2.9511
1.243 -1.31229 3.41708
1.26228 0.0131531 2.81089
0.818066 -0.820893 3.20391
-0.904012 -1.61898 3.41758
0.897339 -0.414283 3.03197
0.807949 0.375798 2.98031
-1.4296 -0.0233483 3.08517
0.368843 -1.30086 3.50802
0.115152 0.761792 3.02705
-0.409484 -0.800775 3.28489
-0.0374779 0.335018 2.95068
1.30603 -0.359964 2.87312
0.33821 0.721787 3.03253
-0.474419 0.725331 1.9671
1.63418 0.95486 2.49931
1.52269 0.415429 2.72256
1.69375 -1.09805 3.05276
-0.589727 -0.347631 3.03185
1.07173 0.0827421 2.84857
0.717349 -0.744321 3.18129
1.19714 0.778304 2.80278
1.24046 0.403036 2.86131
0.0509795 -1.16794 3.38902
1.15147 0.0439995 2.88396
-0.224486 0.795634 1.97412
-0.49182 0.743139 1.90002
0.969712 -0.293598 2.95635
1.39339 0.715408 2.69728
1.4673 -0.639133 2.88171
-1.37896 -0.655282 3.15226
-0.119449 0.929127 3.08112
0.085199 -0.269489 3.07202
-0.60801 -1.5867 3.43852
-0.67679 0.15603 2.94213
-0.338491 -1.18852 3.59526
0.320508 0.507117 2.88655
0.237407 -0.635747 3.22346
1.63881 0.757688 2.63463
1.56634 -0.222932 2.96746
-0.252443 0.119759 2.97129
-0.677516 -1.55685 3.49992
0.234125 0.482237 2.90757
-0.633072 -1.06719 3.35752
0.935975 1.16873 2.79136
-0.368145 -0.351826 3.09157
1.10058 -0.725365 3.09917
-1.03011 -1.24004 3.47062
-0.379304 0.760366 1.93986
-1.17158 0.790188 2.97932
-1.31876 0.417363 2.94926
1.20464 0.0427322 2.85559
0.364891 0.479439 2.88923
0.339261 0.119996 2.95187
0.303848 -1.22268 3.54344
-1.02599 -0.745576 3.37888
1.17391 1.14245 2.72702
1.63902 -0.267626 2.65328
-0.814109 0.855715 2.95657
-1.30902 0.0906174 3.03693
-0.189667 -1.72527 3.73728
-0.591022 0.453804 2.94367
0.450659 -1.16623 3.52602
-1.1713 0.83996 3.01595
-0.803004 -0.690344 3.31956
1.14779 -0.252117 2.87547
0.0500128 -1.08053 3.40186
1.1243 0.900064 2.84489
-0.296511 -1.67537 3.75223
0.394586 1.1601 2.86304
0.180054 -0.223759 3.05229
0.278979 -0.648553 3.28565
1.56106 0.186713 2.85236
1.35894 -0.553091 2.97109
0.830283 0.525095 2.99357
-0.62382 0.157329 2.97157
-0.684552 -1.46389 3.37743
1.00596 -0.178659 2.96932
1.29548 0.533701 2.84867
-0.656518 -1.0185 3.35961
1.09707 -1.77855 3.73963
1.69533 -0.486095 2.75624
0.916673 0.878416 2.90772
-0.382658 -0.143281 3.06979
1.16182 0.958389 2.78402
-0.672058 -1.42901 3.4098
1.05189 0.612066 2.9212
-0.555131 -0.963586 3.31454
0.808771 0.275917 2.93877
0.43009 -0.0982871 2.9875
1.62917 0.856839 2.59522
0.83426 -0.498954 3.06845
-1.20074 0.247311 3.10521
1.22002 -0.895104 3.18405
0.219755 -1.46175 3.57274
0.437675 0.578229 2.91226
-0.410119 0.156088 2.97378
1.10715 0.510662 2.9097
1.23022 0.846653 2.80265
0.108825 -1.64364 3.68718
-1.31323 -1.01838 3.218
-0.762984 -0.633391 3.24204
0.733454 -0.221807 3.02409
-0.175732 -1.55698 3.58709
1.53195 0.541991 2.72495
0.399265 -1.04445 3.43957
-0.336975 0.238838 3.02791
1.47617 -0.567364 3.03841
-0.602846 -0.18288 3.09528
-0.709643 0.662478 2.00633
-0.415898 -0.997129 3.42768
-0.897426 0.195231 2.94855
0.220604 -1.4821 3.53186
-0.724806 0.591165 3.1484
1.35702 0.864581 2.73417
0.126243 -0.138205 2.98937
-0.422137 -0.550246 3.19786
1.24251 -0.85579 3.04295
0.189746 0.683262 3.07181
-0.69272 0.706165 1.97822
1.07112 -1.36885 3.34188
-0.309648 -0.0958581 3.01833
1.08825 0.304033 2.9395
1.00868 -0.482479 2.96692
0.879871 0.617915 2.93613
0.0901786 -0.460798 3.11251
1.23797 0.267132 2.85682
1.31121 -0.0549494 2.71106
-1.09926 -1.30647 3.30301
1.5068 0.90509 2.63006
1.23759 -0.813083 3.03212
-1.33089 -0.437762 3.2304
-0.228044 0.775533 2.03493
-0.835087 -0.0225539 3.04484
1.30999 0.700197 2.78219
-1.48859 -1.25103 3.27894
1.09085 0.368746 2.91958
1.56817 -0.725732 2.82349
1.33157 0.0113429 2.76012
0.204131 0.741048 3.11131
1.48781 -0.360034 2.85552
-0.417253 0.734742 1.99432
0.751048 -0.780785 3.19331
-0.933144 -1.25542 3.39535
-1.36019 0.343717 2.99125
1.39717 0.26733 2.86273
1.28137 0.590528 2.80721
0.980004 0.988497 2.86008
-1.06699 -1.37614 3.37234
0.0224358 -1.73628 3.67036
-0.994657 -0.922398 3.3042
-0.633558 -0.534425 3.31312
-0.358555 -0.0944761 3.04158
-0.0666427 -1.41184 3.56805
-0.873381 0.338699 2.96025
1.47595 -0.799808 2.98454
0.575899 -0.458986 3.10027
0.213164 1.09732 2.96206
-0.65377 -0.0600529 3.04061
1.76115 0.676796 2.8273
1.2795 0.295357 2.85657
-1.20287 -0.806922 3.17539
-1.37547 -1.26826 3.32261
-0.687359 -0.0235695 3.02595
-1.06648 0.662875 2.96415
-0.360853 -0.427374 3.1568
-1.10814 -0.810619 3.33935
-0.633017 0.777026 2.9231
-0.900787 -1.25091 3.38598
-0.558761 0.688097 1.93501
0.507036 0.0483763 2.94425
0.23305 1.15218 2.92943
-0.965967 -0.390499 3.16838
-0.161973 0.413651 2.92719
1.39114 -0.707864 3.02138
-1.15042 0.378071 2.97403
-0.035233 -0.350711 3.06431
-1.41644 0.0164596 3.16119
0.391037 1.10992 2.89704
-1.31005 -1.11998 3.14609
-1.09126 0.748848 2.96246
-1.36875 -0.301585 3.07689
-0.873026 -0.708012 3.21335
0.570226 0.850793 2.94034
1.05168 1.1589 2.76065
0.437677 0.485561 2.92913
1.41028 -1.27261 3.68882
0.402855 0.118029 2.93606
-1.34235 -0.268547 3.12154
-1.07319 0.788747 2.83537
0.190337 -0.670163 3.21083
0.391584 0.451279 2.92483
0.88366 -1.16269 3.51733
0.138134 -1.59559 3.45696
-0.828408 0.0899574 3.00234
0.89842 1.13181 2.7924
-1.12657 0.0201674 3.05259
-1.11576 0.37814 2.97741
-0.740407 0.749694 2.97197
0.882605 1.08986 2.84385
0.0614837 -1.33654 3.61057
0.982276 0.339951 2.96147
-0.589533 -0.788438 3.24954
-1.12998 0.727435 3.02648
1.17814 1.01655 2.7444
-0.488082 -0.379254 3.05863
0.759217 0.456109 2.95799
-1.26417 -1.18017 3.31351
-1.13892 -0.365632 3.24333
1.13761 0.0854526 2.86144
1.59313 -0.692744 2.9608
-1.04253 0.782074 2.81409
1.32354 0.403565 2.83738
-0.609815 -1.19544 3.47288
1.35022 0.0437539 2.77765
1.54057 1.02201 2.52408
0.258712 1.15675 2.93444
0.459896 -0.294697 3.00534
-0.226957 0.806984 3.03665
0.320019 -0.710426 3.22643
0.7781 -0.658754 3.15416
1.34573 0.822951 2.72684
-0.0539356 -0.265691 3.06392
0.394911 -1.66053 3.50591
-1.42506 -1.50169 3.26297
1.11928 -1.11799 3.3792
1.08657 0.150303 2.8421
-0.517044 0.523956 2.96435
-0.563933 -0.635089 3.24434
-0.837241 0.669194 2.3202
-1.14414 -0.2253 3.13371
-0.962309 0.127337 3.05497
0.377112 -1.59623 3.5835
1.19773 0.47619 2.86869
-0.751047 -1.08301 3.4144
1.54517 1.04934 2.50071
-0.230635 -0.180424 3.05686
-0.92304 -0.586212 3.18407
1.55195 0.869208 2.6261
-1.51935 -0.956563 3.17289
1.656 0.557746 2.80177
1.15143 -1.63389 3.75588
-0.180697 0.236692 2.96193
0.326583 -0.138519 2.98704
-0.272055 -0.541848 3.14918
1.54225 0.82908 2.61884
-1.13562 -0.9256 3.19618
-0.0104742 0.566652 3.01209
1.25823 -1.54139 3.668
0.442348 0.194417 2.92878
-0.107592 0.122718 2.98685
0.941518 -1.19175 3.46097
1.65368 0.472849 2.85483
-1.46529 -0.695545 3.18604
-0.656581 0.862969 2.96254
1.66822 -0.29351 2.95283
-0.509694 0.773906 1.85194
-0.990188 0.100281 3.20528
0.0776871 -1.59791 3.46828
1.60765 0.414178 2.67618
-0.820206 -1.08722 3.30387
0.0560925 0.841569 3.01534
-0.714327 -0.695272 3.35454
0.456892 -0.259387 3.00135
-0.121078 -1.08808 3.4345
0.356849 0.546788 2.90759
0.637817 -1.66105 3.72947
1.52682 0.188328 2.83682
1.18344 -0.20411 2.82796
1.65068 1.03947 2.56591
0.751811 -0.615353 3.13338
0.184321 0.95835 3.0089
-0.188634 -1.01064 3.33616
0.447916 0.511188 2.9023
-1.35437 -1.42501 3.3019
0.2516 -0.177044 3.02626
-1.04671 0.164578 2.98974
-0.735138 -0.580194 3.16101
1.59017 0.786573 2.60561
1.31711 -0.507798 2.9375
1.53407 -0.130971 2.82109
-1.21709 -1.34708 3.21976
1.52569 0.242183 2.59811
0.364039 -0.981653 3.38178
-1.1931 0.612163 2.90968
1.00587 -0.491413 3.03815
-0.465089 0.684935 2.07815
0.197327 -0.0931062 3.01764
1.31683 0.956172 2.7683
-0.673276 -1.41851 3.47763
-0.624845 0.233649 2.89631
-0.373879 -0.944285 3.38285
-0.744692 0.612429 3.06757
0.151619 -0.057805 2.98523
0.70732 -0.459581 3.10403
1.64402 -0.77316 2.87823
0.728589 -1.41235 3.57074
0.276425 -0.0243451 2.98962
-0.515292 0.710013 1.99221
-0.181056 -0.422617 3.1191
1.30167 0.626559 2.79796
0.199123 -0.844139 3.31563
-0.0345254 -1.36047 3.55748
0.754088 -1.81151 3.82304
1.49522 0.287633 2.79522
0.00176555 -0.253757 3.06024
1.43984 -0.591303 2.86946
1.01532 -1.10805 3.38878
-0.282973 -1.65269 3.61729
-0.462983 0.781227 1.86041
-0.38108 0.897473 3.03468
0.332408 0.482305 2.87182
0.958998 0.130873 2.92741
0.0420008 -1.5512 3.52076
1.62804 0.197934 2.72978
0.15435 -1.05607 3.36847
1.18948 0.541506 2.84928
0.636811 -0.610281 3.15897
0.978381 0.9261 2.87417
1.52615 -0.19522 2.78809
-0.284907 -1.50532 3.52505
-0.299246 0.173071 2.95079
-0.473301 -1.01192 3.37868
-0.730992 0.535535 2.99393
-0.969425 -0.569161 3.14078
-1.26201 -0.171156 3.13406
-0.787561 0.639735 2.09468
0.613627 -0.958603 3.32229
-0.182845 -1.47627 3.55328
0.88528 0.996188 2.86289
1.24038 -0.120545 2.83872
0.180172 0.281448 2.92572
0.297843 -0.531322 3.13472
-1.32481 -0.888025 3.21434
0.603771 0.607116 2.99612
0.0942601 -1.40776 3.47417
-1.38794 0.255317 3.01369
1.07937 -0.077528 2.86291
-0.854641 0.660957 3.07066
-1.34846 -0.503705 3.21898
-0.203606 0.989875 2.9507
-1.43657 -0.459978 3.19175
-0.338499 0.74559 2.00865
-1.38997 -0.0495064 3.1032
-0.203383 0.719621 2.96554
-0.524691 0.356013 2.9767
-0.336798 -1.37446 3.51175
-0.0667391 -0.0142458 2.96389
1.71282 -0.765374 2.8904
0.333559 0.693397 3.02145
-0.510444 -0.42921 3.23009
0.348927 0.312473 2.93401
1.17957 -0.754441 3.00205
1.30734 0.998536 2.75955
-0.470374 -1.33098 3.51689
-0.549359 -1.62266 3.44539
-1.27126 0.256793 3.02436
1.00014 0.595949 2.94565
1.28894 -0.88934 3.07799
0.0476666 0.986349 2.94082
-0.0517691 -1.45123 3.49198
0.53219 -0.5279 3.13476
1.42916 -0.119663 2.77637
0.713649 -1.58885 3.91398
0.980428 -0.925297 3.33792
0.475531 0.311797 2.92023
-0.847325 -0.499371 3.21277
1.36724 0.971933 2.68714
1.19489 -0.0755394 2.79629
0.854554 0.672078 2.92726
0.559437 0.275977 2.86959
1.73976 -0.735662 2.76566
-0.687501 0.636343 2.95776
0.316773 -1.40044 3.57335
-0.0238898 -0.0500192 3.00683
0.917773 -0.44083 3.05001
1.26009 -0.764772 3.03701
-0.240669 0.776957 3.03166
0.282672 -1.34417 3.55139
1.36226 0.953472 2.73962
1.20051 0.021196 2.81362
-0.298418 0.769289 1.99384
0.321889 -0.408538 3.08151
1.33736 0.365203 2.79608
0.145869 0.347654 2.91261
0.826302 -0.370858 3.03028
0.173814 -0.0148448 2.96655
1.59275 -1.22124 3.31449
-0.19185 0.778011 2.08895
-1.20266 -0.784794 3.25516
-0.0215932 0.736961 3.02284
-0.468066 -0.748201 3.25366
0.967807 1.14495 2.80479
0.348862 -0.345054 3.14887
-1.26687 -1.14372 3.23242
0.832272 0.462663 2.9405
-0.766538 0.101601 3.00552
-0.732876 0.826758 2.94554
0.34323 -0.297196 3.12602
0.401478 0.808543 2.99558
0.504376 -0.699404 3.21661
0.1525 1.15743 2.91544
1.66191 -1.09104 3.20023
-1.1948 0.064665 2.96399
1.0492 0.422011 2.91461
0.440413 -0.0148034 2.97784
1.0674 0.350484 2.92585
1.2044 0.693431 2.8514
0.951938 1.05069 2.81295
0.617023 -1.3149 3.48119
-1.16767 -0.835919 3.34834
-1.07419 -0.410968 3.1377
-1.38212 -1.18207 3.23406
1.78025 0.408695 2.81676
-1.18893 -0.805211 3.34608
-1.06142 0.0662155 3.03606
0.312401 1.1864 2.97644
1.31985 0.750093 2.7791
-1.36203 -0.383516 3.17077
1.70728 0.0212796 2.75078
0.407272 -1.25035 3.52772
0.849101 -1.73669 3.67659
0.51598 -0.333488 3.04136
0.169579 -0.741401 3.22872
1.49374 0.36045 2.77377
-0.0784581 0.760747 2.96265
-1.12025 -1.1186 3.30225
-0.219555 0.890555 3.00848
-0.267649 0.775308 2.01052
1.22443 0.122978 2.78566
1.27479 -0.275883 2.88609
-0.151995 0.837984 1.9918
1.12384 -0.659461 3.03068
-0.412342 -0.670005 3.27187
-1.11714 0.460104 2.90991
1.56465 -0.240944 2.87601
-0.0410572 0.0991681 2.97145
0.492027 -1.67475 3.66577
0.398599 0.492698 2.9351
-1.32219 -1.0531 3.23827
-0.443846 0.853788 3.03437
0.75645 1.15163 2.81729
0.662702 -0.597846 3.09072
-1.48489 1.0495 3.25054
-1.35763 -0.210727 3.07769
-0.969897 0.559221 2.93628
0.449081 -1.61612 3.66552
-0.934922 0.216742 2.96904
0.80568 -1.07828 3.43157
-0.889831 -0.168857 3.06958
1.37681 -0.527917 2.89716
0.499655 0.90842 2.96165
1.18081 -0.97428 3.23703
0.333183 0.172955 2.94619
-0.0408391 -1.50183 3.51853
1.37799 0.510956 2.84027
0.0599166 0.0992219 2.99353
-0.759053 0.470999 2.98539
1.63985 0.757266 2.69519
1.32702 1.06132 2.59767
1.36165 -1.1813 3.47586
-1.40745 -0.678385 3.14649
1.66716 -0.271871 2.86249
1.62777 0.472356 2.63461
-1.04769 -1.56451 3.43292
0.647875 0.171104 2.91744
-1.24167 -1.04808 3.22452
0.143419 -0.658065 3.2135
0.579464 0.907261 2.95441
-0.990069 -0.254607 3.10289
1.31574 -0.976466 3.09934
0.822591 0.500989 2.98763
0.493788 -1.65855 3.755
-0.744703 0.13446 2.96789
0.812446 -0.202403 2.971
-0.0647707 0.857988 2.03888
0.997178 -0.593594 3.06699
1.50315 -0.503395 2.75399
0.737449 0.857758 2.90298
-0.665958 0.678353 2.02702
0.345464 -0.164525 2.99709
-0.00370796 -1.54881 3.62482
-0.789283 0.253779 3.0054
-1.28647 -1.00236 3.35858
-1.47276 0.634702 3.11604
0.770152 -0.520141 3.08591
-0.756223 0.648371 2.01991
-1.33772 -0.125259 3.06526
0.818079 -1.7244 4.13657
-0.4599 -1.0152 3.53418
-0.759259 0.214191 2.92795
-0.133366 0.579834 3.01074
1.63763 -0.0793791 2.8517
-0.00228348 1.06286 2.93292
0.92705 -0.476717 3.04119
0.996242 0.673688 2.93311
1.32223 -0.836274 3.01562
-0.325473 0.317901 2.94794
1.40923 -1.67936 3.55657
1.40885 -1.52593 3.75203
-1.21327 -0.0470769 3.05028
-1.03831 -0.449293 3.1452
1.65905 0.898135 2.58399
-0.702788 -0.89168 3.38978
-0.655259 0.639321 2.97384
0.441658 -1.42074 3.62279
0.845065 0.282879 2.92629
1.02337 -1.64314 3.72045
-0.106546 0.217365 2.96617
-1.82991 -1.1823 3.78325
0.201761 0.55374 2.90596
1.0256 -0.587964 3.03564
0.542583 0.957129 2.96066
-0.593709 -0.208871 3.07967
0.545187 -1.55126 3.63092
1.21454 0.166792 2.84647
-0.995105 -0.990409 3.32696
0.886436 0.241923 1.36439
-0.564794 -0.585924 3.25144
1.53815 -0.156278 2.83448
1.47159 0.820012 2.67109
-0.587 0.647223 3.01172
0.285416 -0.974281 3.39106
-1.13946 -1.36685 3.29671
1.03185 0.279483 2.89739
-0.407747 -0.119237 2.99667
-0.553474 0.692428 1.99256
-1.40965 -0.540621 3.23905
1.38685 -0.80291 2.89759
-1.21792 0.5872 2.89589
0.476872 -1.4649 3.61889
-1.14478 0.259913 3.04211
-2.66445 -0.26506 5.76574
1.09302 -0.463444 2.94697
1.48835 0.891622 2.64046
-0.528729 -0.449754 3.15466
-0.757676 0.727097 2.98445
-1.05048 -0.045772 3.08824
-0.715973 0.713904 1.91641
1.00342 -1.35107 3.44246
0.470694 -0.0145841 2.98733
-0.381358 -0.87708 3.33754
0.104952 -0.409738 3.10711
1.26578 0.344448 2.87618
1.09408 0.668504 2.91157
0.865322 1.03095 2.84316
1.26288 -1.26203 3.33592
-0.247296 0.318333 2.95139
-0.142449 -0.824137 3.30007
0.26742 -0.376268 3.10658
0.694503 1.13025 2.84459
-0.785749 0.808029 2.99157
-1.1443 -0.799794 3.32122
-0.878417 0.424375 2.92434
-0.534936 -1.28126 3.50192
-0.773365 0.0656208 3.0316
-1.32786 -0.341022 3.14369
0.950525 0.744336 2.89057
1.1229 -0.696523 3.03641
-0.810717 0.391273 2.99151
-0.244893 0.778479 2.02125
1.14259 -1.20819 3.40477
-0.331869 0.0251958 2.9593
-0.131636 0.319174 2.96142
-0.542779 -1.38423 3.43613
-1.26321 -0.891074 3.23784
-1.01129 -0.475128 3.06344
1.32624 0.64207 2.79793
-1.11367 -0.0813546 3.05931
1.11957 -1.3386 3.40987
-0.90165 0.289552 2.97798
0.923321 -0.840278 3.18798
-0.420427 0.6478 3.01562
-0.44951 -0.462512 3.22342
0.994641 1.01432 2.79585
0.534121 -0.0461674 2.98578
0.837801 0.992772 2.84361
1.1158 0.734705 2.8524
1.03281 -0.770857 3.08632
1.45239 -1.69364 3.58677
-1.15815 -1.24998 3.32072
1.08918 0.0244019 2.88106
0.481118 0.379734 2.89848
0.681543 1.11826 2.89453
0.37736 -0.412773 3.12652
0.86598 -0.781483 3.23213
1.54382 0.321012 2.70844
0.123586 -1.29878 3.54903
1.11707 -1.76749 3.61454
-1.31914 -0.0145026 3.03423
0.386352 -0.380394 3.13669
0.735623 0.723095 2.96351
-0.645736 0.718378 1.92653
-1.16399 -0.763951 3.36038
-0.641505 0.74946 1.83736
-0.845815 -0.344172 3.15644
-0.994619 0.80594 2.85869
0.146823 0.460676 2.91871
1.47994 -1.15985 3.26207
-0.410033 0.102004 2.94958
-1.07821 -0.292598 3.12379
0.052821 0.815899 3.0061
-1.33014 -0.716808 3.31693
0.819559 1.12832 2.8383
-0.560669 0.0631098 2.98274
1.3969 -1.15779 3.40254
-0.0828055 0.430228 2.95814
1.40333 -0.224907 2.77164
0.952931 -0.647857 3.15646
-0.557124 -1.15918 3.56382
-1.47053 -1.45013 3.19132
0.355762 1.22706 2.90348
1.48904 0.773266 2.61047
1.69223 0.480127 2.86657
0.175835 0.135372 2.98174
0.264713 -1.35472 3.69633
0.0348151 0.426035 2.92906
1.40999 -0.726991 3.00527
0.811219 0.0619801 2.91067
0.865606 1.10616 2.78168
1.23345 0.757083 2.79257
0.51477 -0.367836 3.03026
-0.833222 0.030228 3.04044
0.109145 -1.25674 3.55547
-0.476189 -0.330372 3.04631
0.871258 0.38521 2.93744
-0.736132 -0.744725 3.2709
1.15517 0.735031 2.85437
0.954419 1.08492 2.8036
-1.1822 -1.08542 3.21383
-1.22734 0.829667 2.81707
0.696443 1.20515 2.85181
1.7352 0.124939 2.77109
1.27845 -0.265318 2.81803
-1.23284 -0.727485 3.36188
1.00529 -0.624509 3.04589
0.555505 0.463277 2.93293
-0.92065 -0.244502 3.06256
-0.298152 0.101693 2.94219
-1.18677 -1.5661 3.44528
-1.00507 0.498575 2.9626
-1.37881 -1.0117 3.13675
-0.278903 0.847354 3.0033
0.0935195 1.18866 2.90407
-1.39621 -0.636473 3.32459
-0.364241 -0.207839 3.06647
0.617018 0.952476 2.94818
1.04463 -1.58056 3.58126
-0.459511 0.571087 2.97736
-1.38926 -1.00502 3.21719
0.274142 0.215359 2.96228
-0.705586 -0.164044 3.02735
-0.136209 -0.56487 3.12648
-0.462469 0.891996 2.8751
-0.40967 -1.6026 3.40952
0.619929 -0.992993 3.3213
-1.21512 -1.42658 3.34888
1.41822 0.166853 2.86333
-0.301945 -0.117965 2.99676
0.0243998 0.536358 2.98146
-0.918406 -0.519855 3.11887
0.944323 -0.957908 3.32761
0.875092 -1.78461 3.65956
-1.09929 -1.35666 3.27184
-0.309023 0.744246 2.19631
-0.930895 0.584047 2.87377
0.00503047 0.251567 2.94246
-0.815269 -1.55041 3.40849
0.700675 0.534536 2.96337
-1.35123 -1.02012 3.15921
1.5793 0.16561 2.8241
1.2447 -0.58812 2.86267
-0.376104 -0.243381 3.04378
-1.28756 -1.0607 3.39284
0.00192472 0.135614 2.94665
-1.39179 -1.43743 3.27185
0.158462 0.493001 2.90919
0.0229043 -0.206152 3.04453
-0.702888 0.860918 2.88575
-0.995115 -0.615961 3.21219
0.0564937 0.923608 3.00262
0.985266 1.17729 2.78498
0.974604 -0.981932 3.27919
0.329561 1.03364 3.04952
-0.801849 -1.45632 3.41706
1.12877 -0.153614 2.85525
0.218352 0.254886 2.94185
-0.384754 -0.583305 3.25042
-0.593969 0.628852 3.09137
0.0350845 0.582242 3.03252
-0.769545 -0.51952 3.11665
0.722094 0.215298 2.94121
0.919676 -0.117774 2.96199
-1.00631 -1.36415 3.29214
0.756076 0.954028 2.95128
-0.142143 -0.966002 3.38
-2.46735 -0.866256 5.30022
1.42385 0.979712 2.69961
-0.0117633 -0.0781281 2.99738
-0.502897 0.70308 3.05401
1.37096 -1.39127 3.43767
-0.540936 -0.96489 3.50284
0.555101 0.311111 2.88734
1.08937 -0.0454614 2.9047
1.64877 -0.405201 2.82041
-0.365153 0.286609 2.94757
1.20098 -0.829704 3.14208
-0.325533 0.657944 3.06038
-0.682169 -1.31379 3.3653
-1.05238 -0.0105819 3.03934
1.30661 0.982997 2.81568
-0.087413 -0.409386 3.12013
1.68368 0.323147 2.71604
-1.60794 -0.83297 3.34436
1.29829 0.681991 2.79819
-1.05447 -1.25445 3.33768
-0.522393 0.726038 1.9465
1.26008 -0.3841 2.86142
1.26318 0.711372 2.80382
1.49072 -0.019831 2.82358
1.54103 1.02264 2.65614
0.124628 -1.32699 3.49635
0.919776 0.0197762 2.93088
1.09092 -0.790745 3.12673
-0.122122 0.37891 2.94001
1.14537 0.693553 2.8646
-0.295929 0.754494 2.0271
0.139893 -0.379646 3.08227
-0.551203 -1.25124 3.40285
-0.605611 -0.767491 3.17942
-0.455033 0.352132 2.98658
-0.29704 -0.345904 3.11081
-0.123607 0.816105 2.01482
0.800874 -0.738229 3.1829
1.12035 0.793402 2.82946
1.1084 0.456035 2.92078
1.28648 -1.19393 3.34746
0.0303504 0.0934495 2.96598
0.702935 -0.292958 3.04509
0.496664 0.784301 2.92328
1.65137 -0.626786 2.84425
0.832713 0.421408 2.95265
-0.921841 -1.13372 3.31768
0.966795 0.0537274 2.92617
-0.597839 0.745561 1.89328
-0.204891 -1.69634 3.5917
-1.32697 0.133387 3.08416
0.0157829 0.490555 2.95108
-0.75087 0.627269 2.15058
0.877446 1.17893 2.80324
0.210914 -1.69684 3.69694
0.154188 -1.15561 3.52889
1.64028 -0.598789 2.87056
1.29098 -0.240147 2.8346
1.14171 -1.49601 3.36906
1.16289 0.544215 2.87998
-0.698262 -1.06759 3.38742
-1.0642 0.214207 3.01981
-0.216044 -0.619403 3.187
1.58572 -0.203349 2.82903
-0.56086 -0.991623 3.3005
-0.716806 0.16675 2.93321
-1.16905 -1.41991 3.30265
-1.25128 0.517526 2.91054
-1.1393 0.745894 2.45969
1.23854 -0.161718 2.83422
0.941062 -0.559456 3.0387
-0.478482 0.679734 2.12436
-0.229916 -0.703636 3.22857
0.115185 0.871302 2.96713
0.749919 -0.292259 3.04402
1.01072 1.16401 2.76634
-1.0497 0.13585 3.00599
1.02335 -1.13788 3.32195
0.575394 0.491095 2.94491
1.29157 0.781623 2.78188
0.0315138 -0.668691 3.23682
-0.717279 -0.253755 3.0286
1.18926 0.0892921 2.82591
0.764742 -1.78285 3.87751
1.46519 0.441537 2.82814
-1.16048 -1.06517 3.26453
-0.785319 -0.212909 3.03464
0.726188 1.1689 2.87174
0.0187037 -0.61708 3.17636
-0.58866 -1.1268 3.58105
1.32302 0.533017 2.81801
0.752297 -1.75511 3.95626
-0.473531 0.209779 2.96077
-1.43871 -0.171181 3.088
1.12574 -0.542176 2.94296
-1.00834 0.715354 2.35508
-0.157681 -1.00578 3.3452
-0.768636 0.537884 3.01978
0.225601 -1.50884 3.51028
-0.14976 0.167647 2.96437
0.704714 0.245124 2.95269
-0.375868 0.608616 3.02438
-0.424775 0.688761 2.06944
-0.146521 -1.49153 3.58097
1.36085 -0.903627 3.11493
-1.02247 -0.527848 3.11919
1.59728 0.835269 2.60853
1.35835 -0.121294 2.73169
-0.114543 -1.45184 3.57767
1.40269 -0.850525 3.04183
-0.745673 0.309723 2.97162
-0.532234 -0.089112 3.04866
-0.340622 0.742231 2.05907
1.41998 -0.467543 2.89559
-0.0810428 -0.883972 3.31988
1.4477 0.576006 2.71385
-1.16133 -1.29228 3.29241
0.498367 -1.68741 3.57312
1.7339 -0.0519854 2.78326
0.2875 0.280577 2.95002
0.630961 -0.451572 3.0846
-0.316373 0.690762 3.04067
-0.63577 0.695141 2.00713
1.51238 -0.535559 2.89862
-1.19572 -0.171555 3.08121
-0.377589 0.708805 2.11913
-1.04496 -1.39578 3.25266
-0.280628 0.615754 3.05389
0.106647 -1.02953 3.42892
1.07974 0.242838 2.92096
-0.5812 0.653471 2.04464
-1.23113 -0.132781 3.08546
-0.591095 -0.540188 3.18215
0.656496 0.207799 2.91938
-1.45158 -0.868001 3.01947
0.629263 -1.54915 3.71757
1.6671 0.50619 2.6833
1.72762 -0.0807166 2.76363
1.55896 -0.444022 2.77818
-1.35246 -0.871811 3.147
1.24211 -1.4953 3.67569
-0.246694 0.905004 2.58606
-0.894204 0.65352 3.06184
1.01107 0.280674 2.9366
0.697895 -1.4186 3.60862
-1.47567 -0.833806 3.14923
-1.16272 0.353398 2.97566
0.98567 -0.444073 3.03181
1.31874 0.670434 2.77307
-0.96913 -0.0500473 3.00689
0.513654 -1.37504 3.62071
-0.416994 0.309132 2.93441
1.36272 -0.748832 2.96809
0.168881 1.09586 2.94433
1.49927 -0.37827 2.8079
1.13948 0.661756 2.90458
1.73849 -0.0179782 2.75752
-0.475623 0.713726 1.9824
0.455905 -0.809524 3.33932
-1.24449 0.427036 2.98449
0.0969379 -1.30621 3.54928
0.653441 -0.365806 2.97102
-0.138345 0.0564556 2.97449
-0.333186 0.768076 1.94554
0.565266 0.797541 2.97231
0.197029 0.375909 2.91685
1.35164 -1.20021 3.3558
1.64007 0.0212366 2.85258
1.57473 0.983655 2.55912
-0.254216 -0.342592 3.09757
1.70073 0.662252 2.61539
-0.506069 -0.735549 3.20018
-2.57313 -0.849684 5.50547
0.902711 1.05732 2.83792
-0.0588126 -0.052596 3.01025
1.34826 0.664496 2.74409
1.09177 -1.34907 3.43027
0.07277 0.344182 2.9055
0.881158 -0.862891 3.24611
-1.173 -0.0166507 3.07665
1.46629 0.627979 2.76482
-1.43889 -0.425723 3.21533
0.0649353 0.30797 2.93591
-0.19427 -0.817909 3.26802
-0.15843 0.844642 2.32627
0.75589 -1.32199 3.48508
1.60859 -0.351033 2.83751
1.0094 -0.790118 3.25328
0.718075 -1.88441 3.98083
0.908221 -1.37096 3.72594
0.235844 1.12948 2.9292
0.048714 0.769352 3.01574
-0.590172 0.383399 2.95033
1.62726 0.0202622 2.78728
0.048883 -1.21244 3.41181
1.71207 0.0889262 2.76223
1.61298 0.406592 2.60145
1.2909 -0.679518 2.9318
1.39158 0.76852 2.73885
0.548122 -0.336787 3.03871
1.21531 1.11692 2.74171
1.64156 0.0547095 2.8414
0.118171 0.417142 2.90903
1.19354 -1.11739 3.25964
-1.18396 0.736197 2.73333
1.36091 -0.659052 3.00838
-0.116693 0.796357 2.02102
0.775554 -0.290572 3.0177
-0.813837 -1.132 3.46417
-0.82414 0.632953 2.08215
1.43724 -1.66761 3.62669
0.146364 -0.253733 3.03617
1.06972 0.163064 2.8708
0.74704 -0.649576 3.13821
-0.456047 0.53027 2.97311
-0.389025 -1.04241 3.31219
-0.587922 0.128548 2.97698
1.22272 -1.70857 3.84519
1.35464 0.474541 2.84428
-0.569211 -0.217523 3.07498
0.681867 0.870133 2.96849
1.35482 -0.568656 2.91753
1.48352 1.02877 2.52998
1.45228 -0.657256 2.83986
1.43329 0.754175 2.68707
0.975839 -0.324291 2.93036
0.726237 -1.24006 3.48624
1.7293 0.423099 2.7029
0.129176 1.21452 2.88289
1.60593 0.090558 2.76348
1.13717 -0.277159 2.87651
0.104362 1.14898 2.89906
-1.48632 -0.683518 3.15172
-0.755404 0.798187 2.96372
1.34899 -1.15261 3.3585
-1.2641 0.061557 2.978
0.495648 0.41851 2.91766
-0.188115 0.129214 2.9857
1.52647 0.45524 2.72812
-1.00774 0.734569 2.51116
-0.66127 -1.55984 3.40845
1.19911 1.14364 2.71093
0.201503 -1.1282 3.453
0.228701 -0.665211 3.23176
0.995749 -0.247999 2.95615
-0.56411 -1.52929 3.46553
-0.863909 0.59581 3.13895
0.445473 -1.08147 3.42871
-1.39105 0.216417 3.01629
-1.46323 -0.600967 3.12182
-0.234691 -0.216067 3.0671
0.223546 -1.06545 3.53992
-1.33676 0.177581 3.06378
0.434822 -1.49249 3.48534
0.285756 0.523676 2.9327
0.713317 0.899385 2.94284
-0.428242 -0.171704 3.06118
1.35836 -0.533346 2.91188
0.145406 0.972292 3.0247
-1.33126 -0.934417 3.24461
0.966365 -1.80468 3.81003
-0.179132 1.03564 2.97918
0.661183 -1.53803 3.69156
-0.542903 -0.134338 3.05741
1.1046 0.271584 2.85077
-0.49947 -0.542837 3.18401
-0.189663 0.6574 3.0664
-0.121955 0.607463 2.9779
-1.26628 -0.493539 3.13597
1.60773 0.221335 2.66746
-0.0532688 -0.0844786 3.01568
-1.11419 -1.33111 3.28666
0.849625 0.974148 2.90944
-0.483946 -0.969101 3.49076
1.23761 -0.199927 2.8373
-1.43547 -0.607857 3.15795
1.56718 0.840899 2.61763
1.23544 -1.05325 3.3312
0.246986 0.551182 2.90416
0.5614 -1.58837 3.60231
-1.27045 0.219231 3.02212
0.199498 -0.168813 3.00605
1.5168 -0.564942 3.07698
1.40862 0.831185 2.72021
0.332066 -1.0216 3.39696
0.495846 0.516748 2.89955
0.528803 -1.60058 3.73606
-1.11911 0.17153 2.90947
0.611286 0.244865 2.91931
0.0587855 0.610487 3.01337
0.986879 0.962806 2.87366
-1.36838 -1.34418 3.23865
-1.2192 -0.94428 3.28371
0.0618482 -0.538699 3.16924
0.378398 -0.129562 3.00741
-1.0821 -1.34376 3.31778
1.12425 -0.952396 3.42641
1.52669 0.28951 2.73628
0.892626 -0.487055 3.08649
-0.0614991 1.07698 2.97539
1.43182 -0.0764875 2.75109
0.684484 0.677955 2.96603
1.71778 0.255175 2.68725
1.58107 -0.76314 2.87071
0.134927 0.677099 3.1595
-1.45203 -1.20232 3.07973
0.584425 -0.0512686 2.95818
-0.961608 -0.467311 3.22929
0.0481477 -0.824841 3.2883
1.43731 0.694597 2.73081
1.51001 -1.31233 3.45052
-0.0438077 1.03096 2.96078
-0.389859 0.0228773 2.99053
0.279108 1.14545 2.96822
-1.13501 -0.426381 3.22937
0.0926782 0.37773 2.90609
0.194352 0.345741 2.92225
-1.48233 -0.390731 3.21376
-1.26627 -0.0141292 3.14861
1.59233 -1.19427 3.23838
-0.758138 0.70642 1.89606
1.26506 -0.740373 3.04155
1.41733 0.66276 2.73902
0.988035 -0.0789237 2.93412
1.20797 1.00242 2.76973
1.66009 -0.455729 2.87677
-0.191615 0.676953 2.93596
1.10719 -0.86335 3.10872
0.420657 0.308192 2.91479
-0.407835 -1.43264 3.53708
1.48371 -0.0498158 2.86632
0.687076 1.0148 2.91301
1.69433 -0.434143 2.97899
-1.47618 -1.58449 3.36436
-1.30567 -0.835216 3.16673
0.781513 0.629071 2.94092
-0.881235 -1.33692 3.41492
-1.25035 0.287955 2.99294
-1.00734 -0.0121122 3.04991
0.5937 0.345104 2.91358
-0.873772 0.721387 2.95692
-0.456117 0.725183 1.95282
-1.40331 -1.24538 3.29891
1.18367 -0.77858 3.09417
-0.889545 -0.416624 3.14957
0.464915 -1.29345 3.52417
1.12176 0.417404 2.90398
1.30506 -0.731269 3.00407
1.09998 0.0574815 2.85077
-1.10675 -0.38178 3.14506
0.525675 1.13873 2.87085
-0.118761 0.80102 2.97003
0.369331 0.378535 2.91282
1.17033 -1.21049 3.39902
-0.0292454 0.0223483 2.94699
0.927253 1.07957 2.79687
-0.504524 -0.33495 3.05849
-0.596971 0.770946 3.01447
-1.36559 -0.73427 3.20378
-0.734809 -0.70216 3.24162
-0.674245 0.84956 2.87743
0.0674733 -0.293244 3.07442
1.41119 1.11019 2.63435
-1.41057 0.136623 3.05333
-1.43441 -1.11203 3.27296
-1.16457 0.484842 2.89083
0.644521 -0.657719 3.19349
1.49576 0.744455 2.65414
1.66807 -0.245555 2.90374
-1.12009 0.109804 3.10676
-0.437402 -1.62565 3.55061
-0.720068 0.463935 2.95752
0.251345 -1.18645 3.62935
-0.744816 0.747287 1.84386
0.346571 -0.378748 3.1003
1.37358 -0.731126 3.01409
1.36111 -1.22927 3.3431
-0.536406 0.74684 1.94306
-0.760078 0.750006 2.92905
1.28125 0.374303 2.87238
0.22896 0.0223991 2.97565
-1.52329 -1.15224 3.26017
-1.05574 0.105303 3.0524
-0.555623 0.464133 2.95211
-0.850123 -0.759716 3.30778
1.66403 0.720419 2.576
0.0615073 -0.336032 3.0614
-0.286749 0.797094 1.9634
1.27207 0.0573267 2.84508
1.80939 0.406474 2.81011
0.53978 -1.2014 3.53352
0.373976 0.805289 2.98557
0.441729 -0.693106 3.18931
1.00806 1.13597 2.86217
0.132725 -0.291305 3.05793
0.782216 -1.09861 3.36252
1.6639 0.468603 2.6336
1.27045 -1.7513 3.81431
0.725492 0.17161 2.95841
-1.10131 -0.255091 3.11437
-0.751605 -1.59479 3.38606
0.834836 -0.647039 3.13936
-0.870407 0.649451 2.12404
-0.585451 -1.06489 3.39244
-0.0665741 0.130377 2.96172
-0.991963 -1.48936 3.38191
-0.385995 0.4965 2.9589
0.987248 -0.206426 2.95723
-0.706057 0.782242 1.85861
0.0968947 -0.62007 3.20823
-1.22551 -0.589811 3.25074
0.460798 0.879199 2.989
-0.80004 0.66911 2.00073
-1.46778 -0.167418 3.0931
1.23937 -1.54377 3.59894
1.38172 0.238927 2.85034
-0.492629 -1.00358 3.34651
0.0980976 0.603899 2.99187
1.08347 -0.504803 2.96094
0.493571 0.954096 2.96046
-0.674323 -0.128889 3.03024
-0.244357 -1.44903 3.48614
-1.00497 -0.938957 3.26236
0.92622 0.213121 2.94729
0.516786 0.550991 2.90364
-0.446627 0.754419 1.89223
1.17411 0.765038 2.8122
1.06445 -0.355693 2.95669
-1.50921 -1.19271 3.29054
-0.813529 0.439395 2.98393
-0.0177021 -0.771292 3.23711
0.743764 0.0672648 2.93672
0.202822 -0.326776 3.08158
-0.190122 0.780185 3.01298
0.773866 -0.717062 3.18578
0.65817 1.12722 2.90192
-0.0634762 0.0307503 2.95448
-0.000575161 -1.20525 3.42942
1.60038 0.364424 2.72196
1.06679 -0.270156 2.9233
1.15862 -0.653793 3.0291
0.41531 -1.19833 3.56153
1.34975 -1.70191 3.63895
0.139438 1.184 2.87715
-0.178308 0.86592 3.05118
-0.509949 0.469629 2.93323
-0.159687 0.105156 2.98712
1.10429 -1.65183 3.62961
1.67494 0.167714 2.80552
1.15052 -1.07972 3.34795
-0.3297 0.551885 3.01876
-0.943075 -0.640888 3.18186
1.14658 0.864514 2.79262
1.35874 -0.222777 2.84323
-1.34423 0.147619 3.05853
-0.616215 -1.50988 3.44301
0.817585 -1.01704 3.27525
1.27291 0.495232 2.86591
0.345914 -0.596004 3.13366
-0.0451624 0.91048 3.05976
-0.0239126 -0.200291 3.05073
1.75892 -0.898849 3.02171
1.78614 -1.9333 4.00431
1.15836 -1.61473 3.78645
-0.0342233 0.263041 2.93219
-0.0440549 0.660722 3.21301
0.662894 -0.155837 2.99959
0.767853 0.976987 2.87722
-0.653712 -0.582512 3.28663
-1.41209 -0.913912 3.21915
1.48905 0.528089 2.72262
0.761755 1.19722 2.82792
-1.24987 -1.3271 3.21554
-0.440255 -0.114752 3.02333
1.47384 0.215418 2.85778
0.751041 -0.517138 3.12097
0.785771 0.943195 2.9027
0.083772 -0.646939 3.20329
-1.03671 -0.241665 3.12903
1.48194 0.812693 2.62484
-1.27385 -1.42727 3.15423
0.901337 0.537645 2.93207
1.15678 -1.04554 3.24366
-1.19199 -0.198784 3.0856
1.72243 0.163525 2.74575
1.68355 -0.538916 2.81379
0.149952 0.887628 2.97469
0.927254 -1.00906 3.25773
-1.1826 0.144147 2.94784
-0.485677 -1.51605 3.45741
1.69195 0.480959 2.77919
0.705168 -0.155585 3.00206
1.06747 1.16367 2.74658
-0.0293564 -0.56175 3.1589
1.66285 0.535977 2.75981
-0.376703 -1.00828 3.39988
-0.0922247 0.982959 3.02002
1.26126 -1.60651 3.76739
1.72834 0.205833 2.75282
1.01873 -1.44088 3.4835
1.13588 0.633012 2.90273
0.427687 -0.941982 3.31188
1.35021 0.281242 2.83449
0.266909 -0.51577 3.13264
-0.173015 -0.113878 3.02934
0.382874 1.04464 2.96554
0.125999 0.261045 2.91751
0.604343 -0.904224 3.31013
1.16371 0.58406 2.85431
1.06978 -1.40117 3.49348
1.02095 0.95337 2.80518
1.22588 -0.0707057 2.8117
1.31098 -0.448061 2.90761
0.261989 -0.860554 3.2936
-0.518778 0.744199 3.02358
0.543993 -1.39427 3.58415
0.0094978 1.09936 2.91606
0.761907 -0.0398764 2.94038
0.772458 -0.00589416 2.95778
-1.1943 -0.445292 3.17875
0.880005 0.359501 2.93915
1.61873 -0.360268 2.78141
-1.37809 0.325444 2.95922
-1.00437 -1.29133 3.43986
0.722469 1.04449 2.86562
-0.354082 -0.836209 3.37598
0.0612324 0.730409 3.1445
0.637218 -0.112651 3.0019
1.57268 0.915401 2.59734
0.462265 -0.526233 3.19756
1.47523 0.587537 2.69717
0.702691 -0.939046 3.2978
1.04482 -1.42642 3.45414
1.76424 0.279643 2.81885
-0.613959 -0.0734833 3.04794
1.44514 -0.437383 2.84059
1.57177 0.870108 2.56323
0.567405 -1.79185 3.72714
-0.962487 -0.899815 3.31253
-1.34132 -1.29966 3.25671
0.523407 0.255252 2.84135
1.41426 0.559033 2.73296
-1.33964 0.333468 3.02318
0.104452 0.694205 2.98858
-0.138569 0.900674 2.45087
-0.826744 -1.29139 3.32993
0.563793 -0.873306 3.33993
-0.127373 -0.441408 3.13839
1.30304 -0.0386127 2.84585
-1.33453 -1.23292 3.29406
-1.34219 0.39804 2.93293
0.0991874 -0.814115 3.28159
0.367747 0.0303262 2.97293
1.68219 -0.352421 2.71083
0.737289 1.11066 2.85828
-0.325764 0.770072 2.96005
1.04219 -0.743797 3.11437
1.71782 -0.00352498 3.13687
-0.123684 -1.34411 3.70225
-0.429273 -0.376798 3.18443
1.71234 0.330124 2.7202
0.404015 0.74953 3.04082
0.568635 1.1017 2.91965
0.157699 0.855994 3.00781
-1.15224 -1.1417 3.25838
0.277827 1.21504 2.9478
1.04188 0.103786 2.89489
0.600207 -0.321969 3.03391
1.38028 0.454472 2.83384
-0.0670049 -0.728094 3.25243
-1.02402 -0.698262 3.25735
-1.05984 0.4242 2.85253
-0.173984 -0.278301 3.04056
0.904694 0.070555 2.93707
-0.844241 -1.60262 3.44472
0.0457491 1.14246 2.84651
0.565753 -1.18453 3.52183
1.56388 0.715076 2.62855
0.0631941 1.1399 2.92634
-1.33156 -0.406539 3.17624
1.51999 0.685051 2.63066
0.324076 -0.829351 3.34539
-1.01685 0.394758 2.90599
-1.17747 -1.20941 3.23187
1.51576 0.028376 2.91215
0.307974 -0.3699 3.09929
1.53437 0.660582 2.67373
-0.539828 0.732713 1.94922
-0.926991 -0.78435 3.29938
-1.38763 0.370538 3.00213
0.434987 -1.28539 3.53895
-1.42728 0.00016425 3.07337
1.28774 0.0665697 2.81815
0.908613 0.441565 2.95593
1.67164 0.720545 2.65367
0.924649 1.11652 2.78094
-0.0409681 -1.21526 3.46457
0.0107966 -0.72118 3.21576
-1.36376 -0.330394 3.15361
-0.824763 0.524654 3.03141
-0.0411557 -1.69697 3.64712
-0.653775 0.141785 2.95242
0.676468 -1.15554 3.43408
-0.549977 0.778341 1.84541
0.625933 -0.682338 3.18013
0.646997 0.884414 2.96561
-0.0579643 -1.72085 3.5955
-0.0249788 -0.277902 3.04155
1.25684 -1.04173 3.22812
0.882436 -1.74583 3.83963
-1.48106 0.120073 3.2223
-0.680721 -0.238415 3.07293
0.659179 0.47275 2.93645
1.25481 -0.613212 3.02726
-0.870562 0.820324 2.86556
-1.19068 -0.626471 3.30909
-0.889246 -1.0431 3.37795
-0.180629 -0.196643 3.04482
-0.41837 -1.4936 3.40398
-1.41107 0.228334 2.98102
1.31099 0.887054 2.72046
-0.92002 0.625521 3.21002
0.326282 1.20545 2.92618
0.757704 -0.553148 3.1081
-0.767799 0.670517 2.16313
1.46611 -0.14623 2.80255
1.74719 -1.5755 3.69298
-1.29659 0.184515 3.04406
0.451357 -1.01708 3.42286
0.943449 0.534183 2.91337
0.164116 -0.277849 3.04086
1.25935 -0.649586 3.02122
-0.108993 -1.14952 3.42949
0.879171 -1.72129 3.68646
1.01299 1.13064 2.74365
-0.585813 0.836886 2.92956
-0.320651 0.486752 3.0017
-1.3827 0.114422 3.07823
1.18228 -1.7197 3.78445
-0.191982 0.179519 2.96005
-0.603173 -1.07305 3.34783
1.65225 0.51621 2.80705
1.31827 -0.58512 2.8868
-0.665245 0.643281 2.07408
0.299379 -0.232348 3.0278
1.66779 0.134882 2.80249
-0.0764561 -1.58767 3.61988
1.5144 -0.943542 3.05162
-0.600887 0.51803 2.98559
0.507612 -0.609631 3.21921
1.41608 -0.178351 2.74807
1.08379 0.849319 2.84698
-1.10005 -0.975236 3.29908
0.912203 0.601555 2.93023
-1.75037 -1.50448 3.52941
1.48818 0.258038 2.88501
0.658023 1.21115 2.85479
-0.665702 -0.154501 3.01617
1.23452 0.94169 2.76553
-1.34828 -0.566666 3.21825
0.83361 -0.934139 3.27875
0.481273 0.569805 2.92746
-2.22595 -1.91432 4.6175
0.79299 -0.111131 2.95148
-1.13229 0.231543 3.04076
0.493802 -0.519835 3.16166
-0.411288 0.684393 2.10381
1.59534 -0.444866 2.88935
0.451809 0.687985 2.96351
-0.417565 -0.0723167 2.98659
0.368158 1.08428 2.9633
-0.996371 -1.38031 3.45742
-0.299446 -0.909696 3.35276
-0.0275059 -0.442891 3.15471
-0.840437 0.322069 2.9439
-0.181129 -0.0379352 3.01054
-0.707714 0.69414 1.97161
-0.756602 -1.34371 3.46769
-1.33398 0.302502 3.00788
1.01806 -0.86054 3.29003
-1.27003 0.625254 2.86782
-0.176468 -0.155138 3.03044
0.322207 -1.73378 3.61946
0.0343126 -0.560612 3.1698
-0.0981268 -0.990573 3.34866
-0.990546 -1.42801 3.36743
-0.335751 0.907763 2.75844
0.969324 0.568564 2.92225
-0.533621 0.224501 2.96069
-0.30838 -1.40958 3.42156
-1.11274 0.295745 2.95354
1.4913 -0.81935 2.86815
0.582816 -0.520438 3.16363
-0.511669 0.65968 3.01523
-1.16548 -0.115748 3.11294
-0.627369 -1.35569 3.39572
-0.519714 0.271969 3.00551
1.64908 -0.803078 2.93264
1.22433 0.581031 2.82744
-0.376657 -0.484573 3.18426
1.287 0.954407 2.80278
-0.271939 -0.0736537 3.02318
-0.113518 1.04831 2.97377
1.40409 -0.774183 2.96162
-1.26065 0.364955 2.97378
-0.634915 -1.30277 3.3636
-0.551912 -0.000760269 3.01633
1.17762 -0.0365055 2.86659
-0.362355 0.748027 1.9876
1.11434 -0.417642 2.96651
0.891499 -0.789183 3.18226
-0.38248 0.324163 2.95126
-0.0877483 -1.3082 3.49539
-0.0670167 0.730391 2.94348
1.25959 1.00641 2.74928
-1.22085 -0.407099 3.19336
-0.928276 0.680807 2.92146
-0.791739 0.724279 1.81225
0.918492 -0.35614 3.01611
-0.330356 0.81805 2.99959
0.945711 0.439874 2.94557
0.915756 -1.27188 3.49614
1.4583 0.0690334 2.90393
-0.555354 -0.775252 3.2632
-1.01872 0.780143 2.98842
0.0434994 -0.725143 3.23719
0.376572 -0.330728 3.15517
-0.9362 0.0364706 3.0351
1.15698 1.0635 2.72769
-0.34014 0.401028 2.94646
1.43894 -1.13915 3.24183
1.41637 -0.0356315 2.8499
1.4389 -0.400824 2.86421
1.32816 -0.768425 2.95874
-0.432984 0.706573 3.02925
-0.35873 -1.34292 3.46428
0.256564 1.08774 2.96395
-0.202419 0.32463 2.95367
1.4848 0.402551 2.95409
0.247618 -1.32843 3.54504
1.03251 0.0342809 2.91229
1.82298 -0.717526 2.88838
