ply
format ascii 1.0
element vertex 1836
property float x
property float y
property float z
end_header
0.0843583 1.14884 2.27794
0.65331 -1.18975 3.31847
-0.757528 -0.248506 3.02431
-0.688678 0.687041 1.96447
1.97047 -1.09272 3.37502
0.584457 0.498857 2.94131
0.613319 -0.221218 2.9457
-0.611208 0.759243 1.86665
2.05499 0.28547 2.89373
1.39161 0.491633 3.05455
-0.938001 -1.08457 3.51164
0.417535 1.33186 2.89797
-1.29305 -0.181898 3.12582
0.014165 -0.109054 0.6899
0.862051 -0.983219 3.22842
0.721502 0.552561 2.9238
-0.565539 -0.136868 3.07307
-0.409925 0.895206 1.91591
0.0795414 1.2239 2.7002
-1.07239 -0.982802 3.4637
0.754389 0.535121 2.94578
-0.958801 0.408416 2.94952
0.161036 1.5106 2.75288
0.208862 -1.30284 3.58045
0.352398 1.11279 2.90721
-0.19053 -0.375943 3.1013
0.760679 0.346823 2.92394
-0.627002 -1.16693 3.36451
-0.0763404 0.916668 2.37899
1.13225 -0.322014 2.90802
0.136758 1.27562 2.32274
-0.962377 -1.12543 3.36832
-1.22517 -0.302613 3.1612
-0.228345 -1.10675 3.39303
-0.0319509 0.452981 2.96002
-0.290218 -0.0220302 1.49888
-0.398413 0.771284 1.92177
-0.211082 0.969007 2.89461
0.489551 -0.545417 3.16806
0.288351 -1.5567 3.74612
-0.144453 0.269884 2.95851
0.0454907 0.539182 1.34517
1.50799 -0.461723 2.84325
0.329332 0.969103 3.02076
0.991672 -1.5359 3.76872
-0.801109 0.231671 2.98481
0.807176 -0.44662 3.05384
0.00894515 0.572697 1.30083
-0.360596 0.740499 2.01194
2.28627 0.13815 2.97532
0.972753 -1.41246 3.5548
0.145838 0.317464 2.89495
1.16681 -0.389013 2.87755
0.922503 0.969688 2.8161
0.383312 -1.32832 3.47687
1.81263 0.27603 2.7715
2.06649 0.600486 2.65346
2.00933 0.37252 2.76192
1.51751 0.147516 2.86828
1.08709 -1.76889 3.79556
1.40048 0.785281 2.64955
-0.00574341 -0.670892 3.23296
1.05465 -1.58009 3.56866
0.626993 0.104334 2.89093
-1.27778 -0.64144 3.31891
0.0393795 0.84568 3.02705
0.40736 -1.5178 3.52708
1.6616 0.6156 2.6424
-1.40148 -0.603882 3.3053
-0.879256 0.196622 3.03982
-0.293716 1.40985 2.92508
-0.54747 0.671654 2.15701
0.422187 -1.60848 3.61667
0.571133 0.174726 2.87786
2.09668 0.296625 2.75568
1.21363 0.844049 2.74477
-1.13676 -0.646782 3.28527
1.5848 0.132066 2.74244
1.26291 -1.66972 3.49696
1.19061 -1.58721 3.6474
1.25129 -0.56555 3.03919
-0.250837 0.859153 3.00693
0.347923 -1.48946 3.56896
-0.404846 0.982995 2.96066
1.69794 -0.501659 2.81355
1.49779 0.200498 2.78454
-0.286993 -1.41166 3.53474
2.26263 0.24428 2.75094
-0.691174 0.664553 2.0312
-0.364928 0.755705 3.02473
0.135302 -0.79971 3.24174
2.4043 -1.53734 4.44642
-0.89133 0.0443609 3.07497
0.844144 0.703398 2.8914
-0.234106 -0.779527 3.33661
-0.983246 -1.10319 3.40953
1.12329 -0.0030322 2.81779
0.542596 -0.717809 3.24746
0.085678 0.839914 3.04168
1.47267 0.102224 2.94294
-0.899855 0.775997 2.67336
-0.464498 0.804653 3.07368
1.54833 -0.608206 2.87675
1.79607 0.071234 2.8296
0.0319647 -1.65139 3.61087
1.9207 -0.0455564 2.65105
-0.219684 -0.945825 3.41654
-0.164915 0.910843 1.95835
-0.0172403 -0.10514 2.99785
-0.00891873 0.827615 3.736
0.25405 0.601091 2.94179
-0.337374 -0.889232 3.37897
1.41353 -0.0613012 2.84365
0.382594 -0.840061 3.31167
1.76801 1.04687 2.55561
-0.911227 -0.0279815 3.1016
1.81869 -0.748632 3.04921
1.80052 0.892385 2.53769
0.816222 0.664116 2.91368
1.17982 -0.242229 2.87581
-0.762138 -0.668329 3.26899
-0.732385 0.687928 1.97572
-0.439698 -1.18343 3.57535
1.47245 0.477294 2.77814
-0.688166 0.757374 1.8391
0.412408 -0.216192 3.05376
-1.03732 -1.02005 3.26772
-0.589629 0.486461 2.9901
-0.871143 -0.460195 3.16078
-0.704042 0.595859 3.18659
-0.654026 -0.187158 3.07086
-0.873048 0.225118 3.04006
1.44771 1.15463 2.59903
0.504231 -1.02412 3.37472
0.256647 -1.02013 3.51015
-0.467409 0.83472 1.89963
0.839755 -0.147329 2.94191
0.776081 0.524107 2.94809
0.305888 -1.7002 3.59639
0.764039 -1.63589 3.74938
0.104507 -0.062058 2.96283
-1.2583 -0.839177 3.17731
0.956413 0.660909 2.90975
1.47676 -0.752219 2.90274
-0.986417 0.235092 2.99431
-0.946124 -0.0285783 3.08275
1.69297 0.577801 2.67202
-1.07126 0.04377 3.01083
-0.488793 0.714141 1.98687
-0.943131 -0.790824 3.35021
0.203593 0.779495 3.0778
0.522464 0.00909941 2.96297
-1.4064 -0.757761 3.2587
-0.0979728 0.950685 2.03509
0.300493 0.744223 3.03419
-0.108816 -1.42504 3.54993
0.0113534 1.22462 2.80178
-0.0405252 0.539418 2.99903
0.872828 -0.185499 2.9874
-0.779527 0.169403 3.02089
-1.49506 -0.99237 3.26894
1.72522 0.758463 2.58501
1.05885 -0.145764 2.86008
-0.203444 -0.972023 3.36543
0.376636 0.596309 3.00378
1.92078 -0.550586 2.93079
-0.105109 -0.118365 3.06958
1.72604 0.511203 2.65194
0.387845 1.24047 2.90687
0.395244 -0.914251 3.26933
0.227289 0.429166 2.91483
0.373464 -1.29028 3.58468
-0.1585 -0.356815 3.10408
1.36446 1.03385 2.61016
-0.677483 -0.101577 2.15955
-0.890572 0.403001 2.94838
-0.487032 -1.22568 3.54737
0.57526 1.39964 2.86064
1.35117 1.00572 2.60142
-0.0389986 -0.30685 3.086
0.327296 1.48954 2.70041
-0.855197 -1.07911 3.34765
1.04288 0.489497 2.9155
0.596073 -0.276522 2.98713
-0.308641 0.798527 1.88363
-0.205559 1.13752 2.95333
-0.466302 0.48308 3.00793
-1.18067 -1.01658 3.30085
-0.839001 -0.236319 3.11963
0.400325 1.15342 2.85665
-0.798872 0.691624 1.95947
-2.09127 -0.767686 4.60077
1.12184 0.271477 2.81358
0.0827789 0.76343 1.54832
-1.14981 -0.469419 3.13971
-0.533933 0.695571 2.04281
-0.0131099 -1.44505 3.69449
1.07904 0.24748 2.88719
-0.252055 -1.22605 3.50424
-0.692958 -0.435859 3.22148
0.424528 1.0587 2.86288
2.43446 0.834369 2.8975
1.05435 -1.31463 3.38903
-1.33036 0.3759 3.00307
1.67164 -0.367046 2.77123
1.47741 0.932538 2.5934
-1.53469 -1.23503 3.33275
2.30202 1.02914 2.98031
0.797128 0.300951 2.92736
1.09139 -0.981507 3.31129
0.96226 0.588155 2.91341
-0.157919 -0.13973 3.05769
0.156462 -0.943154 3.33003
-0.500272 0.576157 3.03572
-0.849332 -0.108233 3.07097
0.587219 1.28662 2.86565
-0.918793 0.775648 2.79802
0.243527 0.673365 3.13118
-0.794299 -0.56916 3.21926
0.870578 -0.0892932 2.93285
-0.483368 0.806728 2.42395
-1.21793 -0.872987 3.3448
1.78481 -0.205954 2.76724
0.635382 1.36166 2.85769
1.32216 -0.280549 2.81801
0.498691 1.15631 2.88663
0.262168 -1.23595 3.57355
0.730427 0.472601 2.92561
0.811504 -0.260391 2.9913
-0.314733 0.784313 1.94953
-0.317517 0.441244 2.98511
-1.46691 -1.05409 3.19644
0.378338 -1.08096 3.4103
1.2543 0.505893 2.81876
1.77335 0.33516 2.80548
1.78956 -0.216226 2.76648
-0.568366 0.853002 1.88067
0.139544 1.41607 2.66845
-1.42098 -0.965616 3.21573
-0.913704 0.512405 2.96231
-0.492841 -0.175353 3.05274
-0.413423 0.899507 2.65593
-0.676912 -0.101997 2.15947
-1.27258 -1.25058 3.31785
-0.96134 0.0383446 3.09987
-0.824944 -0.4321 3.18526
-0.789813 -1.25765 3.46655
0.699523 0.305754 2.90864
0.244519 1.3857 2.79563
-0.400807 0.731203 1.99746
0.136379 1.10396 2.90201
1.82486 -0.362825 2.84675
2.51539 -0.942174 3.15643
0.703686 0.382842 2.90872
1.54376 0.943774 2.47698
-1.06224 -0.358512 3.23832
1.14473 0.344323 2.86948
1.66514 -1.12756 3.11728
0.464509 -0.588319 3.16945
0.887041 0.918099 2.88402
2.18929 0.345361 2.62241
-0.181056 -1.46342 3.37539
-0.401874 0.225308 3.03623
0.446544 -0.543589 3.15789
0.223527 0.895414 2.97808
-0.0960856 0.461409 1.42334
1.33457 -1.50851 3.57809
0.587744 0.17538 2.86509
-0.515998 -1.46085 3.65783
0.320684 0.288322 2.91237
2.15312 0.265378 2.64451
1.54442 0.905618 2.60096
-0.499019 -0.494566 3.12142
-0.804516 -1.32339 3.43592
0.942566 0.259562 2.89378
0.362673 -0.461358 3.0846
0.426433 1.00173 2.97176
2.30874 0.544626 2.68843
1.04425 -1.316 3.50179
-0.482637 0.397366 2.97936
1.36935 -0.361241 2.86215
-0.483812 0.751168 1.93168
-0.329123 -1.23863 3.49743
-0.929901 0.362805 2.94105
0.706921 1.05568 2.84607
0.1877 -0.351249 3.05505
0.116839 1.44739 2.67305
-0.710766 0.726115 1.81526
-0.955603 0.0294125 3.09134
1.40006 -1.11094 3.18064
-0.542808 -0.31481 3.09386
-0.598898 -0.980745 3.46081
-0.417011 0.441809 2.97383
0.0151655 0.971122 2.95346
0.830711 -0.526889 3.08809
-1.30299 0.281076 3.02212
-0.85835 -1.44419 3.52778
1.89904 0.417632 2.64712
-0.798429 -0.485423 3.07797
0.126562 0.974148 3.03173
2.67567 -2.00378 3.66098
-1.2536 -1.33489 3.37454
-1.20164 0.232711 2.97583
-0.718006 -0.478525 3.23014
1.73268 0.292616 2.76057
-1.22386 -1.29099 3.36285
-0.617105 0.695417 1.95001
1.96008 0.0658369 3.02127
-0.578082 -1.29314 3.43615
-1.03526 0.305048 3.00146
-0.27901 0.749125 2.11718
1.94639 0.493153 2.6396
0.970696 -0.410703 3.01704
1.24262 -1.657 3.56793
1.31222 0.134042 2.80102
-0.131147 -0.675105 3.25629
-0.690388 -1.55283 3.25848
0.589966 0.860238 2.94485
0.794913 0.103153 2.91239
-0.929195 -1.50556 3.40404
1.0797 -0.605036 3.03898
0.359613 0.833814 3.00506
2.02935 0.473667 2.61956
-0.634492 1.13515 2.85884
1.50396 0.79567 2.58911
-0.615592 0.180771 3.00078
-0.316993 1.41548 2.94107
-1.39685 -0.591242 3.20202
-2.30699 -2.44226 5.48962
0.612592 -0.0317681 2.93173
-0.333658 0.772718 3.18428
-1.03924 0.111264 3.04406
-1.34986 -0.809769 3.19532
-0.729024 0.00593463 3.0428
2.14383 1.00579 3.04584
-1.00256 0.681248 2.9059
0.522015 -0.794122 3.23164
0.378159 0.0799336 2.92995
0.243817 -0.756014 3.27561
0.70279 0.782538 2.93767
0.0454329 1.32001 2.85232
1.21507 0.0227766 2.80081
0.867557 0.7452 2.91384
0.841791 -0.691019 3.15638
-0.233683 1.00447 2.74478
-0.317803 0.737188 2.99134
0.101909 -0.804104 3.27613
0.360103 0.0300554 2.95966
-0.279432 0.568599 1.83388
0.409573 0.726591 3.03898
-1.11805 -1.03136 3.33893
1.04072 -0.734656 3.09687
1.69933 -0.009266 3.11561
-0.0508928 -0.710629 3.26825
1.02652 0.0865696 2.84149
0.165562 0.825311 3.02215
1.37875 0.194669 2.01439
1.55541 0.694801 2.61812
-0.844097 -1.59814 3.44969
1.85733 -0.283223 2.73782
0.894461 0.0587127 2.90739
-0.99668 -0.685964 3.31314
1.48068 0.570656 2.66158
0.713824 -0.93098 3.27734
0.62924 -0.115685 2.97521
0.569056 -1.77389 3.73311
-0.940773 -0.886402 3.36133
1.3968 0.543734 2.70032
-0.592372 -0.0774158 3.0552
1.76975 -1.05583 2.99638
1.20424 1.24161 2.72863
0.100466 0.678148 2.99987
0.257664 1.63302 2.79039
1.28644 -0.0477828 2.81018
-0.97316 -1.35311 3.41087
0.573458 -0.859014 3.32633
-0.0325724 -0.255968 3.05913
-0.56364 0.777648 1.84839
0.687032 -1.13997 3.42186
-0.819362 0.521573 3.05848
0.582134 -1.75518 3.65471
-0.662742 -0.23814 3.09813
0.306831 1.17224 2.92379
0.654851 0.461652 2.90891
1.24616 -1.03052 3.20654
1.89157 -1.8595 3.41975
-0.914603 0.624577 3.23344
-0.180484 -0.193744 3.04664
1.27913 1.20423 2.69268
-0.855185 -1.0302 3.42976
-0.0142969 -0.0959905 0.798338
0.46394 -1.00622 3.41886
0.926566 0.525736 2.88775
1.45424 -0.146767 2.78471
0.000739425 1.23032 2.72951
-0.178555 1.14972 2.96055
-1.16069 -1.1756 3.26927
-1.00723 0.395383 2.91775
-1.3304 -0.39815 3.1872
0.0565668 1.10991 2.92321
0.432951 -1.27247 3.53061
-1.38763 0.370538 3.00213
-1.1045 -0.216036 3.12058
-0.54373 0.734232 1.95064
0.3052 -0.363412 3.07809
0.904449 1.0866 2.76238
0.0716967 0.615939 1.32756
0.905062 0.429565 2.92202
-1.35598 -0.326762 3.16853
0.0337631 1.13528 2.41431
-0.0412679 -1.19382 3.46966
1.35004 -0.217007 2.81907
-0.483744 0.824693 1.89043
1.89299 0.303815 2.82501
1.15765 -1.07178 3.32751
-0.325547 0.539432 3.03959
-0.0185802 -0.19123 3.05592
0.740488 1.16907 2.81098
1.14993 1.24295 2.72779
0.819784 -1.01032 3.25614
1.26284 0.470553 2.83023
0.808636 0.155309 2.89059
0.653743 -0.150264 2.97846
0.34102 1.40643 2.84718
1.75892 -0.898849 3.02171
-0.0440549 0.660722 3.21301
-0.439777 -0.104576 3.02673
0.492674 1.30147 2.8753
0.573103 -1.53216 3.61003
-1.4067 -0.903221 3.23041
1.47452 0.515538 2.70155
-1.50475 -1.18762 3.29819
-0.80847 0.438791 3.01068
-0.0740264 -0.0340229 1.01377
1.06075 -0.342993 2.93095
-0.472112 0.747648 1.89724
0.00787605 -1.18878 3.42829
1.60572 0.351739 2.68143
0.653967 1.09501 2.8991
0.206511 -0.320358 3.05753
0.0664792 1.39647 2.49519
0.412858 -1.18655 3.5528
1.05203 -0.258502 2.89212
-0.495801 0.462558 2.95883
0.10044 1.31632 2.64882
0.136356 1.14164 2.87625
0.383366 1.02043 2.98112
0.266987 -0.501219 3.12119
1.33731 0.25992 2.79997
1.01175 -1.42341 3.46817
-1.12169 -0.616011 3.31003
0.0149559 0.610138 1.52841
1.30989 -0.441184 2.88752
1.01245 0.935496 2.78415
1.07293 -1.38777 3.48234
0.126205 0.254529 2.90926
-1.18319 -0.438917 3.20612
0.870927 0.340758 2.92167
0.535205 -1.37772 3.57944
0.0131068 1.06819 2.90909
2.09501 0.451336 2.63018
-0.996521 -1.26538 3.48144
0.707164 1.00782 2.85231
2.17639 -0.11239 3.19496
1.61441 -0.359816 2.76767
-1.37809 0.325444 2.95922
1.72243 0.163525 2.74575
-1.27042 -1.42184 3.16121
1.4715 0.786262 2.60278
0.0813992 -0.638092 3.19494
-0.486912 -1.49098 3.47915
-1.17535 0.145745 2.95695
1.68669 -0.539097 2.79753
2.13229 0.209407 2.89431
0.156161 0.859405 2.98842
1.24633 -1.59347 3.74806
0.702637 -1.46552 3.57293
-0.0864322 0.94469 3.02042
-0.0197357 -0.553541 3.16012
1.73175 0.202174 2.74677
2.10397 0.336225 2.64591
1.47581 0.431213 2.70834
0.326267 1.34569 2.89568
1.00853 -0.307562 2.93412
-0.638768 0.757717 1.86741
1.52744 -1.14786 3.26026
0.227662 -1.15223 3.49981
-0.20215 0.785191 1.96111
0.921154 -0.259914 2.98881
1.74264 0.453195 2.70006
-1.03093 0.454822 3.04756
-0.256894 -1.05919 3.35604
-0.883192 0.563884 3.08191
1.38657 -0.216428 2.83072
0.0974073 1.36034 2.62329
-0.567785 0.835244 1.87882
-0.529491 0.502585 2.98647
-0.0837154 -0.0325549 1.02671
-0.489941 -1.08907 3.56818
1.07695 1.13435 2.69648
1.76145 -0.202381 2.83688
-0.354539 -1.31898 3.49879
0.251708 1.05881 2.97427
1.43158 -0.392927 2.84691
0.070856 0.610833 1.40337
-0.193626 0.322908 2.98262
0.196786 1.48422 2.64501
1.23266 1.05099 2.7373
0.0485525 -0.377757 3.09852
1.46668 0.390885 2.92908
0.25501 -1.31441 3.54024
1.40732 0.979301 2.62125
1.24878 -0.343046 2.85926
0.057259 0.933164 1.87593
-0.986813 0.36266 2.96189
-0.866822 -1.1946 3.40977
-0.9402 -0.577934 3.15033
2.07576 0.4231 2.63677
-0.0837292 0.216812 2.95351
-1.00141 -1.42265 3.30924
1.26207 0.875916 2.74564
-0.308253 0.914651 3.0525
1.0125 -1.58471 3.746
2.44059 1.08278 2.91808
1.72154 0.161815 2.75348
0.348844 -0.539474 3.13845
-0.601513 -1.63086 3.42236
-0.143466 0.29362 2.95861
0.929303 -1.5773 3.82163
2.43923 1.10903 2.8632
1.04316 -0.469948 2.93571
-0.0709268 1.02081 2.99445
2.32817 0.619669 2.75649
0.541235 -1.48487 3.74118
-0.307689 0.264983 2.98146
-0.201877 -0.466735 3.15384
-0.728359 0.676287 1.98476
-0.0115034 0.785541 2.97484
-0.673398 0.0689439 3.02535
-0.989544 -0.576736 3.2997
-0.681016 -0.7432 3.38516
-0.112716 1.35311 2.90413
-0.822781 0.668905 2.25702
0.458949 -0.658921 3.14719
-0.545902 0.13705 2.97578
0.393278 -1.64246 3.55727
-0.904954 -0.667709 3.40361
1.32447 0.758076 2.70048
-0.508302 -1.55867 3.50559
0.47991 0.100424 2.89571
1.2049 0.916852 2.75288
-1.34141 -0.561384 3.2301
2.18857 0.964096 3.04347
1.91926 -0.487557 2.79787
-1.75037 -1.50448 3.52941
1.47645 0.249554 2.86079
0.490992 -0.516245 3.14442
-0.413754 0.684936 2.10552
0.0875241 0.695948 1.45821
-2.22352 -1.91726 4.62604
-1.12509 0.233411 3.05333
-0.836245 0.320761 2.96648
-0.998941 -1.37561 3.46272
0.370811 1.06469 2.97275
2.32476 0.964036 2.93273
1.59012 -0.43788 2.87652
-0.755642 -1.31873 3.50478
-1.32937 0.309546 3.01652
-0.707714 0.69414 1.97161
-0.0188272 -0.434936 3.16343
2.1022 0.356075 2.62912
0.876392 -1.69812 3.68166
1.25362 -0.634387 2.99233
0.782089 -1.69415 3.64863
-1.37872 0.118659 3.08407
-0.566742 0.821726 2.95681
2.21513 0.273475 2.63975
1.28314 1.02835 2.7134
1.30806 -0.576784 2.86009
-0.665245 0.643281 2.07408
1.18228 -1.7197 3.78445
-0.19224 0.19144 2.98077
0.510166 -0.599131 3.21129
1.06689 0.82311 2.81669
1.66839 0.127731 2.78087
-0.0800245 -1.56893 3.63691
-0.0595322 0.704173 2.96701
1.16352 -0.0365833 2.82549
0.0867054 1.28038 2.76926
-0.543473 0.00375485 3.03565
1.40334 -0.757574 2.93384
-0.915681 0.674446 2.93904
2.26489 0.937399 3.2062
0.88497 -0.778628 3.15886
1.43776 0.0553347 2.88464
-0.54747 -0.769532 3.30272
-0.315402 0.793886 3.02702
0.795491 -1.54642 3.72899
-0.935249 0.041765 3.06704
-1.10638 0.229346 3.03104
-1.00851 0.775297 2.99947
0.0525486 -0.716003 3.23538
1.83254 -0.157724 2.88138
-0.0928363 -0.971156 3.36473
0.314537 -1.72296 3.62573
-0.179262 -0.145674 3.03628
0.0701305 1.2372 2.78096
0.959947 0.553877 2.89694
0.258647 1.31719 2.90698
1.82176 0.885538 2.54455
-1.16353 -0.109106 3.12657
-0.499083 0.64664 3.05026
1.49299 -0.821769 2.84845
-0.294987 -1.08976 3.47299
-0.26682 -0.0744884 3.03817
1.64403 -0.803851 2.90953
1.20622 0.560174 2.8071
-1.25618 -0.910625 3.26698
-1.30577 -0.114594 3.10074
1.78901 0.515796 2.65449
0.212006 0.584663 2.93059
-0.650363 0.703271 2.20442
0.598666 -0.0732003 2.94527
0.511111 1.27873 2.88226
-0.596906 0.679688 3.07466
0.270213 -0.904427 3.31533
2.03281 0.216724 2.83134
-1.26544 -0.0421404 3.08051
1.04348 -0.850893 3.27926
0.601283 0.628862 2.98705
-1.28927 -0.287711 3.19929
-0.745702 0.752392 1.79274
-0.720501 -1.11883 3.42454
-0.279165 0.494737 2.97301
0.517236 -1.77518 3.62302
-0.196252 -0.23146 3.08118
0.432674 1.15776 2.89565
1.56063 -2.05977 3.43969
-3.40985 1.10839 7.05097
0.597475 -1.09512 3.38685
-0.774323 -1.05643 3.48412
0.994528 0.546543 2.9076
0.66769 -0.199092 2.96052
-0.854701 0.227351 3.03533
-0.32226 0.800773 2.09879
0.0706013 0.532122 2.96366
1.14899 -0.982427 3.2946
0.517839 1.37032 2.88042
-0.30506 0.898205 1.93697
-0.743951 -0.152394 3.0663
0.859413 -1.37025 3.6767
-0.985182 -0.392723 3.15349
-0.272806 -1.1278 3.49254
-0.055954 0.358078 2.96486
0.0471884 1.35724 2.64194
-0.762932 0.706307 1.89747
1.74708 -0.350739 2.74664
1.61288 1.00729 2.53237
2.50311 0.700273 2.7952
1.55482 0.366956 2.51135
-1.06231 -1.09054 3.10158
-0.671716 0.733013 1.92055
0.415597 -0.318878 3.07903
-0.245278 0.378534 2.93206
0.495548 -1.28859 3.68875
0.157005 -0.556546 3.1494
2.33047 -0.149624 3.03419
-0.224188 0.250842 2.97183
-0.736645 -1.45796 3.52486
1.67921 0.853867 2.54614
1.3752 0.84321 2.64732
-0.92822 -1.39539 3.48539
0.28574 1.38163 2.90145
-0.0364842 0.221317 2.93822
0.885754 -0.507557 3.04308
-0.685478 -1.35064 3.46463
-0.794763 0.32562 3.00606
1.13723 -0.432554 2.89114
0.67877 1.01617 2.86446
2.28079 0.630687 2.7609
-0.138698 -1.35979 3.56181
0.10045 0.276226 2.89597
2.38332 0.898159 2.93454
-0.730686 -0.43581 3.13499
0.616125 0.997793 2.89351
-1.3923 -1.14101 3.16723
0.0719395 0.423302 2.92004
1.16221 -0.350049 2.88074
-0.784899 0.730852 1.8483
0.595979 -1.23639 3.52263
0.280145 0.368244 2.89166
-1.06981 -0.130854 2.95957
-0.827717 0.716452 1.85854
1.08371 -0.312219 2.88119
0.193089 1.17574 2.94053
0.0795434 1.31176 2.44144
1.34698 0.437478 2.80458
-0.45653 -0.294771 3.07518
-0.996196 -0.0125981 3.10599
-0.652718 -1.11454 3.39485
0.385967 -1.43306 3.54809
1.33489 -0.470837 2.84925
-0.491105 0.701573 2.02319
1.22294 0.278481 2.85752
0.54053 -1.51092 3.66667
-1.38019 -0.494313 3.24437
0.628585 0.97392 2.921
0.0596662 0.941967 1.95725
-0.952135 -1.38858 3.56705
0.666362 0.234774 2.91395
-0.600584 0.34534 2.96428
1.3889 -1.32176 3.3629
0.0516296 1.06298 2.91057
2.3384 0.24636 2.74557
-0.630914 -0.449787 3.16115
0.633979 0.292616 2.90947
0.441025 -1.30398 3.48767
-0.79603 0.684459 1.88429
0.575224 -0.392187 3.04953
1.0897 -1.68169 3.62404
-0.0694101 -1.58 3.53295
-0.514378 0.169637 2.97807
-1.44068 -0.614741 3.04716
0.778662 0.870808 2.86813
0.863374 0.121866 2.90255
-0.80886 -1.44977 3.35503
0.374582 -1.74562 3.63813
-0.544673 -0.574644 3.10419
0.350817 0.861375 2.9781
2.00453 -0.785079 3.27436
0.658254 -1.62732 3.62368
-0.45206 0.678813 2.10565
1.30885 0.201439 2.80319
1.80932 0.32019 2.8265
1.26755 -0.528654 2.92959
0.78132 -1.71833 4.0414
1.31878 0.68272 2.72746
2.23188 -0.187003 3.59043
-0.266766 0.0304301 3.01125
0.417152 -0.817238 3.3122
-0.241416 0.734127 3.09417
-0.075949 1.09504 2.95586
0.71814 -0.00873792 2.93536
-0.796976 -0.798116 3.44644
0.912066 0.100775 2.89594
1.67685 -0.768059 2.55868
1.04248 -0.675542 3.04784
-0.0997185 0.832127 3.05689
-0.240649 0.0644691 3.0315
-0.807357 -1.60305 3.44705
1.84011 -0.507357 2.75586
1.64299 0.698164 2.66214
-0.91893 -0.694815 3.31253
-0.196368 0.768722 2.10857
-0.548697 0.32257 3.01819
-0.935795 0.0182341 3.08657
0.475677 -0.425179 3.05742
0.102176 1.24749 2.43893
-1.05064 -1.25213 3.29652
0.982275 -0.377139 2.99739
-0.346634 0.766223 1.98102
1.3338 -1.22928 3.26684
0.594042 0.378748 2.93682
0.71218 -0.360322 3.02525
1.44445 0.975505 2.63061
1.4818 -1.22522 3.36391
0.516067 0.334802 2.85804
2.50831 0.310539 2.64993
0.78843 -1.71313 3.91551
1.17323 0.207953 2.81178
2.24552 0.158826 2.98495
0.173527 -0.594566 3.17575
-0.362012 0.918267 2.7804
-0.177478 -1.50669 3.62968
0.951132 0.159815 2.85074
2.34288 -0.0832135 2.99554
1.57859 -0.487597 2.77414
1.06892 0.853285 2.82554
1.41567 -1.4119 3.38965
1.3977 0.27709 2.79533
2.17494 0.288167 2.6412
0.66273 -0.508952 3.12221
-0.33161 0.726409 2.06491
-1.45773 -1.23005 3.06677
-1.37964 0.282463 3.08954
-0.012607 1.32289 2.89441
-0.74203 -0.47839 3.17565
0.380767 0.980647 2.97288
0.131405 0.792883 3.04389
-2.48476 -1.26761 5.22427
-0.100307 1.32773 2.89586
0.454822 0.0580284 2.91469
-0.513952 0.767913 3.03684
-0.29214 -0.719276 3.22136
-0.672379 -0.992737 3.56958
-0.151787 0.031757 3.00209
1.06274 -0.650049 3.04274
-0.499786 0.799854 2.76914
-0.0872168 -1.69275 3.63665
1.71864 0.124879 2.75247
1.83926 -0.316107 2.72225
1.55612 -0.581137 2.86009
-0.501827 0.819167 3.00729
-0.439861 0.0971074 3.00709
0.695348 -1.74145 3.88721
0.714929 -1.58855 3.76076
0.406554 -0.878182 3.26172
-0.998346 0.78664 2.84642
-0.829224 0.704887 3.05935
-0.840897 -0.0632147 3.07532
0.0473357 -0.841179 3.28128
0.55805 0.626979 2.94493
-0.554535 -0.0396893 3.06299
1.26693 -1.7894 3.71101
-2.15819 -1.1022 4.39083
-0.283758 0.883733 2.43393
-0.30451 0.952959 2.74774
0.145085 -0.00377636 2.94143
-1.13198 0.724386 2.94486
-3.14285 -3.24878 6.92852
1.07438 0.76987 2.79811
1.46025 -0.62215 2.92664
-1.18674 0.118998 3.13699
-0.101769 -1.69848 3.5255
0.610093 -1.4778 3.57515
2.18235 0.319718 2.63301
1.22076 0.814007 2.72025
-0.17467 -0.642377 3.25751
-0.0575037 0.181227 2.95746
-0.879473 -1.52634 3.42641
1.21 -0.574908 3.01389
1.41166 0.754577 2.60912
0.194381 -1.5327 3.5217
-0.215924 0.136876 2.99339
-0.216828 1.15673 2.95841
0.306192 -0.0322305 2.95671
-0.218409 -0.00573272 3.04197
0.0131893 1.16865 2.86455
1.43583 -0.768214 2.91181
0.139304 0.722588 3.03261
2.30427 -1.51455 4.22746
1.15753 -0.76816 3.11138
-1.16223 0.670174 2.89067
0.329535 -0.784472 3.30688
1.78332 0.0594246 2.76887
-1.00428 0.79265 2.91933
1.51266 -1.49268 3.44422
1.64143 -0.827721 2.7296
1.61119 0.0261582 2.67378
-1.33561 -0.718932 3.27628
1.71726 0.700536 2.71444
0.238475 1.25669 2.92851
-0.958516 -0.19297 3.08973
-1.19936 0.534979 2.76319
1.27267 1.14238 2.67673
-1.01839 -0.158023 3.15434
0.289183 -1.00242 3.39111
1.86285 0.998359 2.54569
-0.0499381 -0.109531 3.02886
0.20089 -0.930388 3.29281
-0.711208 0.636835 2.99344
-0.892191 -0.00503444 3.0645
-1.20111 -0.0739962 3.10071
-1.07136 0.590061 2.90579
1.31042 -0.837684 3.04445
-0.917876 0.466833 2.96074
0.348835 1.45147 2.78709
-0.738232 -1.16403 3.41774
1.6031 -0.297401 2.73645
0.819996 1.12221 2.78888
1.47034 0.392482 2.72735
-1.04235 -1.07057 3.32585
-0.289232 -0.277711 3.06248
-0.0924804 0.832476 2.11994
1.22823 -1.8563 3.56807
-0.141712 1.17389 2.84552
-0.00814943 -1.07697 3.3879
-1.09348 0.532945 2.93606
-0.498211 -0.244231 3.06916
-0.458283 0.873202 1.89729
-1.15525 -0.248218 2.96859
0.194093 -1.10204 3.6143
-1.71161 0.622165 3.63977
-1.04449 -0.197159 3.11275
-0.136412 0.84262 2.00492
0.400362 0.480599 2.92627
1.26403 -0.267565 2.86511
1.33391 -1.71218 3.52712
-0.156334 0.839289 1.99258
-1.11054 -1.09282 3.32988
-1.31312 -1.03599 3.25759
0.744704 1.12249 2.80891
1.55576 -0.235867 2.85541
1.36 -1.6263 3.44869
-1.10344 0.460743 2.92463
0.805282 -1.06578 3.41814
-0.954982 0.557577 2.95485
-1.35381 -0.207174 3.08635
-0.607946 0.841751 1.87088
0.356026 -0.0667735 0.179623
1.36641 0.501182 2.8084
0.62354 1.47365 2.86286
1.18212 -0.954444 3.22546
-0.874361 -0.170009 3.1022
0.932913 1.02107 2.79125
0.132179 1.33031 2.88447
1.04577 0.340347 2.87604
-0.0172135 1.07931 2.36594
-1.05886 -0.40675 3.16512
0.622596 -1.30352 3.47983
1.96253 0.508662 2.64209
-1.35572 -0.38201 3.17953
0.304893 1.16713 2.98111
-1.37073 -1.16416 3.25189
1.78118 0.397736 2.79301
-0.267649 0.775308 2.01052
0.513566 -0.323302 3.03772
2.64931 0.641449 2.72403
0.392375 -1.23796 3.52112
1.48324 0.344904 2.74566
-0.00771569 -1.51845 3.64619
-0.778524 0.25527 3.03176
2.14409 -1.0892 3.52878
1.50669 -0.493679 2.73431
-0.694507 0.66973 2.04262
0.7904 -1.71231 4.13595
-0.749472 0.217424 2.95523
1.31578 -1.7209 3.72193
0.765536 -0.516012 3.07145
-0.769362 0.64648 2.0337
-0.316057 0.314773 2.97466
1.40923 -1.67936 3.55657
1.40587 -1.5143 3.73401
2.04834 0.279572 2.77289
0.922556 -0.460191 3.03683
-0.010471 1.03015 2.91985
0.436275 -1.40714 3.62351
0.836461 0.272456 2.87581
1.8782 0.675516 2.64674
-1.0288 -0.438146 3.17518
1.66535 0.873305 2.5619
1.63741 0.737251 2.67028
1.00761 -1.59364 3.62191
0.0558109 0.108027 2.979
-1.4031 -0.674426 3.15296
0.49087 0.630264 2.94191
0.568471 0.883952 2.93844
0.147814 -0.642773 3.21204
0.6381 0.159633 2.87067
-1.04761 -1.5518 3.44299
1.26371 -2.01009 4.1166
0.983816 -0.582639 3.04534
0.725526 0.830992 2.90148
0.472932 -1.63367 3.75776
-0.736127 0.132724 3.00699
-0.278682 0.971916 2.38086
0.299553 -0.525136 3.1109
-0.0767301 0.481252 1.47176
0.178723 0.271118 2.90663
-0.186052 -1.4502 3.58013
0.877674 0.971793 2.85433
-1.34522 -0.497317 3.22934
-0.196782 0.971527 2.98201
2.66214 0.871705 2.8345
0.106691 -1.39655 3.48142
-1.38794 0.255317 3.01369
-0.504484 0.349347 3.01517
-0.328476 -1.34882 3.5488
-1.43299 -0.458204 3.19718
-0.342576 0.746526 2.00972
2.08496 0.49554 2.60383
-0.457155 -1.31141 3.56059
0.33956 0.29758 2.88957
2.00362 -0.458496 2.78128
-0.495064 -0.416486 3.25616
1.29181 0.966492 2.73394
-0.280476 -1.63233 3.63736
1.43805 -0.583606 2.84969
-0.883272 -0.321518 3.14771
0.944924 0.133781 2.88377
-0.369438 0.874655 3.06086
1.99375 0.306085 2.78121
-0.692726 0.958431 2.94597
0.63482 -0.599549 3.15525
0.959477 0.901076 2.85465
0.0331465 -1.53156 3.54493
1.6378 0.189456 2.70204
-0.96476 -0.564779 3.15285
-0.798739 0.638245 2.10681
-0.290676 -1.48155 3.55485
-0.299534 0.166164 2.97138
1.18506 0.0125539 2.78248
1.51888 -1.00112 3.29084
1.25005 -0.760258 3.00198
-0.219351 0.76377 3.05996
-1.19387 -0.768047 3.28022
-0.0248045 0.723994 3.05146
-0.276481 1.04846 2.86695
0.172187 -0.013892 2.9425
-0.757244 0.0988986 3.04712
-0.723058 0.822406 2.95751
0.9941 -1.74138 3.67988
-0.442752 -0.740259 3.26909
1.62329 0.601115 2.54735
-1.19012 0.0685395 2.97234
0.501189 -0.689947 3.21205
0.401802 0.788794 2.99356
1.29355 -0.882293 3.05631
0.991352 0.57243 2.93306
-0.546798 -1.61757 3.44876
-0.462809 0.717303 1.93727
1.41797 -0.127531 2.75328
1.90258 0.433565 2.64691
1.17616 -0.0853159 2.76136
0.841901 0.649303 2.90868
0.979262 -0.913464 3.31937
-0.265265 -1.1525 3.47132
-0.0236505 -0.0512781 3.01258
-0.669666 0.620994 2.99429
0.423239 1.29358 2.87261
1.74223 -0.735056 2.76298
0.266611 0.211086 2.95108
1.03768 -1.57209 3.56937
1.76449 -0.438592 2.74481
0.615589 0.924902 2.93755
-1.39357 -0.632391 3.33365
-1.20995 -1.41337 3.36826
-0.408308 -1.59065 3.42856
1.40182 0.161981 2.84126
-0.132347 -0.557153 3.14238
-0.4542 0.876377 2.90144
-1.08899 -1.32682 3.30135
-0.845584 -0.503112 3.19896
0.896759 -1.78335 3.64982
-0.893618 -0.510732 3.15432
0.00980395 0.241315 2.93882
2.34571 0.122146 2.96464
-0.309023 0.744246 2.19631
1.22009 0.729591 2.76399
1.40262 -0.718644 2.98459
0.802389 0.0529618 2.87634
-0.15612 0.930791 3.02665
-0.721895 -0.747346 3.30039
1.14775 0.724085 2.83513
0.647571 -1.46049 3.56133
-0.811988 0.0252477 3.09132
-1.22277 -0.714807 3.39058
1.73823 0.10995 2.7484
-1.2191 0.831896 2.82223
-0.265079 0.826627 3.02775
1.82927 -0.533561 2.79117
-1.18534 -1.561 3.4518
-0.280209 0.109129 2.95644
1.00274 -0.613725 3.0278
1.13406 -2.10385 4.83907
-0.521255 -0.959013 3.54633
-0.00724602 -0.0632109 3.00201
-0.494984 0.685933 3.09248
-0.330353 0.6433 3.098
1.19349 -0.822945 3.11804
-1.17994 0.0101946 3.09088
1.06809 -0.0410865 2.8643
1.74759 0.986223 2.53273
-1.60794 -0.83297 3.34436
1.28186 0.663714 2.77428
-1.04972 -0.00816858 3.05202
1.85681 0.516713 2.63672
-0.364834 -0.240234 3.05464
-0.838609 -0.633036 3.22527
-0.0155579 1.22639 2.64658
-1.34772 -1.00967 3.16885
0.687517 0.52295 2.94628
0.968359 1.1462 2.76433
0.035133 -0.20433 3.04462
1.01706 1.20966 2.7414
0.154013 0.481213 2.91393
-1.286 -1.05581 3.40002
-0.964716 -0.168173 3.09311
-0.592925 0.620282 3.12571
1.10818 -0.151819 2.81934
0.426834 1.47632 2.83552
0.978842 -0.970631 3.25697
-0.134899 -0.944662 3.39415
0.304965 1.25328 2.9051
0.905338 -0.123751 2.91822
0.0287767 0.579682 3.03194
2.00516 -1.00878 3.41847
1.85954 -0.552949 2.75882
-0.376387 -0.86645 3.36134
0.462768 -0.0215233 2.95936
-1.04895 -0.0404595 3.1109
-0.749517 0.719222 3.00594
-0.140166 -0.813795 3.30685
1.08645 0.656968 2.9008
-0.762159 0.0740435 3.07484
1.89559 0.142146 2.74216
-1.13768 -0.787706 3.34771
-0.77722 0.799162 3.00818
-0.315716 0.0235313 2.96353
-1.01899 0.783415 2.83075
0.937261 0.727679 2.87706
1.11129 -0.688487 3.01265
-0.576499 -0.202781 3.10636
-0.654658 0.793302 1.86477
0.163083 -1.27895 3.51394
-1.82991 -1.1823 3.78325
0.206694 0.549622 2.90401
0.892564 1.1914 2.77355
1.52653 -0.150736 2.81304
-0.595437 0.827256 1.87271
-0.991027 -0.974201 3.35144
0.886436 0.241923 1.36439
-1.0417 0.789633 2.85292
-0.398336 -0.118923 3.01153
1.30682 -1.80336 3.52901
-0.594362 0.626333 3.04745
0.276234 -0.964697 3.38493
-2.66445 -0.26506 5.76574
-0.504971 -0.885205 3.35847
1.38347 -0.793876 2.87348
-1.21517 0.590349 2.90006
0.144388 0.442469 2.92636
1.48086 -1.15777 3.24465
-0.837582 -0.341472 3.1977
0.428425 1.50777 2.79829
-0.661927 0.745041 1.84559
1.40745 -1.15507 3.38359
-0.0845489 0.421995 2.95767
0.803052 1.10035 2.82159
-1.07366 -0.285375 3.14982
-1.25228 -0.337797 3.18168
-0.527385 -1.15584 3.59294
1.39724 -0.22444 2.75035
1.69393 0.471504 2.85783
-1.01746 -0.271087 2.94854
0.350493 1.19814 2.9162
0.973684 0.986575 2.76579
-0.997847 -0.463376 3.08764
-0.125536 0.311856 2.97323
-0.538357 -1.35948 3.47391
0.828716 0.96631 2.8338
2.37654 0.464663 2.59385
-0.440777 -0.45355 3.24761
0.119932 1.4193 2.54877
1.10594 -1.33774 3.38095
-0.898196 0.290462 3.00438
0.374701 -0.402155 3.10901
0.674769 1.08319 2.89038
-1.145 -1.22162 3.3547
2.31961 0.0147964 2.8932
0.469493 0.363922 2.87329
-0.650034 0.719997 1.92824
0.378483 -0.371772 3.12406
0.11376 -1.27639 3.56553
1.71576 -0.139312 2.83815
1.53712 0.299351 2.68401
0.161321 1.06172 2.95236
0.97785 -0.440068 3.00804
-1.14966 0.352317 2.99076
0.699525 -1.40621 3.59771
-0.479905 0.715394 1.98404
0.00962844 1.13174 2.31639
1.49489 -0.377799 2.78725
0.505374 -1.36459 3.61421
-0.400983 0.308956 2.95258
1.86655 0.525263 2.64414
0.655972 -0.363946 2.95899
-0.361401 0.764057 1.94932
-0.0447284 0.538021 1.37143
0.100999 -1.29149 3.55928
-1.2358 0.430225 2.99415
1.57473 0.983655 2.55912
-0.251257 -0.331389 3.11927
1.36306 -1.19086 3.33406
2.63194 0.690525 2.76086
0.196564 0.363017 2.92831
1.06442 0.228102 2.88044
-1.04141 -1.38258 3.27542
-0.0149509 0.560813 1.28744
-0.377589 0.708805 2.11913
1.50315 -0.531034 2.87819
0.620854 -1.53387 3.71251
0.639353 0.198894 2.88443
-0.571853 -0.539325 3.22233
-0.588185 0.654605 2.05026
1.23639 -1.48522 3.65106
2.03829 0.361445 2.66134
1.56727 -0.443051 2.76095
0.992803 0.262063 2.89816
2.22849 0.471431 2.60251
-0.250898 0.906655 2.58451
1.28493 -0.673618 2.90242
1.37745 0.741548 2.70966
0.556572 -1.4663 3.58373
1.71207 0.0889262 2.76223
-1.1771 0.737237 2.73776
1.35551 -0.64913 2.98304
-0.666929 0.79171 2.97624
1.63872 0.045845 2.82041
0.742003 -0.642657 3.12657
1.04938 0.15585 2.82426
1.43724 -1.66761 3.62669
-0.829811 0.632459 2.08632
0.670465 0.846942 2.96235
1.3409 -0.567537 2.89393
2.39532 -0.932278 3.84028
-0.572284 0.125066 3.00812
1.20482 -1.68757 3.83407
-0.277238 1.08585 2.45641
0.872209 -0.847334 3.22905
-1.16591 -0.0155882 3.0874
0.518769 -1.46691 3.5675
-0.05719 -0.0551136 3.00966
1.32815 0.645087 2.7151
-0.185846 -0.799629 3.28455
1.4551 0.610977 2.7333
0.74098 -1.88569 3.97005
0.997206 -0.783735 3.23683
1.9038 0.375675 2.67774
1.58467 -1.48361 3.39937
1.61404 0.0164046 2.76833
0.052777 0.75386 3.04743
-0.760495 0.626127 2.15697
-0.21021 -1.68183 3.60839
-1.3247 0.139514 3.08831
-0.486514 1.38187 2.96069
1.63579 -0.601034 2.85245
2.21883 0.250019 2.76597
0.217687 -1.68865 3.69467
-0.478482 0.679734 2.12436
-0.206751 -0.626471 3.1838
-1.05933 0.217397 3.02874
1.1434 -1.49493 3.36526
0.929981 -0.558482 3.01269
-1.1393 0.745894 2.45969
-1.16404 -1.40434 3.32469
-0.706151 0.166776 2.96655
1.86463 0.995941 2.54951
1.08591 -0.782609 3.10749
-0.863332 -1.264 4.49538
0.91145 0.0198029 2.89794
1.47893 -0.0303801 2.79726
1.25375 0.699369 2.78384
-0.590701 -0.764404 3.21031
-0.251984 1.08073 2.45388
1.13664 0.685987 2.85674
0.0301435 0.0952396 2.96319
1.55737 -1.38211 3.19939
0.799212 -0.721989 3.1712
1.09867 0.756191 2.80055
0.961622 0.0551376 2.89748
-0.525982 0.78032 2.26796
0.492804 0.762729 2.92115
1.64943 -0.626077 2.82862
1.50751 -1.46034 3.36984
-0.370065 0.594664 3.05273
1.82676 1.03905 2.55017
1.35109 -0.121637 2.70229
-0.0471997 1.07 2.40805
1.3662 -0.89838 3.08718
1.87603 0.079411 2.72603
-0.311955 0.670776 3.07651
1.63944 -2.09506 3.43537
-0.512758 -0.0911054 3.06901
1.39678 -0.838286 3.01075
1.7372 -0.0567762 2.77601
1.20605 -1.45235 3.44291
-0.0726698 -0.874483 3.32778
1.44578 0.563984 2.67718
1.02355 -1.12442 3.30855
0.568602 0.474408 2.91894
0.500175 1.24694 2.8776
1.23923 -0.952861 3.16057
0.739744 -0.276056 3.03177
0.988588 1.13235 2.74328
1.45345 0.420372 2.8026
-1.14221 -1.03321 3.30316
-0.70629 -0.239968 3.04731
0.712024 1.14254 2.85832
-1.10546 -0.088628 3.12752
-0.58753 -1.10777 3.61083
1.30179 0.515055 2.79621
-0.773923 -0.20702 3.0531
-0.159179 1.14961 2.95499
-0.138449 -1.00286 3.35402
-0.769785 0.526621 3.04543
-1.43871 -0.171181 3.088
-0.443713 0.899866 1.87767
-0.120464 0.7763 2.98544
-0.360981 0.843172 1.92765
1.29912 -0.717654 2.97666
1.0908 0.0524382 2.80948
-0.576376 0.757641 3.05237
-1.35773 -0.725996 3.21653
0.531206 -1.46786 3.57011
-0.0276155 0.023508 2.96673
-1.41057 0.136623 3.05333
1.94812 0.712646 2.569
-0.727888 -0.690617 3.27591
-0.66917 0.857397 2.89341
-1.10746 0.117224 3.12258
-0.443625 -1.60905 3.56746
0.270646 -0.0857754 0.144047
0.651067 -0.646081 3.18884
1.49258 0.724081 2.62578
1.10627 -0.846708 3.08559
-0.176871 0.657322 2.95626
1.85828 0.109849 2.72785
0.966296 -0.0741439 2.90878
-1.28941 -0.824192 3.18784
0.775451 0.6066 2.93548
-1.47618 -1.58449 3.36436
1.46736 -0.048728 2.84167
1.5268 0.377351 2.27681
1.79454 0.957757 2.52724
-0.861552 0.713455 2.97693
-0.948406 0.334288 3.02658
-1.00502 -0.00448218 3.07337
1.18206 -0.76678 3.07213
-1.09396 -0.249879 3.14157
-0.548552 0.819918 1.88862
0.788534 -1.08452 3.34772
1.67622 0.448065 2.59266
1.58576 -0.91648 2.95484
0.977594 -0.196981 2.92954
-0.716879 0.781934 1.86342
-0.125541 0.684598 1.64051
-0.544403 -1.06297 3.43899
-0.373204 0.490995 2.97392
-0.488524 -0.995533 3.36422
0.103532 0.59595 3.00034
-0.177629 -1.18185 3.50789
-1.46778 -0.167418 3.0931
-0.17142 1.16707 2.95566
-0.983951 -0.917942 3.30818
0.512372 0.527868 2.87753
-0.6529 -0.132844 3.0431
-0.653145 0.857668 1.86069
0.528336 1.57413 2.8275
1.3739 -1.22325 3.31933
0.265694 1.3941 2.73614
0.337942 -0.36779 3.08862
1.27837 0.359134 2.8429
-0.158556 -0.0673481 1.14545
-0.540035 0.74827 1.9445
0.060767 -0.321838 3.05434
-0.315016 0.790245 1.968
0.282231 1.52508 2.78358
-0.537301 0.454892 2.9867
-1.52238 -1.14864 3.26503
0.98972 1.11488 2.83464
0.135089 -0.282147 3.04638
1.81274 0.388803 2.78038
0.542161 -1.18625 3.52338
-0.236141 -0.206484 3.07867
-0.358086 -1.0972 3.48434
-0.262611 0.869326 1.95665
0.452719 -1.06725 3.42646
0.374872 1.32712 2.9022
-0.858306 0.594701 3.16789
-0.283234 0.921988 1.9355
1.755 0.725498 2.58713
-0.408119 -0.167143 3.07861
0.281337 0.509017 2.92901
0.211289 -1.04807 3.5384
0.963474 -1.49897 3.54719
-0.185569 0.64071 3.09041
-0.531246 -0.138423 3.07315
-0.0837941 0.650398 3.015
-1.3227 -0.922027 3.26124
1.69414 -0.964404 3.09274
-0.464409 -0.972081 3.51554
-0.0536024 -0.0874474 3.00478
-0.109366 0.594508 3.00077
0.722076 -1.22945 3.47427
1.73151 0.420771 2.696
0.96226 -0.313786 2.90833
1.48352 1.02877 2.52998
0.486261 0.401974 2.89072
1.36188 -1.14243 3.33742
-0.156459 1.16808 2.94926
1.12633 -0.273877 2.84278
0.0954647 1.10808 2.90187
1.1848 1.11599 2.6909
2.48459 0.371275 2.60301
1.52673 0.419752 2.71884
0.987059 -0.241049 2.93458
-0.133762 -0.107644 1.03978
0.212753 -1.1173 3.45082
0.887876 -0.481011 3.05784
-0.0553011 1.04694 2.9793
1.52723 0.279649 2.72298
-1.07499 -1.30943 3.3488
2.50959 0.0302607 2.93438
0.246624 1.52808 2.72692
-0.940266 -0.467526 3.26448
-0.0499299 1.00663 2.949
-1.44797 -1.19888 3.08482
1.72103 0.252223 2.6809
-1.12941 -0.421153 3.25361
0.0885293 0.361769 2.91439
1.51148 -1.3152 3.42567
0.277294 1.1193 2.9793
-0.00549808 0.530909 1.21694
1.60738 -1.18363 3.20852
-1.48035 -0.385226 3.21888
-0.758138 0.70642 1.89606
0.0289735 0.582558 1.46442
0.192832 0.335795 2.91764
0.577385 -1.56723 3.60381
-1.2695 0.222942 3.02592
-1.4303 -0.605547 3.1667
1.56948 0.811522 2.58887
0.506051 -1.57745 3.75221
-1.1059 0.171329 2.92567
2.43949 0.653367 2.78886
1.50633 -0.555974 3.0564
1.39512 0.802719 2.69712
-0.49019 1.44518 2.95956
0.970977 0.92982 2.84814
0.598225 0.230117 2.88887
0.0663559 -0.526243 3.16583
2.14074 -0.707587 3.23521
-1.35806 -1.32646 3.25689
0.629611 0.229875 2.90943
-1.18207 -1.36405 3.22739
0.188595 0.954866 2.99422
0.679335 -0.575064 3.11621
-0.413194 -1.46965 3.59166
-0.814775 0.207101 2.9708
-1.27442 -0.541749 3.25634
-0.258321 0.932312 3.04074
0.022995 0.710353 1.80127
0.114855 0.989232 2.95838
2.49773 0.818581 2.88013
-1.03163 -1.62978 3.45937
0.441006 0.261821 2.8644
-1.06118 -0.485758 3.09076
2.26514 0.0285458 2.97285
0.3227 -1.47775 3.64537
-1.12888 0.77059 2.76615
-1.08073 -0.765955 3.33729
-0.213022 0.0926939 3.02476
0.056574 1.31679 2.88024
-0.0293295 -0.697352 3.23982
-0.412033 1.31602 2.95314
-0.0346559 0.764703 2.98796
-0.710935 0.0633837 3.03743
0.381137 -0.643847 3.15256
-0.0919996 0.171868 3.00402
-0.33942 -1.59384 3.52051
-0.178449 0.877798 3.02988
0.095856 0.702581 3.34835
-0.743605 0.861899 2.93904
-1.03317 -1.46144 3.30643
1.40108 0.105476 2.86698
1.43876 -0.567428 2.94589
-0.298409 0.858929 1.9311
-0.838886 -0.995208 3.80012
-0.958014 0.699852 2.944
-0.132822 -0.0575207 3.01103
1.51094 -0.681115 2.66972
-0.97405 0.728643 3.25019
0.319858 -0.0139916 2.96993
-0.212204 1.01318 2.76517
1.78714 0.352828 2.67877
0.698198 0.731269 2.95326
-1.20406 0.0249272 3.09143
1.51559 0.406715 2.27159
1.44784 -0.713293 2.94063
0.438457 -0.202059 2.99337
-0.129502 0.942663 2.14989
0.342988 1.26359 2.91444
-0.432644 -1.09129 3.50256
-0.987684 0.55402 2.96334
-0.0716486 0.643563 3.02073
1.32547 -0.160661 2.80527
-0.633037 0.807645 1.86557
1.69799 1.11181 2.56109
-1.10889 -0.967978 3.26557
-0.339646 0.511025 2.99116
-0.592558 -0.983396 3.43431
-1.12846 0.606026 2.8669
-1.03827 -0.121654 3.09458
-1.03534 -0.132677 3.16647
1.30822 -2.17774 3.54937
1.7134 -0.794403 2.8063
1.54566 0.522338 2.69894
-0.518473 -0.811572 3.31268
-0.724438 -0.0860712 3.02954
0.683356 -0.800665 3.18413
1.04762 0.0174092 2.88107
2.52683 0.0311045 3.79989
0.930952 -0.0201204 2.89111
-0.307155 0.755803 3.09491
0.231955 -0.780342 3.27824
1.02408 0.688498 2.89456
1.85746 -1.40646 3.26873
-1.38592 -0.723442 3.14278
-0.869566 0.766737 2.65009
-0.335742 0.0442451 2.96063
1.32836 0.701054 2.72144
-1.38726 -0.173111 3.08305
1.23758 -1.58621 3.56594
1.35649 -0.937552 3.06293
-0.382478 0.577322 2.9938
1.8881 0.587286 2.61874
1.53857 -0.13189 2.75707
-0.547124 0.855084 1.88399
1.87341 0.365587 2.64953
-1.43748 -0.910697 3.17817
0.602414 0.53908 2.92507
0.869201 -0.0998501 2.95596
1.36704 -1.65016 3.51077
1.37802 0.59821 2.71272
-0.0955946 -0.911797 3.33707
-0.908194 -0.386779 3.12854
0.771675 1.2614 2.82845
0.647109 -0.0602803 2.9331
-1.40452 -0.824811 3.13209
1.725 0.564921 2.71431
1.15774 -1.15818 3.37929
1.65682 -0.0370715 2.80057
1.74932 0.449847 2.74466
0.0886602 -0.28912 3.05082
-0.451032 0.775919 1.86275
-0.693045 0.458837 3.081
0.112787 -1.15643 3.54174
0.000273956 0.844452 2.09144
0.478514 -0.256096 2.97831
0.610861 -1.61498 3.57794
1.58067 -0.995359 3.13622
1.65509 -0.201998 2.73755
0.614917 0.504365 2.92264
-0.475553 -1.0306 3.44501
-0.691954 0.71162 1.91368
1.32768 -0.408505 2.75863
0.95338 1.00581 2.78354
1.28737 -1.36314 3.43964
1.38884 0.31693 2.80111
-0.0477358 0.943565 2.15424
-0.237299 -0.414593 3.15821
0.519311 1.01782 2.91786
-0.246052 -0.223231 1.32496
0.33343 -1.31917 3.48202
0.259838 0.29642 2.91209
1.53335 0.367204 2.64776
1.27558 -0.357377 2.86992
0.701017 -1.28465 3.49604
1.18196 1.05166 2.71138
-0.0243912 0.504992 1.3187
-0.613632 -1.19125 3.45441
1.80607 -0.334764 2.83826
1.33809 1.0087 2.6743
2.26994 0.30012 2.51302
1.21948 0.357788 2.8613
0.783454 -0.895569 3.21408
1.55056 -0.0922154 2.85221
1.93199 0.000323432 2.73698
0.0970879 0.652107 3.12736
1.03066 -1.75659 3.67897
1.25152 -0.0647695 2.7865
1.65201 1.14291 2.56437
0.369631 0.70951 3.02943
-0.462707 -0.881998 3.34689
0.602349 -1.48598 3.58044
0.784077 -0.025075 2.91224
-1.2318 0.657128 2.88305
0.241313 -0.829768 3.30414
1.30866 0.495876 2.85802
1.24206 -0.237034 2.78702
-0.262005 0.878341 1.97248
-1.22837 -1.05677 3.3061
-1.27342 -1.01478 3.30419
-0.383125 0.779096 2.02934
0.824506 1.15605 2.79758
1.5957 -1.88009 3.42682
1.54473 -0.207493 2.88403
-0.59349 -0.608237 3.28916
-0.443028 0.49126 2.99846
-0.649643 -1.02354 3.41115
-0.898634 0.596521 2.99914
0.0753731 -0.160755 3.01937
1.73446 -2.24716 3.32942
0.28286 0.543564 2.93428
0.327293 -1.80818 3.58466
-0.278226 -0.956965 3.33969
-0.607955 0.872411 1.88271
0.516066 -0.131328 2.94236
0.887996 1.0532 2.78216
-0.626788 0.371591 3.00944
-0.0755787 1.11508 2.79845
-1.00594 -0.371999 3.14344
-1.15787 -1.21301 3.34447
-0.965067 0.0902719 3.08787
1.60408 -0.307548 2.85049
-0.474812 0.756778 1.87749
1.13051 -1.21099 3.42149
0.599691 0.443847 2.9109
-0.76635 0.7273 1.85147
-0.485731 -0.293976 3.08485
0.80025 0.403492 2.92679
1.01064 -1.19407 3.5056
-0.887458 0.161725 3.05646
1.46372 -0.474587 2.81721
-0.0470314 0.623768 1.34467
-0.566005 0.280879 2.98499
-0.443523 -1.43816 3.52562
1.06724 0.942113 2.76464
1.35071 0.878429 2.69711
0.956407 -1.53506 3.77425
-0.301212 0.243612 2.9994
-0.0315225 0.573543 1.30044
1.25633 -0.469682 2.9467
-1.41191 -1.22748 3.1667
-1.09426 0.348625 2.94983
0.40832 -0.44359 3.0875
-0.695664 0.720306 1.93799
2.29703 0.0401882 2.96598
-0.173589 -1.32678 3.58473
0.994471 0.285216 2.92179
-0.00829934 0.543384 1.289
1.05681 -0.38962 2.92482
0.176458 1.0184 2.9156
0.738124 -1.16771 3.27335
0.980598 0.446732 2.89798
-0.895096 0.181569 3.05485
0.0433266 -0.334133 3.07346
-0.507914 0.419893 2.99414
0.380461 -1.1965 3.5302
0.323376 1.53414 2.81703
1.00202 1.07778 2.77219
-0.994195 -0.292343 3.13421
0.208898 1.19582 2.89272
-0.067436 -0.139358 0.845426
-0.842414 0.499781 3.0222
-1.3126 -0.258394 3.14438
1.55116 1.02826 2.54164
-0.956675 -1.02368 3.1619
2.59366 0.936353 2.86923
-0.226552 -0.488174 3.17777
1.34358 0.944466 2.68907
0.597812 0.292653 2.88946
-0.869439 -1.40572 3.53442
-1.30651 -0.452151 3.15984
-0.0404019 1.00821 2.282
1.46774 0.878399 2.57004
0.396515 -1.38222 3.54591
0.863051 0.259066 2.87421
1.66153 0.334752 2.67061
0.89086 -1.32568 3.48572
-0.185149 0.790448 2.06965
-0.0174167 0.533292 1.24476
0.248353 -0.400744 3.09585
-1.07447 0.352164 3.02482
1.2555 -1.23853 3.35405
1.10062 1.00083 2.74601
1.59083 -0.352912 2.83973
0.651741 -0.456962 0.857854
-0.967213 -1.48667 3.41114
-1.33858 -0.644854 3.37301
2.25626 0.220983 2.75998
0.406476 0.163194 2.91437
-0.394189 0.892717 3.02011
-0.478522 -1.60469 3.41447
2.2468 0.509373 2.64531
-0.50522 1.40404 2.96384
-1.44955 -0.579636 3.18469
-0.852529 0.668017 2.01882
0.816008 -1.52872 3.57024
-0.827997 0.235476 2.99207
-1.00049 -0.544175 3.21812
1.66574 0.805869 2.55097
0.804245 -1.56955 3.78399
1.22949 0.187046 2.80788
-0.0236817 0.0470477 2.94866
-0.229832 1.06848 2.45275
0.982825 0.758528 2.89642
1.66879 -0.707414 2.87013
0.986087 -0.731195 3.15331
0.0322684 0.744328 3.04233
2.00484 1.07237 2.6972
0.684196 0.0143585 2.91423
0.758878 0.119327 2.86522
-0.298996 0.874403 3.02937
1.82284 0.715667 2.57448
0.879557 -0.680068 3.13272
0.608082 -1.7764 3.9082
0.286898 0.0875304 2.95684
1.05785 -0.635377 3.07399
2.48641 0.016715 3.76658
0.760872 0.801088 2.91728
0.710257 -0.734755 3.16603
1.17636 0.74708 2.77738
-0.0532333 1.09887 2.9024
1.06659 0.0812233 2.80184
1.37291 0.68271 2.67236
1.47275 -0.63042 2.86076
-0.272864 -1.08564 3.43337
1.13576 0.0332497 2.85135
-0.607975 -1.57219 3.46118
-0.665104 0.153318 2.97547
2.06529 1.16269 2.80725
-1.37156 -0.647619 3.16487
-0.107373 0.909435 3.10022
-0.242532 0.119981 2.99126
-0.678103 -1.54497 3.51879
2.11356 1.06307 2.76681
0.248609 -0.631406 3.20966
1.63188 0.741733 2.61461
1.11744 -0.810919 3.07211
0.789343 -0.0624845 2.90261
0.577244 -1.78183 3.71953
-0.258601 0.684901 3.16496
1.91314 0.641975 2.61488
-1.4296 -0.0233483 3.08517
-0.904012 -1.61898 3.41758
0.111286 0.737734 3.0457
1.91833 -0.164655 2.72025
0.812323 -0.806387 3.185
1.24794 0.0144491 2.77397
0.340446 0.706999 3.03141
-0.396007 -0.792559 3.306
1.26933 0.519018 2.83368
0.184938 -0.228266 3.01249
-0.278069 0.909576 1.96615
0.053031 -1.0676 3.39279
-0.880703 -0.255538 3.08601
-0.621361 -1.01015 3.40918
-0.447503 0.756806 2.22485
-0.684305 0.801805 1.86578
0.289609 0.801125 3.03622
0.998754 -0.169999 2.93762
0.827392 0.503723 2.97639
-0.548847 -0.956776 3.32685
1.04373 0.597466 2.90586
-0.375141 -0.140307 3.08086
1.53618 -2.48907 3.49215
0.447463 0.559678 2.91281
1.22043 -0.886585 3.15833
0.662035 1.24671 2.83958
-0.424967 -0.938068 3.37933
0.417497 -0.095386 2.9602
-1.02841 -1.2102 3.50716
-0.602465 -0.955465 3.41247
-0.363198 -0.34861 3.11547
-1.31516 0.420547 2.95399
-0.393525 0.7593 1.94391
1.64604 -0.281712 2.63609
0.285957 1.45293 2.81542
0.0589575 -0.222159 0.902777
1.15434 1.11464 2.70729
0.296013 -1.21194 3.53312
0.363973 0.462506 2.88001
1.1361 -0.254049 2.82957
0.388069 1.13863 2.8689
-0.581718 0.441614 2.97967
0.452081 -1.15994 3.51643
1.26171 -0.16779 2.78521
-0.422397 0.723903 1.96896
0.29962 1.30461 2.90857
-0.934778 -0.983624 3.37952
-0.692814 -0.297886 3.08231
1.11562 0.559885 2.85454
-0.685026 0.856499 1.8654
-0.79449 -0.141531 3.07655
-0.542591 0.550501 3.03546
1.83187 0.658213 2.59839
-0.751386 -0.957721 3.36782
-0.548211 -0.0996987 3.08424
2.15944 0.063393 2.94653
-0.866891 -0.904667 3.30068
-0.1179 0.694551 3.12167
-0.191514 -0.89476 3.40666
1.74314 -1.98259 3.42953
-0.311908 -0.0531631 3.03887
1.3736 0.561733 2.76581
-1.42953 -1.08678 3.20487
0.0494452 0.482541 3.00041
0.823987 -0.299979 2.99093
0.62214 1.19756 2.88599
1.40327 0.412916 2.78418
-0.398629 -1.18798 3.69022
0.589118 -1.57851 3.61555
-0.319569 -0.265418 3.097
1.42155 1.05539 2.63417
-0.369231 0.850351 2.41277
-0.189559 1.17203 2.95582
0.10647 0.507183 2.96431
1.29049 -0.204067 2.817
0.0989269 1.34049 2.84566
0.696332 -1.09721 3.40558
-0.906564 -0.462125 3.20296
0.101796 1.18688 2.15406
0.808864 1.03028 2.8427
0.199895 -1.42737 3.64048
1.63961 0.29641 2.7485
-0.29025 -0.418632 3.16767
-0.251903 -0.0312492 1.42534
1.11221 0.982015 2.7848
0.696266 -1.37062 3.61562
0.905395 0.291181 2.86207
1.50588 0.367531 2.70974
1.63652 -1.20652 3.22623
1.53187 0.987237 2.52426
0.0625903 0.539621 1.29819
1.23024 -0.370644 2.93167
0.0195094 0.363962 2.95445
1.67248 -1.10337 3.06596
-0.808091 0.706946 1.87053
-0.702331 -0.356144 3.10301
2.47637 0.933195 2.90135
-0.730823 -1.47699 3.49445
1.09067 -0.542167 2.92141
2.08543 0.524066 2.60089
-1.36514 -1.29866 3.10457
-0.252108 0.186976 2.96637
1.64078 -0.498031 2.84221
-0.659709 0.644836 2.08339
0.12673 0.596058 1.33913
2.01322 0.45637 2.62512
0.737533 0.967097 2.8851
0.26381 0.270254 2.92906
-0.0200089 -0.505232 3.17609
0.958993 0.930876 2.86877
-0.585545 -1.395 3.49305
1.4996 0.204645 2.72567
1.11592 -1.10749 3.36195
-0.497208 0.515496 2.99425
-0.062134 -0.250958 3.08026
-0.317597 0.863958 1.94197
-0.507583 -0.999195 3.41907
1.18092 0.456954 2.83726
-0.738012 -1.06217 3.45737
-1.13586 -0.220573 3.16095
1.55199 1.03375 2.47217
