ply
format ascii 1.0
element vertex 1838
property float x
property float y
property float z
end_header
-0.472372 -0.290184 3.09298
-0.652718 -1.11454 3.39485
0.389717 -1.43024 3.56882
1.33533 -0.479286 2.83765
-0.491105 0.701573 2.02319
1.22995 0.272217 2.84547
0.518445 -1.50105 3.68874
-1.38019 -0.494313 3.24437
0.635411 0.973487 2.91278
0.0558839 0.932881 1.96873
-0.952135 -1.38858 3.56705
0.662129 0.235363 2.91654
-0.60962 0.346352 2.96271
1.39652 -1.32125 3.36575
0.0491195 1.07243 2.92186
2.34963 0.236009 2.73671
-0.64803 -0.443452 3.17759
0.630756 0.29502 2.9071
0.427803 -1.29671 3.50667
-0.79603 0.684459 1.88429
0.564667 -0.398183 3.04948
1.09313 -1.67479 3.636
-0.0694101 -1.58 3.53295
-0.526827 0.169571 2.98303
-1.44068 -0.614741 3.04716
0.784187 0.870736 2.85932
0.86545 0.121716 2.89465
-0.80886 -1.44977 3.35503
0.374582 -1.74562 3.63813
-0.549024 -0.573026 3.11503
0.35716 0.863477 2.9772
2.01931 -0.795833 3.26315
0.659639 -1.61657 3.62725
-0.45206 0.678813 2.10565
1.32089 0.195339 2.78486
1.83295 0.322004 2.80086
1.26781 -0.535054 2.92162
0.78132 -1.71833 4.0414
1.34051 0.689282 2.71638
2.24058 -0.197464 3.57636
-0.277574 0.0256192 3.02072
0.404917 -0.81724 3.32115
-0.243161 0.736389 3.09622
-0.081741 1.09917 2.95859
0.711569 -0.0168108 2.93258
-0.794914 -0.799562 3.44929
0.914172 0.092172 2.88745
1.67685 -0.768059 2.55868
1.0385 -0.683151 3.03876
-0.104874 0.838459 3.05889
-0.255197 0.059792 3.0396
-0.807357 -1.60305 3.44705
1.86716 -0.503441 2.73819
1.65575 0.706007 2.64448
-0.918519 -0.690562 3.31601
-0.196368 0.768722 2.10857
-0.564195 0.32006 3.0216
-0.935795 0.0182341 3.08657
0.465228 -0.430531 3.05872
-1.05064 -1.25213 3.29652
0.974055 -0.386839 2.98491
-0.346634 0.766223 1.98102
1.33995 -1.22846 3.26812
0.594448 0.375687 2.93859
0.70403 -0.364504 3.02638
1.44934 0.982032 2.62691
1.49093 -1.22797 3.35991
0.513448 0.332922 2.86556
2.51845 0.304052 2.64416
0.78843 -1.71313 3.91551
1.18368 0.201514 2.79973
2.2752 0.140796 2.95889
0.158875 -0.596724 3.18707
-0.362012 0.918267 2.7804
-0.177478 -1.50669 3.62968
0.962309 0.157995 2.8519
2.37207 -0.0920348 2.97616
1.58911 -0.496593 2.75825
1.07982 0.85811 2.81476
1.41567 -1.4119 3.38965
1.41773 0.269106 2.77041
2.19054 0.28717 2.6285
0.654673 -0.514929 3.12027
-0.33161 0.726409 2.06491
-1.45773 -1.23005 3.06677
-1.37964 0.282463 3.08954
-0.0128158 1.32349 2.89743
-0.751407 -0.474332 3.19836
0.383239 0.987013 2.96917
0.137498 0.800213 3.04078
-2.48476 -1.26761 5.22427
-0.100307 1.32773 2.89586
0.446792 0.0556673 2.92543
-0.517272 0.768357 3.03462
-0.305999 -0.715356 3.24698
-0.677152 -0.984667 3.57578
-0.168165 0.027799 3.00405
1.06053 -0.656565 3.03645
-0.499786 0.799854 2.76914
-0.0872168 -1.69275 3.63665
1.73905 0.122989 2.73038
1.85426 -0.321062 2.70954
1.56296 -0.58871 2.85012
-0.50543 0.823272 3.00671
-0.458665 0.0992407 3.01799
0.695348 -1.74145 3.88721
0.715219 -1.58137 3.76506
0.401694 -0.881501 3.27257
-0.998346 0.78664 2.84642
-0.829224 0.704887 3.05935
-0.850474 -0.0680798 3.08715
0.0368534 -0.8418 3.29376
0.561271 0.629617 2.95088
-0.570353 -0.0408426 3.07837
1.26208 -1.78617 3.72027
-2.15819 -1.1022 4.39083
-0.283758 0.883733 2.43393
-0.30451 0.952959 2.74774
0.132315 -0.0110693 2.95325
-1.13198 0.724386 2.94486
-3.14285 -3.24878 6.92852
1.09109 0.775386 2.78883
1.46063 -0.63325 2.91361
-1.18674 0.118998 3.13699
-0.101769 -1.69848 3.5255
0.608472 -1.47165 3.5926
2.197 0.315345 2.62072
1.24222 0.822672 2.71208
-0.19199 -0.643746 3.27432
-0.0713346 0.172243 2.9681
-0.879473 -1.52634 3.42641
1.20445 -0.583455 3.01329
1.42821 0.759711 2.59706
0.18387 -1.52304 3.53508
-0.229314 0.133731 3.00363
-0.218716 1.1575 2.9594
0.293601 -0.0443973 2.95555
-0.22938 -0.0132983 3.05382
0.014932 1.178 2.88107
1.43939 -0.768674 2.90312
0.14006 0.724537 3.02964
2.31365 -1.52562 4.2166
1.15423 -0.774134 3.10521
-1.16223 0.670174 2.89067
0.317344 -0.784419 3.31736
1.78332 0.0594246 2.76887
-1.00428 0.79265 2.91933
1.52713 -1.49057 3.44652
1.64143 -0.827721 2.7296
1.61119 0.0261582 2.67378
-1.33561 -0.718932 3.27628
1.71726 0.700536 2.71444
0.241794 1.26339 2.9278
-1.19936 0.534979 2.76319
1.27386 1.14452 2.67443
-1.01839 -0.158023 3.15434
0.288795 -0.998708 3.40773
1.86285 0.998359 2.54569
-0.0688364 -0.117091 3.0352
0.191155 -0.930022 3.31569
-0.711208 0.636835 2.99344
-1.20111 -0.0739962 3.10071
-1.07136 0.590061 2.90579
1.31526 -0.841496 3.03874
-0.917876 0.466833 2.96074
-0.738232 -1.16403 3.41774
1.6031 -0.297401 2.73645
0.830968 1.12644 2.7839
1.49188 0.389667 2.71102
-1.04235 -1.07057 3.32585
-0.299883 -0.28017 3.07517
-0.0924804 0.832476 2.11994
-0.0180729 -1.07304 3.40639
-1.09348 0.532945 2.93606
-0.510932 -0.242706 3.08766
-0.458283 0.873202 1.89729
0.181712 -1.10215 3.6293
-1.71161 0.622165 3.63977
-1.04449 -0.197159 3.11275
-0.136412 0.84262 2.00492
0.391707 0.473842 2.92763
1.26205 -0.278435 2.85275
-0.156334 0.839289 1.99258
-1.11054 -1.09282 3.32988
-1.31312 -1.03599 3.25759
0.750929 1.1284 2.80405
1.56197 -0.244698 2.83969
-1.10344 0.460743 2.92463
0.800898 -1.06729 3.42424
-0.954982 0.557577 2.95485
-1.35381 -0.207174 3.08635
-0.607946 0.841751 1.87088
1.38162 0.497225 2.79031
1.18111 -0.961562 3.22084
-0.884602 -0.168134 3.11643
0.944978 1.02512 2.78577
0.132179 1.33031 2.88447
1.05755 0.337263 2.87639
-1.06383 -0.405686 3.16621
0.620857 -1.29929 3.49217
-1.35572 -0.38201 3.17953
0.307661 1.17366 2.98038
-1.37073 -1.16416 3.25189
1.7939 0.402686 2.78026
-0.267649 0.775308 2.01052
0.502206 -0.330102 3.03447
2.64931 0.641449 2.72403
0.394328 -1.23438 3.54029
1.50164 0.344639 2.7271
-0.00771569 -1.51845 3.64619
-0.787642 0.254279 3.03523
2.15152 -1.1026 3.52362
1.51613 -0.500858 2.72248
-0.694507 0.66973 2.04262
0.7904 -1.71231 4.13595
-0.756235 0.21372 2.96012
1.31535 -1.72074 3.72425
0.760063 -0.518703 3.06983
-0.769362 0.64648 2.0337
-0.330156 0.309526 2.97673
1.40923 -1.67936 3.55657
1.41014 -1.51805 3.74298
2.07289 0.270267 2.75353
0.916012 -0.46852 3.02108
-0.00405351 1.04093 2.93692
0.434483 -1.4013 3.6393
0.838213 0.271054 2.87858
1.87879 0.677848 2.64523
-1.03086 -0.438148 3.17508
1.67042 0.878623 2.55576
1.65006 0.742625 2.66008
1.01107 -1.58666 3.62827
0.041974 0.0956871 2.99743
-1.4031 -0.674426 3.15296
0.498582 0.630475 2.94213
0.577007 0.885498 2.9374
0.132749 -0.645573 3.22009
0.633784 0.156607 2.88075
-1.04761 -1.5518 3.44299
1.2575 -2.00873 4.12067
0.983271 -0.58802 3.03928
0.734567 0.834393 2.88999
0.466246 -1.6346 3.77715
-0.737228 0.136063 3.00936
-0.278682 0.971916 2.38086
0.286227 -0.527325 3.12068
-0.0767301 0.481252 1.47176
0.16611 0.267738 2.91677
-0.186052 -1.4502 3.58013
0.884939 0.972458 2.84277
-1.34522 -0.497317 3.22934
-0.19566 0.976923 2.98121
2.66214 0.871705 2.8345
0.0952354 -1.38437 3.50299
-1.38794 0.255317 3.01369
-0.519941 0.346577 3.01819
-0.328476 -1.34882 3.5488
-1.43299 -0.458204 3.19718
-0.342576 0.746526 2.00972
2.10123 0.489342 2.59514
-0.457155 -1.31141 3.56059
0.329969 0.292997 2.90606
2.01743 -0.457393 2.77688
-0.515657 -0.416249 3.2712
1.30239 0.976658 2.72414
-0.280476 -1.63233 3.63736
1.44202 -0.589606 2.83689
-0.89102 -0.318858 3.1643
0.947844 0.123716 2.87783
-0.369896 0.880528 3.06101
2.01693 0.30067 2.7622
-0.692726 0.958431 2.94597
0.626479 -0.603431 3.15476
0.972687 0.903016 2.84319
0.0331465 -1.53156 3.54493
1.65682 0.190237 2.68178
-0.96476 -0.564779 3.15285
-0.798739 0.638245 2.10681
-0.290676 -1.48155 3.55485
-0.309454 0.164839 2.97969
1.19013 0.00885044 2.77165
1.53052 -1.00982 3.28549
1.25475 -0.762169 3.0009
-0.23036 0.766199 3.06018
-1.19387 -0.768047 3.28022
-0.0226658 0.723998 3.05019
-0.276481 1.04846 2.86695
0.159033 -0.0208718 2.95207
-0.760277 0.101486 3.04867
-0.723058 0.822406 2.95751
0.995355 -1.73143 3.6893
-0.46386 -0.735128 3.29434
1.62329 0.601115 2.54735
-1.19012 0.0685395 2.97234
0.492972 -0.69201 3.21611
0.404166 0.79156 2.99089
1.29715 -0.885016 3.05214
0.998908 0.573744 2.91556
-0.546798 -1.61757 3.44876
-0.462809 0.717303 1.93727
1.42807 -0.131181 2.73948
1.92295 0.439442 2.63841
1.18133 -0.0864327 2.75405
0.852336 0.649834 2.89709
0.970671 -0.916357 3.32069
-0.0375189 -0.0569694 3.02025
-0.669666 0.620994 2.99429
0.431675 1.29609 2.87924
1.74223 -0.735056 2.76298
0.254252 0.203115 2.95415
1.0427 -1.56187 3.5769
1.77235 -0.440992 2.73721
0.619482 0.929055 2.93665
-1.39357 -0.632391 3.33365
-1.20995 -1.41337 3.36826
-0.408308 -1.59065 3.42856
1.41349 0.156286 2.82169
-0.144748 -0.55641 3.15505
-0.455677 0.8776 2.9011
-1.08899 -1.32682 3.30135
-0.845584 -0.503112 3.19896
0.896759 -1.78335 3.64982
-0.898788 -0.505898 3.15836
-0.00629308 0.237553 2.94487
2.36671 0.104697 2.94567
-0.309023 0.744246 2.19631
1.23283 0.735137 2.75155
1.40442 -0.72553 2.97259
0.802272 0.0528313 2.87792
-0.158719 0.940768 3.02915
-0.723693 -0.730529 3.31465
1.15628 0.718678 2.81697
0.647571 -1.46049 3.56133
-0.82403 0.0288576 3.09019
-1.22277 -0.714807 3.39058
1.76051 0.112568 2.72236
-1.2191 0.831896 2.82223
-0.268747 0.830692 3.0285
1.82927 -0.533561 2.79117
-1.18534 -1.561 3.4518
-0.298155 0.101532 2.96499
0.998982 -0.618291 3.0214
1.12715 -2.10662 4.84086
-0.540966 -0.942346 3.55116
-0.0230328 -0.074614 3.01194
-0.500351 0.689113 3.0951
-0.332533 0.643108 3.09219
1.19512 -0.823022 3.11417
-1.17994 0.0101946 3.09088
1.07009 -0.0500987 2.857
1.74759 0.986223 2.53273
-1.60794 -0.83297 3.34436
1.29582 0.66164 2.75496
-1.04972 -0.00816858 3.05202
1.8721 0.518979 2.62693
-0.37912 -0.243353 3.06453
-0.0155579 1.22639 2.64658
-1.34772 -1.00967 3.16885
0.694257 0.516741 2.93693
0.978671 1.15035 2.75869
0.01476 -0.208263 3.04946
1.02706 1.21557 2.74177
0.147297 0.478645 2.91514
-1.286 -1.05581 3.40002
-0.592925 0.620282 3.12571
1.11173 -0.15865 2.81175
0.976224 -0.971771 3.25751
-0.139874 -0.941747 3.41249
0.308371 1.25854 2.91014
0.902665 -0.126422 2.91692
0.0232504 0.572801 3.03625
1.87705 -0.551891 2.7481
-0.386927 -0.854974 3.37461
0.45297 -0.0254356 2.96369
-1.04965 -0.0402972 3.11146
-0.749517 0.719222 3.00594
-0.150448 -0.810134 3.32836
1.09491 0.650771 2.87896
-0.76761 0.070355 3.0777
1.89559 0.142146 2.74216
-1.13768 -0.787706 3.34771
-0.77722 0.799162 3.00818
-0.332173 0.0209958 2.97776
-1.01899 0.783415 2.83075
0.947116 0.726825 2.86248
1.11232 -0.692873 3.00753
-0.593424 -0.206852 3.12042
-0.654658 0.793302 1.86477
-1.82991 -1.1823 3.78325
0.198068 0.544319 2.90864
0.903561 1.19608 2.77046
1.53443 -0.16177 2.79862
-0.595437 0.827256 1.87271
-0.991027 -0.974201 3.35144
0.886436 0.241923 1.36439
-1.0417 0.789633 2.85292
-0.411355 -0.122271 3.0251
-0.582577 0.631507 3.05432
0.271062 -0.96287 3.40018
-2.66445 -0.26506 5.76574
1.39205 -0.795595 2.86168
-1.21517 0.590349 2.90006
0.138035 0.442809 2.92502
1.49369 -1.15853 3.2449
-0.837582 -0.341472 3.1977
-0.661927 0.745041 1.84559
1.40928 -1.15798 3.38456
-0.0957589 0.418471 2.96711
0.810061 1.10319 2.81223
-1.07366 -0.285375 3.14982
-0.555049 -1.13166 3.60851
1.40326 -0.231097 2.73923
1.69393 0.471504 2.85783
0.353382 1.20505 2.90938
0.986522 0.991616 2.76035
-0.998786 -0.462707 3.09405
-0.141694 0.306734 2.97974
-0.538357 -1.35948 3.47391
0.836034 0.970851 2.82406
2.38698 0.462093 2.58847
-0.459255 -0.451248 3.26299
1.11846 -1.33311 3.39606
-0.898196 0.290462 3.00438
0.361086 -0.406434 3.11376
0.677215 1.08989 2.88383
-1.145 -1.22162 3.3547
2.33996 0.000364999 2.8755
0.467695 0.363861 2.87405
-0.650034 0.719997 1.92824
0.364417 -0.376126 3.12787
0.109983 -1.27378 3.56803
1.73034 -0.145487 2.81908
1.56093 0.3031 2.66609
0.165077 1.07202 2.95382
0.97091 -0.44371 2.99756
-1.14966 0.352317 2.99076
0.69721 -1.40299 3.61187
-0.479905 0.715394 1.98404
1.5011 -0.382921 2.7734
0.506677 -1.36071 3.6314
-0.417119 0.304771 2.96003
0.647735 -0.366426 2.95879
-0.361401 0.764057 1.94932
-0.0447284 0.538021 1.37143
0.0978248 -1.28959 3.57996
-1.2358 0.430225 2.99415
1.57473 0.983655 2.55912
-0.266638 -0.334762 3.13071
1.36518 -1.19259 3.33576
2.63194 0.690525 2.76086
0.185595 0.359479 2.91809
1.07049 0.226469 2.87577
-1.04141 -1.38258 3.27542
-0.0149509 0.560813 1.28744
-0.377589 0.708805 2.11913
1.50985 -0.536569 2.86816
0.615238 -1.53471 3.71416
0.638949 0.19355 2.88964
-0.58052 -0.534393 3.23116
-0.588185 0.654605 2.05026
1.23758 -1.48193 3.66239
2.05839 0.351313 2.63806
1.57384 -0.447694 2.74691
1.00083 0.26257 2.89094
2.23906 0.470928 2.59817
-0.250898 0.906655 2.58451
1.28927 -0.676517 2.89546
1.3927 0.7462 2.69729
0.552462 -1.46334 3.59613
1.71207 0.0889262 2.76223
-1.1771 0.737237 2.73776
1.35561 -0.655829 2.97514
-0.666929 0.79171 2.97624
1.6545 0.044441 2.7995
0.736 -0.645489 3.12512
1.05928 0.151562 2.82218
1.43724 -1.66761 3.62669
-0.829811 0.632459 2.08632
0.675024 0.848718 2.95163
1.34598 -0.570931 2.88411
2.40074 -0.961484 3.8363
-0.585433 0.124797 3.01352
1.20587 -1.68726 3.83321
-0.277238 1.08585 2.45641
0.869282 -0.850741 3.22694
-1.16591 -0.0155882 3.0874
0.512096 -1.46298 3.5839
-0.0744157 -0.0579272 3.01967
1.34516 0.644304 2.69909
-0.19576 -0.798915 3.30495
1.46723 0.609997 2.72182
0.74098 -1.88569 3.97005
0.994776 -0.786369 3.23415
1.9038 0.375675 2.67774
1.5939 -1.47825 3.39835
1.63553 0.0119342 2.74635
0.0525947 0.755397 3.04115
-0.760495 0.626127 2.15697
-0.21021 -1.68183 3.60839
-1.3247 0.139514 3.08831
-0.486514 1.38187 2.96069
1.64724 -0.605117 2.83893
2.23313 0.228909 2.74572
0.197276 -1.67293 3.71229
-0.478482 0.679734 2.12436
-0.220525 -0.618815 3.20756
-1.05933 0.217397 3.02874
1.1434 -1.49493 3.36526
0.92765 -0.559371 3.01058
-1.1393 0.745894 2.45969
-1.16404 -1.40434 3.32469
-0.715162 0.168782 2.96858
1.86463 0.995941 2.54951
1.08504 -0.785911 3.10334
-0.864382 -1.26664 4.49831
0.908907 0.0129709 2.88902
1.49105 -0.0320001 2.7843
1.26464 0.696272 2.76271
-0.58592 -0.757305 3.22348
-0.251984 1.08073 2.45388
1.14471 0.676962 2.83029
0.0165214 0.0884792 2.96969
1.56844 -1.37761 3.19725
0.79371 -0.726797 3.16932
1.11694 0.766632 2.79356
0.957363 0.0488387 2.88249
-0.525982 0.78032 2.26796
0.497703 0.765396 2.91535
1.66218 -0.631694 2.81586
-0.380167 0.594846 3.0565
1.82676 1.03905 2.55017
1.35801 -0.127251 2.69432
-0.0471997 1.07 2.40805
1.37175 -0.901318 3.08276
1.89467 0.0837974 2.70044
-0.317221 0.671879 3.06948
-0.530535 -0.0925477 3.08281
1.40202 -0.845284 3.00439
1.7372 -0.0567762 2.77601
-0.0854158 -0.869339 3.34724
1.46437 0.564088 2.6644
1.02249 -1.12567 3.3085
0.566971 0.472196 2.91956
0.501529 1.25315 2.88014
0.734043 -0.2856 3.02679
1.00297 1.13718 2.73919
1.47037 0.421921 2.78181
-1.14221 -1.03321 3.30316
-0.712967 -0.248533 3.06789
0.718721 1.14697 2.85541
-0.5892 -1.10715 3.62307
1.3195 0.5161 2.77332
-0.781147 -0.206659 3.07212
-0.154949 -0.991649 3.37782
-0.769785 0.526621 3.04543
-1.43871 -0.171181 3.088
-0.443713 0.899866 1.87767
-0.113743 0.782246 2.99145
-0.360981 0.843172 1.92765
1.30016 -0.725882 2.9669
1.09225 0.0483034 2.80469
-0.575653 0.757718 3.05287
-1.35773 -0.725996 3.21653
0.51544 -1.46617 3.59079
-0.0417016 0.0196452 2.96562
-1.41057 0.136623 3.05333
1.95138 0.715775 2.56631
-0.724726 -0.688205 3.28755
-0.66917 0.857397 2.89341
-1.1116 0.112698 3.12218
-0.443625 -1.60905 3.56746
0.270646 -0.0857754 0.144047
0.637963 -0.651276 3.18745
1.50337 0.727714 2.61506
1.1052 -0.851676 3.08353
-0.178665 0.663137 2.95924
1.87657 0.111927 2.70583
0.964091 -0.0816973 2.89339
-1.28941 -0.824192 3.18784
0.781478 0.607112 2.92435
-1.47618 -1.58449 3.36436
1.4772 -0.0569647 2.8286
1.5268 0.377351 2.27681
1.79454 0.957757 2.52724
-0.861552 0.713455 2.97693
-1.00502 -0.00448218 3.07337
1.17789 -0.771414 3.06644
-1.09396 -0.249879 3.14157
-0.548552 0.819918 1.88862
0.78469 -1.08578 3.35459
1.68515 0.456411 2.5842
0.971341 -0.20662 2.91448
-0.716879 0.781934 1.86342
-0.125541 0.684598 1.64051
-0.558754 -1.05822 3.43834
-0.384669 0.488752 2.97902
-0.488524 -0.995533 3.36422
0.0923775 0.59261 2.99835
-1.46778 -0.167418 3.0931
-0.983951 -0.917942 3.30818
0.510017 0.529346 2.88322
-0.667171 -0.131932 3.06043
-0.653145 0.857668 1.86069
1.37735 -1.22244 3.32225
0.326278 -0.373865 3.0909
1.28422 0.359527 2.82533
-0.540035 0.74827 1.9445
0.0483048 -0.328739 3.06551
-0.315016 0.790245 1.968
-0.549232 0.456476 2.98783
-1.52238 -1.14864 3.26503
1.00464 1.11378 2.83293
0.120438 -0.287437 3.05936
1.82558 0.393559 2.76349
0.532997 -1.18471 3.53719
-0.247832 -0.212294 3.08792
-0.262611 0.869326 1.95665
0.441317 -1.06686 3.44213
0.374272 1.33737 2.89338
-0.858306 0.594701 3.16789
-0.283234 0.921988 1.9355
1.76135 0.731483 2.58064
-0.428128 -0.170495 3.09108
0.278254 0.508111 2.92863
0.203726 -1.04767 3.55244
-0.198582 0.63974 3.09004
-0.545709 -0.13799 3.08981
-1.3227 -0.922027 3.26124
-0.480208 -0.956691 3.53297
-0.0712482 -0.090156 3.01743
-0.121764 0.593777 2.99957
0.719582 -1.22543 3.48791
1.73151 0.420771 2.696
0.961249 -0.322985 2.89639
1.48352 1.02877 2.52998
0.48286 0.400368 2.89582
1.36033 -1.14531 3.33949
1.12609 -0.279906 2.83693
0.101107 1.12185 2.90655
1.19109 1.12304 2.68724
1.54413 0.426867 2.69027
0.981645 -0.248227 2.92184
0.19692 -1.11108 3.46852
0.880105 -0.485162 3.05695
-0.0537276 1.0591 2.99314
1.54557 0.278252 2.7013
-1.07499 -1.30943 3.3488
2.51216 0.027994 2.92316
-0.948384 -0.453778 3.27657
-0.0446089 1.01755 2.96646
-1.44797 -1.19888 3.08482
1.72103 0.252223 2.6809
-1.12941 -0.421153 3.25361
0.0788327 0.361221 2.91444
1.52183 -1.31169 3.42629
0.279676 1.12395 2.97974
-0.00549808 0.530909 1.21694
1.62083 -1.18692 3.21222
-1.48035 -0.385226 3.21888
-0.758138 0.70642 1.89606
0.0268026 0.584674 1.46249
0.181057 0.330963 2.92009
0.566651 -1.57178 3.61959
-1.2695 0.222942 3.02592
-1.4303 -0.605547 3.1667
1.57766 0.818286 2.58073
0.506051 -1.57745 3.75221
-1.1059 0.171329 2.92567
2.44915 0.653277 2.78343
1.50371 -0.565861 3.04657
1.40591 0.807209 2.68361
-0.49019 1.44518 2.95956
0.981801 0.936251 2.84003
0.594176 0.228069 2.89292
0.0516302 -0.529629 3.17889
2.16339 -0.709219 3.22352
-1.35806 -1.32646 3.25689
0.628035 0.223821 2.91339
-1.18207 -1.36405 3.22739
0.188491 0.96673 2.99471
0.672922 -0.576414 3.11998
-0.413194 -1.46965 3.59166
-0.817738 0.206167 2.97199
-1.27442 -0.541749 3.25634
-0.263602 0.940067 3.03791
0.022995 0.710353 1.80127
0.116813 1.00055 2.96384
2.49773 0.818581 2.88013
-1.03163 -1.62978 3.45937
0.435416 0.259808 2.88414
-1.06118 -0.485758 3.09076
2.27742 0.0245448 2.96223
0.314658 -1.4693 3.65984
-1.12888 0.77059 2.76615
-1.08073 -0.765955 3.33729
-0.226658 0.0871207 3.03023
0.056574 1.31679 2.88024
-0.0429812 -0.698259 3.2554
-0.412033 1.31602 2.95314
-0.0372751 0.772343 2.98758
-0.717915 0.0592424 3.03917
0.37199 -0.647207 3.15757
-0.109743 0.162083 3.01236
-0.33942 -1.59384 3.52051
-0.175615 0.885228 3.02951
0.0815388 0.689974 3.34586
-0.743605 0.861899 2.93904
-1.03317 -1.46144 3.30643
1.40963 0.104228 2.8498
1.43997 -0.580877 2.9337
-0.298409 0.858929 1.9311
-0.838886 -0.995208 3.80012
-0.958014 0.699852 2.944
-0.147538 -0.0566112 3.01953
1.51094 -0.681115 2.66972
-0.97405 0.728643 3.25019
0.30689 -0.0240342 2.96521
-0.212204 1.01318 2.76517
1.82116 0.355164 2.65283
0.701855 0.733022 2.94268
-1.20406 0.0249272 3.09143
1.51559 0.406715 2.27159
1.45492 -0.719342 2.9292
0.429942 -0.21301 2.99147
-0.129502 0.942663 2.14989
0.347848 1.27056 2.90986
-0.447448 -1.08501 3.51109
-0.987684 0.55402 2.96334
1.32818 -0.17054 2.79133
-0.633037 0.807645 1.86557
1.69799 1.11181 2.56109
-1.10889 -0.967978 3.26557
-0.348273 0.512916 2.9935
-0.592558 -0.983396 3.43431
-1.12846 0.606026 2.8669
-1.03534 -0.132677 3.16647
1.7134 -0.794403 2.8063
1.56829 0.525807 2.67709
-0.735735 -0.0853008 3.03771
0.681339 -0.802567 3.1869
1.0469 0.00995778 2.87484
2.54691 0.0111007 3.78265
0.928865 -0.0270994 2.88091
-0.31303 0.758767 3.09086
0.219297 -0.781346 3.28813
1.03136 0.681954 2.87104
1.85746 -1.40646 3.26873
-1.38592 -0.723442 3.14278
-0.869566 0.766737 2.65009
-0.352485 0.0428812 2.97791
1.34728 0.706519 2.70646
-1.38726 -0.173111 3.08305
1.359 -0.936804 3.06104
-0.391602 0.579468 2.9955
1.90162 0.59198 2.6076
1.54914 -0.135798 2.74369
-0.547124 0.855084 1.88399
1.8884 0.368342 2.6384
-1.43748 -0.910697 3.17817
0.607123 0.536314 2.92012
0.867242 -0.0994794 2.95268
1.39311 0.595763 2.6955
-0.105456 -0.906113 3.34786
0.77884 1.26565 2.82494
0.639666 -0.064958 2.93849
-1.40452 -0.824811 3.13209
1.73737 0.565973 2.70145
1.15482 -1.15948 3.3807
1.74932 0.449847 2.74466
0.0752455 -0.294905 3.06202
-0.451032 0.775919 1.86275
-0.698296 0.458193 3.07434
0.0995834 -1.15043 3.55999
0.000273956 0.844452 2.09144
0.469839 -0.261646 2.97652
1.59382 -1.00018 3.13025
1.66553 -0.206368 2.72119
0.617158 0.501352 2.91831
-0.691954 0.71162 1.91368
1.3313 -0.413753 2.74593
0.96698 1.01349 2.77604
1.29891 -1.36182 3.44506
1.40358 0.313499 2.78388
-0.253412 -0.417801 3.17015
0.52476 1.02307 2.91411
0.333046 -1.31454 3.50456
0.246704 0.291531 2.9204
1.55393 0.365447 2.63202
1.2736 -0.36514 2.85893
0.692825 -1.28069 3.50947
1.19232 1.06221 2.7115
-0.0243912 0.504992 1.3187
-0.613632 -1.19125 3.45441
1.81821 -0.336846 2.81367
1.34551 1.01536 2.669
2.27099 0.299271 2.51328
1.22896 0.3555 2.8448
0.775122 -0.895186 3.22052
1.55792 -0.0973392 2.83827
1.93199 0.000323432 2.73698
0.0855924 0.647677 3.12579
1.03956 -1.74803 3.69455
1.25609 -0.0629655 2.7782
1.65201 1.14291 2.56437
0.370569 0.712377 3.02327
-0.479872 -0.874495 3.36375
0.781475 -0.0271477 2.91137
-1.2318 0.657128 2.88305
0.227907 -0.828426 3.31603
1.32289 0.494912 2.84034
1.24364 -0.244272 2.77644
-0.262005 0.878341 1.97248
-1.22837 -1.05677 3.3061
-1.27342 -1.01478 3.30419
-0.383125 0.779096 2.02934
0.835771 1.15964 2.79346
1.55167 -0.216954 2.86843
-0.459935 0.488979 3.00886
-0.662116 -1.00843 3.42819
-0.898634 0.596521 2.99914
0.0637821 -0.171998 3.02859
0.276756 0.541438 2.93048
-0.294449 -0.94269 3.35603
-0.607955 0.872411 1.88271
0.506786 -0.137342 2.94842
0.89993 1.05615 2.77706
-0.63716 0.372433 3.0076
-1.00594 -0.371999 3.14344
-1.15787 -1.21301 3.34447
1.61096 -0.320495 2.83823
-0.474812 0.756778 1.87749
1.1282 -1.21226 3.42204
0.598897 0.440146 2.90887
-0.76635 0.7273 1.85147
-0.501518 -0.294542 3.09861
0.80173 0.405226 2.91596
1.00559 -1.19724 3.50869
1.46981 -0.483427 2.80393
-0.0470314 0.623768 1.34467
-0.577536 0.276978 2.98952
-0.443523 -1.43816 3.52562
1.08141 0.946578 2.75894
1.3621 0.88581 2.68544
0.953391 -1.52714 3.78133
-0.31562 0.237746 3.00513
-0.0315225 0.573543 1.30044
1.25688 -0.47792 2.93732
-1.41191 -1.22748 3.1667
-1.09426 0.348625 2.94983
0.396738 -0.446917 3.08991
-0.695664 0.720306 1.93799
2.31551 0.0372966 2.95413
-0.171784 -1.32892 3.58607
0.999748 0.287362 2.91411
-0.00829934 0.543384 1.289
1.05603 -0.395407 2.91821
0.175531 1.02639 2.91879
0.735142 -1.16291 3.28084
0.988451 0.440936 2.89609
0.0254952 -0.337459 3.08234
-0.521924 0.41412 2.99913
0.370328 -1.19505 3.54817
1.01416 1.08159 2.76798
-0.994195 -0.292343 3.13421
0.215287 1.20341 2.89528
-0.842414 0.499781 3.0222
-1.3126 -0.258394 3.14438
1.55116 1.02826 2.54164
-0.956675 -1.02368 3.1619
2.59366 0.936353 2.86923
-0.242027 -0.493233 3.1863
1.35411 0.953456 2.67983
0.594675 0.288734 2.89178
-0.869439 -1.40572 3.53442
-1.30651 -0.452151 3.15984
1.47305 0.883069 2.56209
0.395985 -1.37827 3.56371
0.86727 0.259065 2.87159
1.66153 0.334752 2.67061
0.898019 -1.31939 3.49297
-0.185149 0.790448 2.06965
-0.0174167 0.533292 1.24476
0.235433 -0.407855 3.09753
-1.07447 0.352164 3.02482
1.25985 -1.24068 3.35891
1.11468 1.00772 2.74297
1.59684 -0.360325 2.82208
0.651741 -0.456962 0.857854
-0.967213 -1.48667 3.41114
-1.33858 -0.644854 3.37301
2.26604 0.208704 2.74448
0.393721 0.154995 2.91221
-0.396988 0.893432 3.02224
-0.478522 -1.60469 3.41447
2.25767 0.508696 2.6411
-0.50522 1.40404 2.96384
-1.44955 -0.579636 3.18469
-0.852529 0.668017 2.01882
0.812346 -1.52478 3.57458
-0.827997 0.235476 2.99207
-1.00049 -0.544175 3.21812
1.6712 0.810302 2.54265
0.801279 -1.56217 3.7925
1.23938 0.183867 2.79008
-0.0358755 0.0451162 2.95567
-0.229832 1.06848 2.45275
0.990983 0.75804 2.87792
1.68159 -0.7118 2.85654
0.981745 -0.735064 3.14964
0.0305981 0.747934 3.04035
2.00484 1.07237 2.6972
0.679284 0.00940476 2.91175
0.759505 0.115005 2.86777
-0.298996 0.874403 3.02937
1.82434 0.715709 2.57339
0.871502 -0.684149 3.13143
0.608082 -1.7764 3.9082
0.27434 0.0816187 2.95484
1.05393 -0.63974 3.06748
2.50026 0.0178659 3.7554
0.763847 0.802202 2.90423
0.705399 -0.737867 3.16608
1.1933 0.753374 2.76404
-0.0472516 1.12094 2.92696
1.06603 0.0762998 2.80064
1.39285 0.689628 2.65714
1.47508 -0.63616 2.84895
-0.282324 -1.07877 3.44475
1.13933 0.0306007 2.84217
-0.607975 -1.57219 3.46118
-0.672841 0.151027 2.97575
2.06529 1.16269 2.80725
-1.37156 -0.647619 3.16487
-0.111355 0.912893 3.10323
-0.258846 0.115249 2.99888
-0.678103 -1.54497 3.51879
2.11356 1.06307 2.76681
0.232217 -0.630184 3.22105
1.64337 0.743696 2.60256
1.11422 -0.817334 3.06664
0.788083 -0.065996 2.90479
0.560536 -1.7734 3.74722
-0.268175 0.683295 3.16318
1.92448 0.645554 2.60736
-1.4296 -0.0233483 3.08517
-0.904012 -1.61898 3.41758
0.1129 0.742032 3.04124
1.91833 -0.164655 2.72025
0.808603 -0.811264 3.18348
1.25397 0.00554177 2.76612
0.340396 0.708076 3.02753
-0.407808 -0.78789 3.32135
1.28895 0.515786 2.81052
0.168984 -0.229716 3.03789
-0.278069 0.909576 1.96615
0.047529 -1.06408 3.41621
-0.629708 -1.00575 3.40969
-0.447503 0.756806 2.22485
-0.684305 0.801805 1.86578
0.991558 -0.180528 2.92479
0.827177 0.503467 2.96433
-0.548847 -0.956776 3.32685
1.04949 0.594509 2.88444
-0.386301 -0.147948 3.09467
0.441717 0.558477 2.90945
1.21692 -0.889485 3.15388
0.670398 1.25074 2.84362
0.408636 -0.103247 2.9664
-1.02841 -1.2102 3.50716
-0.376248 -0.347342 3.13077
-1.31516 0.420547 2.95399
-0.393525 0.7593 1.94391
1.6666 -0.278184 2.6189
1.16525 1.12108 2.70278
0.291868 -1.20947 3.5535
0.358664 0.461386 2.87828
1.13684 -0.256442 2.83039
0.395281 1.14271 2.86935
-0.58502 0.448212 2.9773
0.444027 -1.15587 3.53615
1.26281 -0.175151 2.77451
-0.422397 0.723903 1.96896
0.302733 1.31097 2.90676
-0.934778 -0.983624 3.37952
1.12689 0.553607 2.83854
-0.685026 0.856499 1.8654
-0.803127 -0.141612 3.08844
-0.551517 0.552496 3.04108
1.83523 0.66152 2.60272
-0.751386 -0.957721 3.36782
-0.567868 -0.100644 3.09787
-0.866891 -0.904667 3.30068
-0.1179 0.694551 3.12167
-0.194894 -0.893139 3.4318
-0.323097 -0.060822 3.05441
1.38939 0.56408 2.74885
-1.42953 -1.08678 3.20487
0.038382 0.480169 3.00157
0.819288 -0.304476 2.98429
0.6231 1.19599 2.88398
1.41896 0.4149 2.76461
-0.396995 -1.19074 3.6982
-0.335198 -0.265728 3.10508
1.42372 1.05783 2.63271
-0.369231 0.850351 2.41277
0.0971407 0.501562 2.96431
1.29329 -0.212197 2.8041
0.690942 -1.09113 3.41997
-0.906564 -0.462125 3.20296
0.819622 1.033 2.83542
0.194557 -1.42143 3.65788
1.66679 0.297179 2.72372
-0.306895 -0.421128 3.17878
1.12635 0.984499 2.78134
0.68154 -1.37085 3.63013
0.909348 0.289097 2.86065
1.53273 0.368229 2.6975
1.65232 -1.20946 3.22403
1.53187 0.987237 2.52426
0.0625903 0.539621 1.29819
1.22905 -0.37465 2.92329
0.00290641 0.359594 2.958
1.67248 -1.10337 3.06596
-0.808091 0.706946 1.87053
-0.716752 -0.349722 3.12572
2.47637 0.933195 2.90135
-0.730823 -1.47699 3.49445
1.09295 -0.547064 2.91705
2.08789 0.526503 2.59999
-1.36514 -1.29866 3.10457
-0.264575 0.184699 2.96937
1.65102 -0.500732 2.82475
-0.659709 0.644836 2.08339
0.118482 0.592425 1.34563
2.02446 0.458852 2.61673
0.741321 0.972883 2.87941
0.25024 0.262703 2.93305
-0.0384002 -0.509287 3.18862
0.968535 0.931952 2.85869
-0.585545 -1.395 3.49305
1.51592 0.206752 2.70385
1.11606 -1.10911 3.36384
-0.507185 0.517588 2.99892
-0.0738385 -0.257979 3.08178
-0.317597 0.863958 1.94197
1.19295 0.457196 2.82459
-0.738012 -1.06217 3.45737
-1.13586 -0.220573 3.16095
1.55199 1.03375 2.47217
-1.51935 -0.956563 3.17289
1.66238 0.542873 2.75486
1.24684 1.16696 2.69419
-0.23895 -0.179198 3.07607
-1.12992 -0.915115 3.20844
-0.0205018 0.550026 3.02311
0.30954 -0.142257 2.9688
-0.515678 0.853849 1.88441
0.877639 1.06713 2.81958
-1.101 0.378381 2.99407
1.17411 0.993884 2.70817
-0.484663 -0.375457 3.09765
0.9761 0.325439 2.91562
0.0630205 -1.31741 3.63833
-1.13705 -0.361335 3.26694
1.54825 1.00426 2.49317
2.64484 0.925798 2.85866
-1.25913 -1.15913 3.33459
0.751178 0.44464 2.91822
0.254862 1.1324 2.95211
0.442939 -0.292124 2.99877
1.3254 0.388121 2.79095
-0.605225 -1.17757 3.50872
-1.21071 -1.32634 3.24308
1.53109 0.238857 2.59003
0.525778 -0.304431 0.580315
1.31085 0.934342 2.73116
1.30403 -0.51044 2.90471
-0.67524 -1.39184 3.51354
-0.614004 0.226344 2.92874
0.991628 -0.490256 3.00451
-0.46678 0.687049 2.08122
1.85932 -1.89948 3.62123
0.72286 -1.39674 3.57132
0.692318 -0.457322 3.08943
-0.0288074 -1.34283 3.58527
0.766426 -1.81142 3.81853
1.50618 0.277501 2.75306
0.0409081 0.59611 1.30592
-0.19115 -0.417361 3.14285
-0.545804 0.699421 2.00116
-1.46123 -0.69239 3.19233
-0.641878 0.852603 2.98504
-0.501492 1.35557 2.96346
-0.12331 0.121972 3.00053
0.0656701 0.822998 3.03523
-0.717976 -0.679778 3.40416
2.28538 0.677005 2.75654
-0.993491 0.10572 3.22786
0.077715 -1.58355 3.48226
0.742285 -0.611443 3.11578
0.190513 0.935889 3.02126
0.637869 -1.65766 3.72974
1.53542 0.183427 2.79905
-0.178626 1.11824 2.87394
-0.723882 -0.567952 3.20832
1.59657 0.766575 2.56961
-1.34595 -1.40376 3.32542
-1.03971 0.167355 3.00203
0.722776 -1.6584 3.6526
0.996885 -0.479017 2.93531
-0.0294643 0.588081 1.53196
1.07714 0.288187 2.89319
-0.69272 0.706165 1.97822
1.06797 -1.36208 3.33641
-1.08548 -1.27427 3.3397
1.23754 0.254908 2.8144
1.51843 0.883023 2.59211
0.0765421 -0.451452 3.12333
-1.48341 -1.23678 3.29133
1.08257 0.352523 2.87184
-1.3311 -0.431946 3.24046
-0.231642 0.776785 2.03586
0.0279747 0.550356 1.32358
-0.918322 -1.23047 3.44299
-1.36019 0.343717 2.99125
-0.0225437 0.5224 1.45055
1.48588 -0.363928 2.82004
-0.42152 0.736629 1.99578
1.22849 0.826946 2.75653
2.27699 0.73406 2.83629
-0.413697 0.154602 2.99128
-0.74974 -0.621714 3.28884
0.110095 -1.63548 3.69311
2.23487 0.519994 2.64273
-0.709643 0.662478 2.00633
1.4615 -0.562954 3.00803
-0.348418 0.232368 3.05915
-0.182243 -1.53107 3.61491
-0.431548 -0.54156 3.24082
1.35638 0.840834 2.69709
0.221932 -1.45915 3.55428
-0.892605 0.196104 2.97444
-0.215433 1.34467 2.92538
-0.247113 1.01584 2.23591
0.490689 0.0389001 2.91902
-1.08595 -0.788754 3.40039
-0.611246 0.760512 2.95351
-0.563683 -1.03217 3.58958
-1.07296 0.748982 2.97518
-1.41462 0.0209041 3.16808
1.38718 -0.705105 2.98768
0.387451 0.110255 2.92539
1.4676 0.330083 2.1891
0.565964 0.827396 2.92503
-0.86417 -0.699766 3.23477
0.135154 -1.57767 3.47372
-0.820067 0.0896593 3.05012
1.90617 1.12678 2.94506
-1.06975 0.787777 2.8377
0.179048 -0.660873 3.21141
1.28018 0.57202 2.76525
1.84249 0.320645 2.68443
-0.361657 -0.0949588 3.07241
0.0146493 -1.7142 3.68333
-0.979695 -0.898246 3.35091
1.67293 -1.06705 2.94595
-0.652227 -0.0677592 3.07901
1.7646 0.661373 2.78947
1.47906 -0.801284 2.94623
-0.679871 -0.024783 3.07262
-1.05359 0.661263 2.97496
-1.20345 0.238155 3.00156
-1.18662 -0.794738 3.20053
0.0177677 0.716998 3.24393
0.0351453 1.26545 2.85567
-0.464563 -0.0653877 3.07848
-0.386022 0.866366 2.36069
0.115237 -0.877844 3.34275
-1.45425 -0.0286193 3.08773
-1.2 0.729524 2.91628
-1.23605 -0.789088 3.15122
1.43423 -0.0052614 2.7872
-0.692451 0.698128 3.02572
1.76118 0.93223 2.53133
-0.0913662 -0.794577 3.32718
1.71195 0.48365 2.64187
0.332632 -0.231546 3.03925
-0.377161 0.846988 1.91256
-0.964632 -1.05092 3.41319
1.30409 -0.94962 3.102
0.459167 0.486203 2.88492
-0.135685 0.992415 2.64358
1.15186 -0.175125 2.77149
-0.354958 0.869008 2.45738
1.84576 -0.861109 2.91416
-1.02252 0.611674 2.97352
0.979417 -0.149502 2.89826
-0.758999 -1.0156 3.6301
0.37526 0.552412 2.93168
0.473689 -0.111314 2.9728
0.919091 1.2408 2.76343
-0.553087 0.745637 1.90837
0.913895 0.391304 2.91924
0.467396 -0.34477 3.04525
1.21978 -1.17639 3.294
1.57847 -0.306521 2.95571
1.65141 1.04779 2.53525
1.1168 -1.1974 3.47328
1.11363 0.462044 2.86478
1.32427 1.05719 2.62907
-1.42535 -0.270369 3.11291
-0.253251 0.444979 2.99009
0.595367 -1.11092 3.38126
0.397576 -1.42848 3.55098
1.17114 0.271848 2.80031
0.0632057 1.00208 1.97426
-0.799785 0.692975 1.96871
1.18752 -0.474261 2.87048
-0.19994 -1.38213 3.58117
-0.676279 0.258626 2.99061
-0.366517 0.720926 2.09565
0.733186 -0.454171 3.01426
-0.0124228 1.35421 2.88957
0.0758407 -1.33938 3.56296
0.446243 0.344011 2.878
0.700719 -0.41761 3.0405
-0.4521 0.741319 1.95256
-0.104874 -1.25887 3.48815
0.0917912 0.568272 1.35337
-0.969687 0.328258 2.96013
-0.233967 -0.386621 3.14725
1.50469 0.938646 2.56775
0.865603 -1.16875 3.38966
-1.50975 -0.321261 3.22292
0.450193 0.425357 2.89552
-0.294192 0.781421 1.96586
1.08342 -0.258593 2.83684
-0.696444 0.684897 1.9361
-1.35136 -1.06488 3.2319
-0.424814 0.508441 3.00804
-0.743976 -0.219934 3.08272
1.09621 1.10397 2.69264
0.909915 0.462953 2.91607
0.408547 -1.07422 3.41203
1.50857 -0.431931 2.81184
1.15702 0.297694 2.80903
-0.933841 0.0760381 3.08239
-0.599709 0.697547 1.94523
-0.432809 -1.35123 3.50055
-0.883432 -1.27527 3.42718
-0.0346074 0.28802 2.93069
-0.660605 0.693995 1.95878
-0.584833 -0.433564 3.24389
-0.73031 -1.25291 3.47492
-0.92874 0.407329 2.95729
-1.09574 -0.37046 3.02538
0.394815 1.10403 2.872
0.0762787 0.556765 1.35862
-1.06255 -1.18445 3.34904
1.68119 0.328685 2.69197
0.0529072 0.702491 1.39889
-0.610361 0.723529 1.91001
-0.777281 -0.359699 3.18318
0.881842 -1.50675 3.46435
0.881564 -0.573168 3.05002
2.46324 0.730975 2.85523
0.291194 0.176781 2.93178
0.290586 0.9272 3.03609
1.89332 -0.213204 2.78303
0.817211 0.968325 2.87142
1.02373 -0.527459 2.98899
0.199122 -1.69552 3.59895
-1.53939 -1.38462 3.31474
1.13736 0.246755 2.81539
-0.17786 -0.506463 3.18282
1.10558 0.88984 2.7534
0.0187338 -1.43383 3.56925
0.351961 0.206389 2.89984
0.929359 -0.727703 3.11971
1.5432 0.0726751 2.96074
-0.458653 1.05522 2.85706
2.04311 0.519936 2.60686
-0.525986 0.804407 3.00666
1.36416 0.692481 2.66797
-0.141342 1.38762 2.9068
0.281258 0.0333779 2.95252
1.09497 -0.674183 3.01849
0.196793 0.140125 2.96254
-0.566744 -1.56219 3.4349
1.38786 -1.35641 3.26317
0.965139 0.842665 2.86174
-1.35197 -0.665363 3.21196
-0.21857 -1.58627 3.59227
0.237423 0.108761 2.95523
-1.23651 -0.650299 3.34766
2.26224 1.06865 3.01923
-0.391865 0.8604 3.07493
0.474344 1.07206 2.86975
-1.24393 -0.418707 3.1647
1.47706 0.34398 2.85286
0.957995 -1.50298 3.92714
-0.225691 0.764304 2.06991
0.172855 -0.380549 3.07872
0.879911 0.316652 2.90574
0.921131 -1.33002 3.58072
-0.0139617 0.441068 2.96461
1.3435 -0.327821 2.76472
-0.403317 -1.24085 3.5559
0.476063 1.13525 2.86482
0.126517 1.36833 2.83875
-0.410026 -1.18911 3.53086
1.11831 1.04195 2.66803
-1.12973 -0.303664 3.18932
0.754479 0.395414 2.90911
-0.0823622 0.260523 2.95616
0.867222 -1.4919 3.59395
-1.16299 -0.562089 3.34225
0.448727 0.992672 2.94526
-0.805568 -1.39003 3.47951
0.226499 0.21824 2.92714
0.0338585 0.522646 1.31094
-1.16686 -0.513 3.24705
0.382729 0.950689 2.94833
-0.401082 -1.36658 3.55193
2.32001 0.461044 2.59868
0.651772 -0.460739 3.07241
-1.35385 0.304563 2.95481
0.0336594 0.557763 1.23163
1.47286 0.90935 2.56833
0.39841 0.835069 2.97785
0.124975 -0.703513 3.24097
0.992944 0.101476 2.85545
-0.00360776 1.36779 2.88465
0.556345 -0.665529 3.21443
0.441857 0.80238 2.95214
1.12669 -1.74888 3.79554
1.87633 -0.671827 3.0061
-0.471867 0.0795376 2.97634
-0.44982 -0.632833 3.32044
1.155 0.173364 2.78678
-1.21103 -1.42293 3.22923
1.74696 0.0637508 3.29588
0.885289 0.899042 2.90085
1.69664 0.781065 2.61861
-1.11351 -1.41868 3.32504
-0.261856 0.150846 2.96054
-0.666724 0.790878 2.97337
-0.484322 -0.595755 3.31297
-1.24765 0.0180588 3.12593
-0.347101 -0.839987 3.39169
0.901562 0.708488 2.88272
1.72175 -0.0357629 2.70381
-1.41879 -0.77238 3.19803
-0.533076 0.710507 3.07931
-0.785016 -1.26193 4.36702
1.54789 0.0507781 2.37198
0.603208 0.777106 2.99393
-0.603627 0.0473421 3.03894
1.101 -1.67103 3.52101
0.0352307 1.21692 2.88044
-0.0902494 -0.745946 3.2626
-0.574065 0.823939 2.73082
2.10475 0.264439 2.64318
1.13047 0.135046 2.81089
-0.513446 -0.627497 3.28051
0.258924 0.855435 3.05276
-0.804274 -1.55566 3.52023
-0.940098 -1.62989 3.44006
1.68734 0.0958063 2.7551
0.550169 -0.590196 3.18568
-0.564111 0.68391 2.09054
2.24415 0.562403 2.69283
0.256287 -1.54687 3.63738
-1.00371 0.239867 3.01805
-0.155163 1.06664 2.98241
-1.22206 -0.560087 3.29915
1.20255 0.853391 2.74966
-0.0867051 -1.47644 3.60974
-1.42676 0.199966 3.08526
-0.349772 1.29917 2.94866
2.13884 1.06557 2.93458
0.18784 -0.789415 3.29559
1.64217 0.0321154 2.70268
-1.13093 0.781941 2.96833
-0.596614 0.00820058 3.05111
-0.691887 0.725765 2.9626
-1.18682 -0.725379 3.18959
-0.358847 0.982415 2.70355
1.62628 -0.665005 2.92245
1.5633 0.0698502 2.6952
0.672875 -1.85639 4.02008
1.97499 0.117725 2.61114
-1.25399 -0.678596 3.31223
0.0831298 0.811232 3.01997
1.61255 -0.147122 2.78566
1.43431 -0.869069 2.92264
1.07445 0.586075 2.86818
1.93743 0.542536 2.63227
1.14626 -0.0997656 2.76367
0.392584 1.30564 2.90992
-0.069782 -0.917124 3.34231
-0.649339 0.592978 3.10001
1.88897 -1.02722 2.90698
1.61598 0.620087 2.63348
-0.726761 -0.0591716 3.06491
1.52981 -0.793286 2.94469
0.871993 0.628925 2.90142
-1.38956 -0.022546 3.11351
1.51716 -0.752708 2.91558
1.1881 -1.28793 3.39486
-2.54676 -1.9648 5.52484
0.644833 0.495323 2.90816
0.618525 -0.267123 2.95602
-0.790044 0.735677 2.37372
-0.0974167 0.47737 2.96956
0.480261 -1.09209 3.45939
-0.411878 0.772542 1.87237
0.48595 -0.222177 2.9778
1.4767 -0.886608 2.87416
0.0867834 -0.184261 3.02225
-1.28686 0.532451 2.87086
0.155523 1.29183 2.89978
-1.09533 -1.01986 3.2439
0.451862 0.514919 2.89646
-0.295351 -0.227603 3.11334
-0.611645 0.896036 1.86309
-0.1324 -1.02416 3.46194
1.13815 0.48487 2.87661
0.937313 -0.195995 2.90969
-0.232859 0.814696 1.92897
-0.0504104 -0.973734 3.36358
1.79809 -0.151574 2.80707
-1.33571 0.566818 2.89898
1.0609 1.23179 2.73701
-0.756424 0.7275 1.87359
1.10443 -0.365656 2.88917
-0.753038 0.40207 2.98004
-0.381587 -1.29426 3.55596
0.630648 1.07743 2.88498
0.0884911 -0.35507 3.09768
-1.23118 0.374537 2.99753
0.508925 -1.28493 3.61877
0.925075 -0.301464 2.94838
1.36868 1.07655 2.61164
-0.936468 0.0353734 3.08412
-1.03941 -1.12605 3.35592
-0.89464 0.478543 2.95742
0.843078 -0.279583 2.99355
1.63044 1.00126 2.49048
0.271157 0.421197 2.89335
0.0196119 -1.12615 3.44145
1.63132 0.259212 2.63582
1.36247 -1.41568 3.43892
-0.0513549 0.543199 1.31693
-1.24316 -0.51912 3.25903
-0.483358 0.708318 2.00791
0.356512 -1.32513 3.37235
1.31233 0.246873 2.80324
-1.03961 -0.456131 3.10287
-0.512979 0.695874 2.03742
-1.1226 -1.25301 3.33821
2.16665 0.424292 2.61747
0.798558 -0.425236 3.02496
2.40538 1.01723 2.9253
1.45681 0.294138 2.7701
1.59557 0.942455 2.58009
0.048416 0.887487 3.05635
-1.4203 -0.653552 3.11978
0.342988 0.14234 2.949
0.0856148 1.34267 2.89162
1.14733 -1.66788 3.58538
2.24131 0.602336 2.71974
0.337696 0.847722 3.02733
-0.495421 -0.6466 3.33737
0.177374 0.102476 2.94754
1.49051 -1.61079 3.54077
1.52415 -0.529414 2.78946
-1.32521 0.24053 3.06117
1.29537 -1.56658 3.60715
0.0470405 1.30302 2.88093
0.297253 0.965978 3.0019
1.43605 0.81637 2.65099
0.919693 -1.52611 3.64076
1.01 0.164417 2.83166
-0.362595 1.41212 2.93686
0.361773 -0.544945 3.14482
1.55789 -0.443696 2.8543
0.0806675 0.30867 2.9128
-0.0245949 0.928082 2.26762
1.29085 -1.40766 3.52877
0.426026 1.04251 2.89732
0.567798 -1.35145 3.54257
1.24202 0.953171 2.72718
0.192081 0.278461 2.91341
-1.32449 -0.426874 3.16585
2.22037 -0.80516 3.33877
1.04902 -1.18987 3.23455
1.64465 0.362434 2.68126
0.612353 -0.383045 3.03166
0.0290762 1.09886 2.8828
-0.100551 -1.34518 3.80632
2.17657 0.888477 2.92519
0.227026 0.346564 2.92619
0.154683 1.09028 2.93975
-1.18231 -0.352828 3.12717
-0.061555 0.913053 3.02353
1.67789 0.621005 2.62388
-0.963697 0.189632 3.04189
0.819271 -0.578032 3.09754
0.846731 -1.5071 3.45877
2.21398 0.380493 2.60874
-0.600288 0.665586 1.9832
0.963012 -0.539493 3.00975
0.143045 0.258014 2.92895
0.125714 -1.52381 3.68945
1.12496 -0.478047 2.92084
1.52399 0.847126 2.60285
1.47545 -1.40275 3.37055
1.40617 0.20275 2.83317
2.39881 0.162301 2.83841
-1.38691 -0.786558 3.32934
-0.237162 1.31917 2.93399
-1.46054 0.0835233 3.20479
0.300272 0.775662 2.91793
-0.0742749 1.34839 2.89815
-0.957952 0.0432359 3.04365
-0.497346 0.78968 3.07773
0.254009 -0.719996 3.28731
0.795129 -1.73298 3.76316
0.999415 0.126585 2.84676
-0.560171 0.914472 2.86524
1.1555 -0.631195 2.9469
-0.447757 0.868369 3.01115
0.703011 0.0978831 2.88865
0.147339 -1.59601 3.61455
-0.160817 0.527174 1.46593
1.47341 -0.575026 2.81861
-0.836321 0.845511 2.93985
1.12955 -0.109915 2.78297
-0.212445 0.639788 2.9878
1.19242 -1.69027 3.66973
1.24571 -0.888925 3.13757
0.373952 -0.0699812 2.93948
-1.02443 -0.873367 3.34811
0.463433 0.589134 2.93946
1.53444 0.262272 2.30669
0.59704 0.725267 2.97667
-0.74315 -0.0383029 3.08231
1.25907 -1.68087 3.54138
0.550444 -0.00288567 2.95706
1.77801 0.800385 2.57268
-0.943948 -0.987872 3.80054
1.27334 0.636511 2.76459
-0.560649 -0.847887 3.46868
1.75851 0.907162 2.54349
0.0399011 -1.49851 3.64954
-0.275494 0.259596 2.97645
0.246237 1.00442 3.00636
0.89471 -0.54094 3.04357
-1.19915 -1.35146 3.4139
-0.869336 0.229103 3.01951
-0.681305 -0.505799 3.25028
0.702248 0.941146 2.90591
0.626101 -0.401086 0.777847
0.0630429 1.01426 2.93065
2.24932 0.178105 2.85686
-0.96651 0.304425 3.01314
0.126516 -1.71044 3.62312
-0.0659718 -0.477346 3.19119
2.28273 0.802394 2.87883
-1.03966 -1.29573 3.38423
1.15344 -0.673975 2.99522
0.718495 0.827121 2.95125
-1.01293 -0.682965 3.33422
-0.893621 0.119007 3.04437
-0.843293 0.829985 3.05153
0.910696 -0.665723 3.16226
2.3952 0.744133 2.85527
0.51796 0.0714609 2.89691
1.23783 -1.60967 3.49136
1.01397 -1.61009 3.61498
0.0333004 0.168839 2.93895
2.23447 1.03488 3.07859
1.55122 -0.567147 2.77208
-0.387225 0.903221 2.97788
-0.899308 0.151441 2.98334
-0.352644 -1.4632 3.42671
0.0625861 1.32381 2.8847
-1.14762 -0.597559 3.34151
0.179969 0.879247 3.00396
0.418795 -0.8375 3.29945
1.03586 -0.0386683 2.87847
1.59427 0.0463106 2.41192
0.893416 0.6619 2.87633
-0.518315 0.916026 2.87685
-0.0485927 1.11677 2.43854
-0.877039 0.768556 2.95347
-1.35356 -0.795949 3.30382
-0.107785 0.0407339 2.99627
0.485877 0.72126 2.97907
0.56689 -0.754902 3.2312
-0.191794 0.00361778 3.03342
-0.318966 0.66182 1.67571
0.497904 -0.182937 2.98089
1.52609 1.09894 2.5637
0.250094 -1.04532 3.49308
-0.164621 0.546481 2.85518
1.72415 0.920038 2.53333
-0.29402 -0.1441 3.02578
-0.167099 0.878306 2.01452
-1.29082 -0.936824 3.25934
1.64068 0.505879 2.78975
0.546214 -0.925968 3.31447
1.41348 -0.109055 2.71313
-1.30289 0.618041 2.80575
-0.669704 -0.915773 3.45078
1.58611 0.538303 2.64576
1.27487 -0.0729218 2.75383
0.283292 -0.810317 3.35445
0.0265772 0.0341081 2.95084
0.447809 0.7524 2.94962
0.913601 -0.742252 3.16337
1.746 0.000938911 2.74405
1.01222 0.705071 2.87494
2.32648 1.0176 3.14674
1.512 -0.0325874 2.21669
0.690774 -0.698005 3.16819
-0.937551 0.083664 2.95926
1.97126 0.00854524 2.61827
-0.49628 0.806663 3.0315
-1.13307 -0.148107 3.1015
0.756877 -0.970967 3.30359
1.70609 0.914772 2.5432
0.406346 0.566023 2.78793
0.758053 1.23997 2.82658
1.54835 -0.881175 2.80403
-1.47177 -0.104986 3.20357
-2.80831 1.13414 5.80529
-0.852832 -1.64652 3.45334
0.10673 -0.931405 3.35232
-0.909192 -0.0592617 3.0917
0.993156 -0.888604 3.29452
1.25631 0.648447 2.78939
-1.99913 -1.05163 4.04714
0.0532653 0.711404 3.21791
-0.347034 0.906233 2.60468
-0.302022 -0.0351939 3.0617
1.08487 -1.13833 3.42837
1.70026 0.457083 2.64536
-0.154114 -0.267069 3.06675
-0.370783 0.760643 2.17196
0.470473 0.455355 2.88817
-0.16643 -1.07139 3.4622
1.01329 -0.228788 2.89281
-0.190871 0.8113 1.96998
-0.61316 0.878672 1.86664
1.21617 0.502957 2.7928
0.431624 -0.186022 2.99265
1.50385 -0.985953 3.20501
1.30895 -0.390217 2.78483
1.47737 0.992334 2.62861
-0.266893 -1.32081 3.49343
0.697637 0.348436 2.90921
1.39607 -0.357804 2.81588
-0.532851 0.713465 1.95112
1.4515 -1.26689 3.38109
0.184183 0.308137 2.91062
-0.511947 0.438618 2.96106
1.67793 -0.325011 2.70006
-0.207877 -1.22114 3.48116
-0.362835 0.77134 1.91824
0.0560785 0.68346 1.41155
-0.128927 -1.17075 3.46251
0.322618 0.38265 2.90405
-0.187045 0.792989 2.0354
-0.637868 -0.304536 3.07297
2.52275 -1.75898 3.54854
1.71302 -0.358719 2.6772
0.731595 1.0856 2.84787
-1.32993 -1.215 3.30863
-1.34219 0.39804 2.93293
0.561816 1.07654 2.91132
-0.446943 -0.367331 3.21941
-0.122425 -1.32065 3.72786
1.71434 0.327839 2.71842
1.38428 0.439742 2.78363
0.584533 -0.324777 3.01459
-1.15063 -1.12829 3.27064
0.274182 1.19504 2.9528
-0.0267759 0.95996 2.30505
0.56807 -1.17266 3.52388
0.0549414 1.11803 2.85059
-0.188008 -0.270363 3.06515
-1.0465 0.424016 2.8659
1.05319 -1.41035 3.45249
1.78147 0.274721 2.77502
0.45583 -0.525264 3.1899
1.57952 0.900939 2.55879
-1.3385 -1.28067 3.27191
0.513364 0.243283 2.8106
1.44679 -0.444854 2.80576
1.58166 0.852563 2.52711
-1.14198 -0.591481 3.31255
-0.15244 0.901821 2.4534
2.51429 1.02088 2.85914
-1.33553 0.338641 3.03043
-0.137211 -0.439773 3.1511
2.00455 -0.495301 2.78111
-0.81805 -1.27034 3.36777
0.642275 0.864717 2.94895
-0.069419 -1.70414 3.60473
0.615611 -0.675005 3.17779
-0.648224 0.134786 2.98835
2.05686 0.587713 2.65608
-0.0445689 -1.67795 3.66283
1.24396 -0.611442 2.99693
2.05766 0.254361 2.65663
-0.867396 0.824219 2.87292
0.864826 -1.72764 3.83871
-1.47654 0.124126 3.22625
-1.41107 0.228334 2.98102
-0.4155 -1.47666 3.42654
-1.18711 -0.613309 3.3322
1.3114 0.867922 2.67954
-0.376637 1.06704 2.87906
1.75187 -1.57246 3.68514
-1.29576 0.188305 3.04769
0.749049 -1.5816 3.62345
0.74866 -0.548522 3.09617
-0.777618 0.670276 2.17089
1.50448 0.0222786 2.87333
0.3114 -0.817571 3.35201
1.52903 0.669674 2.59311
-1.42728 0.00016425 3.07337
-0.913754 -0.77377 3.32641
1.54548 0.643718 2.63622
-0.348055 0.696871 2.19072
1.5134 -1.45203 3.36497
1.68107 0.7101 2.61925
1.28113 0.0529192 2.78109
1.90361 -0.284794 2.70624
0.00699846 -0.717726 3.23034
-0.926709 -0.620535 3.21932
1.14132 0.845101 2.7512
1.10372 -1.63409 3.6154
1.69807 0.157851 2.75914
2.10075 0.208849 2.86545
2.27783 0.847881 2.90984
0.330614 -0.584496 3.14469
-0.0461647 0.889267 3.07387
-1.34151 0.154134 3.06427
-0.616568 -1.48724 3.4722
0.765607 0.954082 2.85827
-0.656602 -0.574708 3.33455
1.15747 -1.59556 3.76727
-0.0458805 0.254163 2.9391
1.80346 -1.90398 3.96883
0.740248 -0.512841 3.10395
0.783715 0.920875 2.88617
0.699377 -1.50083 3.57758
-1.24142 -1.3056 3.23616
1.47361 0.204757 2.81011
2.34748 0.768287 2.87096
-0.0248742 -0.759346 3.2613
0.731668 0.0581676 2.90531
0.246065 0.639812 2.99362
1.17311 0.742028 2.77012
-0.0827259 0.0270223 2.96474
0.768812 -0.704486 3.1767
-0.184983 0.761379 3.03524
1.35715 -1.69859 3.62953
1.92152 -0.325363 2.72267
1.15207 -0.649672 3.00031
-0.177065 0.102205 3.00591
0.252604 0.782365 3.57391
-0.170886 0.844656 3.07855
-0.187681 -0.110796 3.04502
0.413149 -0.931203 3.32266
1.64549 0.244437 2.72355
1.13688 0.612701 2.86984
1.74421 -0.502848 2.76817
1.21333 -0.0869848 2.76741
1.1604 0.569751 2.81586
0.598773 -0.896333 3.30382
0.751481 -0.0416211 2.90879
0.76613 -0.00883994 2.92572
0.252044 -0.849072 3.29901
-0.508633 0.725432 3.0609
-0.0185279 0.652854 3.054
-0.359469 -0.823009 3.41699
0.0619895 0.730719 3.14408
1.5365 1.14723 2.56485
1.16124 -1.03669 3.22654
0.89482 0.519654 2.90045
-1.02914 -0.236158 3.16062
-0.647712 0.830512 1.85623
1.70989 0.465961 2.73469
0.930105 -0.999927 3.23357
1.06026 1.13609 2.71788
-1.18417 -0.194534 3.10732
-0.381037 0.762095 2.06359
-0.385659 -0.986272 3.43551
1.66907 0.521582 2.71899
0.694549 -0.156877 2.97418
1.23268 -0.661674 2.95476
-1.23187 0.113213 3.02226
-0.298814 1.03096 2.96473
0.863054 0.814933 2.92156
-0.134941 0.791015 2.96904
-1.12987 -1.56156 3.3845
1.98776 0.738131 2.72759
1.69234 0.0586812 2.69454
-1.33902 -0.684826 3.28819
1.71882 0.153083 2.72013
-0.533737 -1.55085 3.49246
1.26717 -2.0082 4.32766
0.00720359 0.944383 3.1186
-0.910711 -0.631742 3.29368
-1.51587 -1.3737 3.1454
-1.09732 0.149953 3.0293
1.03983 -0.566612 2.96006
0.964528 -1.40023 3.5423
-1.15179 0.822378 2.76707
1.33226 -0.761675 2.92153
-0.424472 0.697173 3.06435
1.40708 -0.0478229 2.80751
-0.676783 0.719221 2.25802
1.62882 -0.91921 2.92164
-0.595409 0.760351 2.99765
1.01694 0.0254953 2.86298
1.83081 -0.718928 2.86724
1.13244 -1.98403 4.13349
0.339901 0.739065 3.03999
-0.121092 0.951232 2.03463
-1.42642 -0.730469 3.12907
0.223552 -0.00873155 2.9951
1.101 0.544472 2.85465
-1.09966 -0.192273 3.13162
