ply
format ascii 1.0
element vertex 1834
property float x
property float y
property float z
end_header
-0.895722 0.550559 2.95224
0.451727 0.40125 2.88227
-0.989006 0.0731874 3.10398
-1.06695 -0.378658 3.22026
1.20297 1.06131 2.72799
1.54874 -1.2047 3.24428
0.192902 1.10121 2.95233
1.00779 -1.21502 3.39777
0.136209 -0.330901 3.05507
-0.153102 1.15988 2.94812
-0.956211 0.378242 2.94497
0.799528 -1.13096 3.31501
-0.685694 0.492616 3.0921
-0.721198 -0.289495 3.10986
-0.0919941 0.972183 2.25828
0.571869 1.19213 2.90434
-0.388544 0.457658 3.01082
0.383431 -1.12024 3.4678
-0.0726216 -0.134257 0.863315
-0.532344 0.763131 1.88562
0.653239 -0.239132 2.982
0.287248 1.52823 2.78333
-0.564846 -0.348743 3.06653
-0.229081 0.796596 1.97492
1.69648 -1.09882 3.04733
1.51252 0.384115 2.69534
-0.504598 0.742512 1.90422
0.951044 -0.286184 2.93471
-0.0738593 0.646727 3.02534
1.22889 0.38491 2.83156
0.0745435 -1.15693 3.38608
-0.341956 -1.17706 3.61147
0.322763 0.495611 2.88791
0.0899439 -0.258969 3.06544
-0.183757 0.892009 2.00249
-0.0438577 -0.0775401 0.952945
0.226484 0.473133 2.90459
-0.602775 -1.04566 3.41098
1.54956 -0.214536 2.9425
0.911728 1.1328 2.77734
-0.242935 -0.138411 1.24061
-1.41417 -1.26026 3.23989
-0.403554 -0.459005 3.18807
2.47538 0.0376595 2.94069
0.948545 0.2898 2.9103
0.0576109 1.14196 2.33179
1.13703 0.97148 2.78698
1.63418 0.95486 2.49931
0.880364 -0.405185 3.00922
0.0655452 0.541299 1.23229
0.798693 0.352519 2.95462
1.24516 -1.30293 3.38059
-0.478443 0.727034 1.96882
1.29698 -0.353323 2.85045
-0.0359305 0.337033 2.94582
0.382163 -1.28633 3.49199
0.282189 -0.651008 3.27694
2.42179 0.567796 2.75407
1.55737 0.17626 2.82489
-0.300375 -1.66145 3.7658
1.10931 0.872977 2.8123
0.910854 0.854102 2.91185
1.08763 -1.7581 3.72447
-0.0241909 0.533643 1.29635
-0.608667 0.164722 3.00763
-0.680414 -1.44286 3.40705
1.34743 -0.552848 2.9406
0.791618 0.265798 2.89129
-0.668185 -1.40167 3.44913
-1.07185 -0.694335 3.34656
1.70272 -0.487638 2.73958
1.13797 0.925942 2.7471
0.244571 -1.4477 3.58147
-1.19167 0.248799 3.1191
2.61606 0.917467 2.90245
0.82747 -0.491178 3.04822
1.62974 0.84007 2.56724
1.0974 -0.714299 3.07614
2.43072 -1.1378 4.09795
1.19133 0.0301907 2.82426
-1.16632 0.790816 2.98415
-0.989741 -0.534003 3.20352
2.19455 -1.49867 4.15145
-0.805786 0.854851 2.96734
-1.00932 -0.75344 3.40956
0.326763 0.124548 2.93931
-1.16702 0.838398 3.01831
-0.782379 -0.684354 3.35225
-1.30681 0.0965779 3.0419
-0.187508 -1.71942 3.74062
0.14201 0.573777 1.30999
0.796485 0.93417 2.90338
-0.342655 -0.591941 3.2824
0.490361 0.218573 2.8765
-0.928438 -1.46775 3.4404
-0.196159 -0.526597 3.16666
-0.922169 0.659169 2.08947
0.0988287 0.610626 1.49815
1.41212 -1.54207 3.68089
1.74926 0.177159 2.74889
-0.311056 -0.504197 3.19882
-0.682288 0.305272 3.05255
-0.750658 -1.39543 3.5068
1.58816 0.886866 2.53045
1.7615 -1.91214 3.67961
0.130258 -1.3692 3.47733
-0.83302 0.27721 2.97627
0.45898 0.973602 2.93916
-1.06855 -1.65082 3.48329
-1.38332 -0.464657 3.18769
-0.799818 0.12102 3.05975
2.12943 0.522402 2.60224
0.910765 -0.681361 3.09087
1.54083 0.739319 2.62661
0.606799 0.0785216 2.90159
-0.90727 -1.53963 3.37534
0.632268 0.811778 2.99883
0.805131 -0.642865 3.14431
-0.672887 0.88342 2.95039
2.17739 1.11469 2.89259
-0.130292 0.898145 3.06823
0.528742 0.139598 2.85818
0.135556 0.629048 2.99871
-0.0672313 -0.618169 3.18621
-1.13853 -1.40165 3.20178
0.540608 0.675221 2.95691
0.011209 1.24793 2.65232
0.712967 -0.0351409 2.88566
0.74055 -0.863395 3.25475
-1.30294 0.637163 2.86804
1.9511 -0.0323651 2.98128
2.53078 0.219472 3.67073
0.113184 -0.834517 3.29418
-0.453827 -0.810334 3.35381
0.710295 0.047888 2.92177
1.91397 0.220629 2.73864
1.02765 0.73626 2.84537
0.0742955 0.0351843 2.95626
1.6172 -1.07415 2.95417
-0.122049 0.713405 2.9664
0.39139 -0.743866 3.22523
-0.756234 -0.990448 3.32306
1.2181 -1.407 3.42898
-0.783077 -0.173009 3.06148
-0.835754 -0.96579 3.4412
1.08061 0.525939 2.9022
0.160563 1.42286 2.71302
-0.340917 0.851524 1.92855
1.78323 0.828047 2.55813
-0.498385 -0.142607 3.10657
-0.470152 0.619518 3.05631
-0.477575 -1.02375 3.44591
0.0786039 -0.096361 2.99077
0.626854 1.27019 2.86656
-0.759025 -0.992164 3.59628
-0.0129138 0.604128 3.0725
2.47135 0.829876 2.88181
0.399062 -1.64049 3.51545
-1.42506 -1.50169 3.26297
1.06757 0.141856 2.79576
0.776215 -0.639109 3.14271
1.32685 0.797908 2.69552
-0.952948 0.124527 3.0713
0.387306 -1.57823 3.57759
1.83506 -0.977538 3.23267
-0.546037 -0.633778 3.29256
-0.843541 0.669601 2.3312
1.1494 -1.61873 3.7277
-0.178694 0.245312 2.98607
-1.17261 -1.14863 3.3878
-0.903001 -0.570589 3.22072
1.55763 0.842028 2.59359
1.26383 -1.53107 3.63684
0.436637 0.191962 2.901
-0.672926 0.889708 2.95045
-0.272963 -0.53118 3.16639
1.53943 0.805221 2.59404
-0.731751 0.740135 2.9933
2.70107 -1.25739 4.28783
-1.11724 0.0266377 3.06717
-1.11624 0.727734 3.03606
-0.179985 1.08846 2.8829
-0.580889 -0.77422 3.28582
1.58184 -0.695808 2.94142
-1.04018 0.78379 2.81556
1.12127 0.0820575 2.82928
1.54735 -0.0184434 2.80029
-0.200656 0.789071 3.07175
0.324985 -0.703025 3.21764
1.33607 0.0341525 2.74811
1.94339 0.638939 2.60415
0.363611 -0.973078 3.37339
-1.18397 0.612833 2.91705
1.87333 0.306199 2.67731
1.52177 -0.128364 2.79209
-0.357543 -0.929091 3.41005
-0.735932 0.606335 3.09671
0.188873 -0.0767343 3.00902
1.33601 1.20246 2.64947
1.64985 -0.772347 2.85204
-0.903818 -0.0476582 3.09494
0.153638 -0.0576002 2.95799
0.201899 -0.825688 3.31284
-0.916891 0.754175 2.58566
1.28505 0.608273 2.77081
0.814871 -1.52614 3.56145
0.260875 -0.0177015 2.97573
1.66122 -0.290322 2.93089
-0.514512 0.774606 1.85322
0.936724 -1.17635 3.445
1.63842 0.46735 2.8376
1.80941 -0.744906 3.01647
0.450457 -0.240172 2.999
1.6556 1.02704 2.53683
-0.391702 -0.979087 3.40626
1.60282 0.38641 2.64259
-0.800662 -1.06283 3.35243
1.1736 -0.19925 2.78925
-0.563644 0.827969 1.88046
-0.983654 0.0584034 3.10562
-0.107714 -1.07347 3.43903
0.351317 0.536427 2.90518
0.24404 -0.167677 3.00491
0.0751563 1.28343 2.88089
-0.177283 1.13649 2.95897
-0.181237 -1.00013 3.3666
0.437017 0.496462 2.88105
-0.308369 -0.0782317 3.02474
1.6488 -1.06698 2.94957
1.25001 -0.839639 3.02009
0.192886 0.679219 3.07485
-0.63284 0.830894 2.52371
1.24438 -0.801157 3.00477
1.30158 -0.0584009 2.67569
0.875459 0.602755 2.9279
1.57074 -0.724677 2.81845
1.31484 0.00577886 2.72798
0.0364645 1.28132 2.72855
-0.81612 -0.0163215 3.09235
1.29824 0.674952 2.76262
1.79259 0.586947 2.6608
1.88826 0.289748 2.712
0.751568 -0.756952 3.18393
0.198288 0.726915 3.13054
-0.255288 0.912715 1.9714
-0.494796 -0.882092 3.33174
1.08981 0.496466 2.88246
0.718776 -0.22151 2.98522
1.82585 -0.215253 2.83734
-1.30509 -1.00151 3.2345
-0.58036 -0.172037 3.12991
0.653537 1.27297 2.85805
0.399731 -1.01679 3.43899
1.52007 0.522337 2.69925
0.118667 0.169564 2.95772
0.127145 -0.126728 2.97908
-0.726687 0.586216 3.17504
1.36953 -2.08687 3.51308
-0.393026 -0.98876 3.45444
-0.936515 -0.391934 3.1987
-0.163887 0.401142 2.94424
-0.982379 0.0613187 3.10551
-0.887332 -1.22726 3.43128
0.228062 1.12196 2.94754
-0.166241 1.1546 2.95324
-1.29747 -1.10322 3.16516
-0.0282195 -0.332246 3.09003
0.384604 1.08315 2.90959
-1.13864 0.381016 2.99083
1.38628 -1.24516 3.66293
0.120777 1.23924 2.43547
0.428371 0.471244 2.90949
-1.36744 -0.297174 3.08411
1.03425 1.12547 2.73262
-0.0477856 -0.144565 0.803017
0.384268 0.443629 2.9184
0.880641 -1.14823 3.50073
-1.3353 -0.265718 3.13737
0.965749 0.958262 2.83792
0.869915 1.09797 2.77411
-0.00655706 0.523508 1.44936
1.38695 0.248946 2.82683
-0.617521 -0.528925 3.35178
2.05891 0.889513 2.83768
-1.06373 -1.34244 3.40264
0.562199 -0.44861 3.08799
0.21159 1.06957 2.97049
-0.0471554 -1.39893 3.56762
-0.867773 0.339134 2.98462
-0.359625 -0.416685 3.18279
-0.584649 0.684455 1.94567
-0.016113 0.563016 1.22706
-1.37164 -1.24829 3.33704
1.26919 0.281715 2.82768
0.581189 0.996553 2.89133
0.0325462 0.68545 1.37016
0.227542 0.296229 2.90657
0.191789 -0.457276 3.09081
0.090226 1.31671 2.24038
-0.275917 -1.3749 3.55727
0.588868 -0.41055 3.06287
-0.56778 0.730849 1.92934
0.0468301 -1.31031 3.47235
-0.300818 0.355361 2.94738
-0.788881 -0.384879 3.11574
0.544595 1.0395 2.92689
0.0302641 0.599678 1.57951
-0.190182 -1.31073 3.60447
1.24956 0.302276 2.82395
-0.678207 -0.649551 3.34119
1.42718 0.177824 2.78279
1.88583 0.196262 2.83762
-0.185461 -1.67437 3.74598
-0.433392 0.901844 2.88497
1.31866 -1.5426 3.52424
2.36677 0.814361 2.90407
0.560455 0.141828 2.87641
-1.41657 -0.63871 3.4619
1.55369 0.771352 2.60536
-0.923955 0.274327 2.96261
-0.783284 -1.46855 3.59958
-0.0389067 1.37039 2.89125
1.84074 -0.515836 2.92446
-0.635005 0.680572 2.01382
0.163082 -1.46074 3.62058
0.774689 0.213487 2.86877
1.78193 -0.28127 2.73011
-0.0731624 -0.503777 3.14917
-0.629268 0.67028 2.03385
1.68781 0.658592 2.56562
0.631502 0.0391037 2.92993
2.18277 1.0715 2.92314
-1.48262 -0.734469 3.15152
-0.981502 -1.33448 3.43825
-0.0222914 0.84776 3.06434
1.58664 -0.645251 2.96173
1.30174 0.101202 2.786
1.44058 -0.627494 2.95216
-0.569947 0.78199 2.94121
-0.525819 -1.58615 3.48079
1.64948 0.0734544 3.11265
1.36869 -1.55552 3.37256
-0.627194 -0.935747 3.37207
1.91306 0.0543196 2.64831
1.01072 -0.0914202 2.90346
0.685878 0.63397 2.98563
-0.966961 -1.58674 3.34174
0.343932 -0.864333 3.29328
0.699156 0.600815 2.96679
0.0172193 1.27783 2.88544
-0.374198 -0.0637846 2.99745
-0.426791 0.0125635 2.99949
-0.509208 0.719331 1.96062
-1.21033 -0.842061 3.38003
-1.00499 0.724173 2.89857
0.906502 -1.68603 3.61879
0.0919201 -0.017508 2.9845
-0.0509657 -0.777091 3.28528
1.91376 0.182605 2.74631
-0.372689 0.696612 3.05643
1.27367 -0.646522 2.872
-0.467056 -1.04632 3.52866
0.577613 0.086277 2.91039
-0.67789 0.807047 2.96468
-0.97625 -0.614584 3.31571
2.23317 1.00823 2.98867
1.35378 -0.611524 2.88497
0.265349 0.907859 3.07368
-1.22349 -1.57321 3.42197
-0.481755 0.13878 2.99785
1.68709 -0.574317 2.83989
1.39309 0.747341 2.68164
-0.363175 0.118023 2.95475
-1.07352 -1.4722 3.33306
-0.783673 -0.0546156 3.0472
-0.915741 0.777072 2.80796
-0.0168747 -0.889288 3.36068
1.19729 0.64171 2.84636
1.56422 -0.75223 2.92132
-0.810882 0.667031 3.05274
1.99377 0.00570093 2.62489
1.67054 -0.0399158 2.71136
-0.70361 -0.79758 3.34292
0.156201 0.0448823 2.94492
0.746056 0.746613 2.93549
1.05647 0.722449 2.83763
-0.803967 -0.892528 3.37982
0.100074 1.32366 2.88292
-0.140102 -0.740636 3.25954
0.980973 0.00140334 2.86233
0.0669862 -1.67082 3.55727
1.16518 0.692961 2.83106
0.729295 -0.999215 3.30637
-0.86076 0.0479325 3.06431
0.620385 -0.179185 2.98221
1.99 0.176191 2.91141
1.61101 0.467975 2.59417
1.75212 0.819039 2.56456
-0.714834 0.871725 1.86062
0.461053 -0.137136 2.96607
0.0647913 -0.966327 3.3363
1.63173 0.538406 2.6761
-0.774044 0.699434 2.29267
2.33834 0.0218579 2.92338
-1.38208 -0.0998756 3.11506
-1.0756 -0.899843 3.35527
0.153108 0.555704 2.93966
0.798165 0.43217 2.91425
-0.742565 0.158473 2.68027
-0.183579 -0.336944 3.11726
-0.26168 -1.25312 3.55019
1.12853 1.06975 2.7032
-0.167224 -1.09694 3.26746
1.05262 1.05547 2.76654
0.0072882 -0.282056 3.06349
0.702046 1.40898 2.84577
0.513919 0.395042 2.87959
-0.611884 -1.10912 3.37943
-0.0689077 0.519287 2.97097
1.38634 -0.250034 2.8447
0.203205 1.32469 2.73387
-0.383508 0.721932 2.10708
1.04899 0.464396 2.89205
1.14146 -1.06578 3.36036
-1.08819 -0.106496 3.12902
-0.894076 0.811342 1.96059
0.104874 -0.215086 3.03246
0.811286 0.707347 2.94694
0.241877 -0.0213206 3.00091
1.7968 -2.09151 4.54659
-1.40138 -0.804898 3.20753
1.64869 0.0102607 2.77794
-0.549857 0.685423 3.01314
0.784132 -1.447 3.41178
1.08145 -0.751843 3.0865
-1.01514 -0.762205 3.35869
-0.714897 0.0965977 3.03584
-0.947568 0.786848 2.83595
1.52809 -0.031583 2.25804
1.27597 0.720607 2.76132
-0.922717 0.748529 2.71925
-0.627927 0.0526751 3.04813
-0.807531 -0.728297 3.41938
1.4795 -0.86592 2.94899
1.90926 0.242581 2.70742
1.18569 0.575205 2.84924
-1.29193 -0.13847 3.10228
-0.323222 -1.66525 3.51527
0.309555 0.56492 2.92753
1.09226 -0.964463 3.42173
-0.40008 0.757412 2.07543
-1.33976 -0.0973123 3.22966
-0.264057 -0.868513 3.34512
-0.666136 -0.0574975 3.04308
1.47807 -1.40573 3.34566
1.74601 0.845383 2.55465
0.948289 -1.65673 3.61259
1.17538 0.61746 2.85988
-0.902765 -0.301512 3.14313
-0.388859 0.782165 1.90483
0.198302 -1.2297 3.57518
0.872952 0.462101 2.90051
0.179129 -1.29262 3.54367
1.25649 1.08756 2.72035
1.54402 -0.262279 2.95029
0.197829 0.444461 2.9101
-0.458006 -1.13004 3.44233
1.72668 0.438064 2.70271
-1.06286 0.553962 2.99191
0.863469 -0.21314 3.00306
-0.130546 1.19689 2.83933
-0.427071 0.898959 2.65707
0.666644 -1.06766 3.36654
-1.28906 -0.949503 3.20375
-0.749792 0.676347 2.06743
1.08646 -0.172749 2.8519
1.33942 0.495837 2.80389
-0.556669 0.734116 3.07007
-1.48316 -1.2068 3.17723
-0.0320768 0.374376 2.95651
-0.713165 -0.434667 3.1911
1.04878 1.02093 2.75829
1.56634 -1.27877 3.40279
1.47115 0.298786 2.75436
0.878167 -0.358317 3.01505
0.163845 0.83746 1.77761
-0.101527 0.957716 2.55827
1.44267 1.00601 2.58403
2.72195 0.887604 2.82048
0.968524 0.390381 2.90646
-1.27445 -0.356132 3.1706
0.0843583 1.14884 2.27794
0.656442 -1.18834 3.31527
-0.754828 -0.248413 3.02977
-0.688678 0.687041 1.96447
1.97047 -1.09272 3.37502
0.581515 0.498854 2.94225
0.610485 -0.217593 2.94498
-0.611208 0.759243 1.86665
2.05499 0.28547 2.89373
1.3866 0.491147 3.05478
-0.938001 -1.08457 3.51164
0.416194 1.32984 2.90134
-1.29305 -0.181898 3.12582
0.014165 -0.109054 0.6899
0.861559 -0.981745 3.22527
0.721223 0.550474 2.92818
-0.568994 -0.132942 3.0791
-0.409925 0.895206 1.91591
0.0795698 1.22338 2.70213
-1.07239 -0.982802 3.4637
0.753474 0.533525 2.95056
-0.958801 0.408416 2.94952
0.161036 1.5106 2.75288
0.208862 -1.30284 3.58045
0.350941 1.11157 2.91109
-0.192768 -0.37241 3.10376
0.757768 0.350135 2.9256
-0.627002 -1.16693 3.36451
-0.0763404 0.916668 2.37899
1.12993 -0.321163 2.90552
0.136758 1.27562 2.32274
-0.962377 -1.12543 3.36832
-1.22517 -0.302613 3.1612
-0.227862 -1.10527 3.39399
-0.0337123 0.456657 2.96199
-0.290218 -0.0220302 1.49888
-0.398413 0.771284 1.92177
-0.211159 0.96907 2.89987
0.487031 -0.542244 3.16617
0.289446 -1.557 3.74514
-0.147535 0.273263 2.96062
0.0454907 0.539182 1.34517
1.50635 -0.463614 2.83915
0.328579 0.968976 3.02521
0.991672 -1.5359 3.76872
-0.801109 0.231671 2.98481
0.804978 -0.443255 3.05318
0.00894515 0.572697 1.30083
-0.360596 0.740499 2.01194
2.28627 0.13815 2.97532
0.974491 -1.4146 3.54767
0.143624 0.320093 2.89604
1.16325 -0.388582 2.87399
0.920166 0.964775 2.81837
0.387479 -1.32495 3.47273
1.81263 0.27603 2.7715
2.06649 0.600486 2.65346
2.00933 0.37252 2.76192
1.5168 0.146963 2.86714
1.08779 -1.7668 3.79164
1.40048 0.785281 2.64955
-0.00523876 -0.66737 3.23345
1.05465 -1.58009 3.56866
0.624081 0.105226 2.88847
-1.27778 -0.64144 3.31891
0.0384511 0.845907 3.03243
0.413593 -1.51569 3.52287
1.6616 0.6156 2.6424
-1.40148 -0.603882 3.3053
-0.879256 0.196622 3.03982
-0.293716 1.40985 2.92508
-0.54747 0.671654 2.15701
0.422187 -1.60848 3.61667
0.567731 0.176783 2.87617
2.09668 0.296625 2.75568
1.2113 0.837857 2.74335
-1.13676 -0.646782 3.28527
1.58373 0.126756 2.73625
1.26291 -1.66972 3.49696
1.1879 -1.58942 3.64137
1.25008 -0.563946 3.03568
-0.252882 0.858928 3.01341
0.352954 -1.4873 3.56659
-0.404846 0.982995 2.96066
1.69794 -0.501659 2.81355
1.49779 0.200498 2.78454
-0.286993 -1.41166 3.53474
2.26263 0.24428 2.75094
-0.691174 0.664553 2.0312
-0.366589 0.756626 3.02939
0.134819 -0.79624 3.24075
2.40102 -1.53782 4.44477
-0.89133 0.0443609 3.07497
0.843316 0.701089 2.89505
-0.233486 -0.778931 3.33696
-0.983246 -1.10319 3.40953
1.1209 -0.00451085 2.81548
0.541243 -0.714754 3.24567
0.0835755 0.839339 3.04552
1.47112 0.102023 2.93922
-0.899855 0.775997 2.67336
-0.465406 0.805769 3.07967
1.54937 -0.608056 2.87272
1.79607 0.071234 2.8296
0.0319647 -1.65139 3.61087
1.91691 -0.0483406 2.6503
-0.219409 -0.944809 3.41599
-0.164915 0.910843 1.95835
-0.0188244 -0.101394 3.00079
-0.00891873 0.827615 3.736
0.253492 0.602718 2.94334
-0.336163 -0.888391 3.3787
1.41145 -0.0626388 2.83914
0.383011 -0.836794 3.31203
1.76801 1.04687 2.55561
-0.911227 -0.0279815 3.1016
1.81476 -0.752822 3.04372
1.80052 0.892385 2.53769
1.48205 -2.2237 3.48364
0.814542 0.661659 2.91725
1.17604 -0.241056 2.87316
-0.763078 -0.666088 3.26942
-0.732385 0.687928 1.97572
-0.43629 -1.18236 3.5759
1.472 0.471318 2.77492
-0.688166 0.757374 1.8391
0.408225 -0.211301 3.0536
-1.03732 -1.02005 3.26772
-0.585381 0.487966 2.99607
-0.866671 -0.457125 3.16977
-0.704315 0.595942 3.18782
-0.655013 -0.184593 3.07835
-0.873048 0.225118 3.04006
1.44771 1.15463 2.59903
0.505769 -1.02034 3.37332
0.257177 -1.01504 3.50888
-0.467409 0.83472 1.89963
0.836773 -0.144854 2.94078
0.774581 0.522066 2.95453
0.317181 -1.69889 3.59117
0.764039 -1.63589 3.74938
0.100594 -0.0577356 2.9628
-1.2583 -0.839177 3.17731
0.955472 0.658143 2.91332
1.47949 -0.751394 2.89904
-0.986417 0.235092 2.99431
-0.946124 -0.0285783 3.08275
1.69297 0.577801 2.67202
-1.07126 0.04377 3.01083
-0.488793 0.714141 1.98687
-0.943131 -0.790824 3.35021
0.20027 0.779823 3.08112
-1.01782 0.365174 3.02774
0.519272 0.0122883 2.96164
-1.4064 -0.757761 3.2587
-0.0979728 0.950685 2.03509
0.299416 0.744635 3.03729
-0.106705 -1.4231 3.54848
0.0113534 1.22462 2.80178
-0.0435905 0.542533 3.00135
0.869984 -0.184026 2.98638
-0.779907 0.169576 3.02754
-1.49506 -0.99237 3.26894
1.72522 0.758463 2.58501
1.05711 -0.146013 2.85993
-0.196965 -0.968214 3.36583
0.376845 0.597222 3.0055
1.91626 -0.554825 2.93187
-0.108036 -0.11399 3.07238
1.72604 0.511203 2.65194
0.385979 1.23861 2.91134
0.395355 -0.910914 3.2676
0.224979 0.4324 2.91612
0.377433 -1.28491 3.581
-0.161307 -0.352718 3.10569
1.36446 1.03385 2.61016
-0.677483 -0.101577 2.15955
-0.890572 0.403001 2.94838
-0.486311 -1.2216 3.54719
0.574232 1.39667 2.8622
1.35117 1.00572 2.60142
-0.0407701 -0.302578 3.08938
0.327296 1.48954 2.70041
-0.855197 -1.07911 3.34765
1.04131 0.485991 2.91701
0.593369 -0.273968 2.98497
-0.308641 0.798527 1.88363
-0.205559 1.13752 2.95333
-0.46685 0.485107 3.01499
-1.18067 -1.01658 3.30085
-0.838372 -0.236346 3.12559
0.398131 1.15099 2.86025
-0.798872 0.691624 1.95947
-2.09127 -0.767686 4.60077
1.12076 0.269394 2.81199
0.0827789 0.76343 1.54832
-1.14981 -0.469419 3.13971
-0.533933 0.695571 2.04281
-0.00343855 -1.44427 3.68661
1.07819 0.246071 2.88452
-0.245438 -1.22359 3.50407
-0.692043 -0.432795 3.22927
0.424018 1.05682 2.86624
2.43446 0.834369 2.8975
1.05804 -1.31325 3.38401
-1.33036 0.3759 3.00307
1.66924 -0.36965 2.76584
1.47741 0.932538 2.5934
-1.53469 -1.23503 3.33275
2.30202 1.02914 2.98031
0.793962 0.300962 2.92924
1.09172 -0.980107 3.30729
0.961286 0.585354 2.91686
-0.162485 -0.133611 3.0627
0.158004 -0.939548 3.32686
-0.499727 0.577076 3.04102
0.758128 1.39691 2.84247
-0.84865 -0.10819 3.07759
0.586264 1.28396 2.86921
-0.918793 0.775648 2.79802
0.239983 0.674662 3.13609
-0.789863 -0.567139 3.2277
0.867186 -0.0892124 2.92863
-0.483368 0.806728 2.42395
-1.21793 -0.872987 3.3448
1.78665 -0.211073 2.76876
0.63274 1.35856 2.85904
1.31902 -0.281575 2.81557
0.496015 1.15355 2.8914
0.264319 -1.23234 3.57094
0.728063 0.471027 2.93212
0.808753 -0.258108 2.99163
-0.314733 0.784313 1.94953
-0.321067 0.444173 2.98952
-1.46691 -1.05409 3.19644
0.384241 -1.07719 3.40827
1.25298 0.50201 2.82008
1.76872 0.331676 2.80405
1.78956 -0.216226 2.76648
-0.568366 0.853002 1.88067
0.139544 1.41607 2.66845
-1.42098 -0.965616 3.21573
-0.913704 0.512405 2.96231
-0.495128 -0.172368 3.05711
-0.413423 0.899507 2.65593
-0.676912 -0.101997 2.15947
-1.27258 -1.25058 3.31785
-0.96134 0.0383446 3.09987
-0.824821 -0.4301 3.19353
-0.789813 -1.25765 3.46655
0.694932 0.312741 2.90448
0.244519 1.3857 2.79563
-0.400807 0.731203 1.99746
0.136269 1.10293 2.90649
1.83001 -0.367858 2.8392
2.51539 -0.942174 3.15643
0.702012 0.385514 2.90658
1.54376 0.943774 2.47698
-1.06224 -0.358512 3.23832
1.14106 0.342956 2.86661
1.66514 -1.12756 3.11728
0.461772 -0.58495 3.16906
0.884795 0.913757 2.88479
2.18929 0.345361 2.62241
-0.181056 -1.46342 3.37539
-0.404936 0.228692 3.04047
0.443922 -0.539811 3.15819
0.2205 0.893555 2.98207
-0.0960856 0.461409 1.42334
1.33457 -1.50851 3.57809
0.583952 0.17702 2.86278
-0.515998 -1.46085 3.65783
0.316888 0.290058 2.91214
2.15312 0.265378 2.64451
1.54442 0.905618 2.60096
-0.498066 -0.492102 3.12578
-0.804516 -1.32339 3.43592
0.938961 0.256531 2.89374
0.360366 -0.458294 3.08504
0.424607 1.00098 2.97435
2.30874 0.544626 2.68843
1.04654 -1.31538 3.49715
-0.485183 0.399651 2.98567
1.36677 -0.36184 2.85989
-0.483812 0.751168 1.93168
-0.329123 -1.23863 3.49743
-0.929901 0.362805 2.94105
0.706048 1.05237 2.84823
0.184713 -0.347204 3.05496
0.116839 1.44739 2.67305
-0.710766 0.726115 1.81526
-0.955603 0.0294125 3.09134
1.4009 -1.1106 3.17414
-0.541506 -0.312244 3.10192
-0.599746 -0.979708 3.45882
-0.421981 0.443777 2.97795
0.0135651 0.969641 2.95584
0.828211 -0.523943 3.08722
-1.30299 0.281076 3.02212
-0.85835 -1.44419 3.52778
1.89904 0.417632 2.64712
-0.796742 -0.48667 3.07741
0.125816 0.973785 3.03548
2.67567 -2.00378 3.66098
-1.2536 -1.33489 3.37454
-1.20164 0.232711 2.97583
-0.719324 -0.476192 3.23729
1.73268 0.292616 2.76057
-1.22386 -1.29099 3.36285
-0.617105 0.695417 1.95001
1.95596 0.064547 3.02018
-0.578082 -1.29314 3.43615
-1.03526 0.305048 3.00146
-0.27901 0.749125 2.11718
1.94639 0.493153 2.6396
0.969085 -0.408656 3.01642
1.24262 -1.657 3.56793
1.31002 0.131135 2.79725
-0.131339 -0.671202 3.25833
-0.690388 -1.55283 3.25848
0.587345 0.859191 2.94905
0.792275 0.102946 2.91025
-0.929195 -1.50556 3.40404
1.07998 -0.601238 3.03758
0.357824 0.832854 3.00895
2.02935 0.473667 2.61956
-0.634492 1.13515 2.85884
1.50396 0.79567 2.58911
-0.618863 0.183125 3.0064
-0.316993 1.41548 2.94107
-1.39685 -0.591242 3.20202
-2.30699 -2.44226 5.48962
0.608783 -0.0295247 2.92996
-0.335932 0.776581 3.18818
-1.03619 0.110469 3.04698
-1.34986 -0.809769 3.19532
-0.725751 0.0120228 3.05285
2.14383 1.00579 3.04584
-1.00256 0.681248 2.9059
0.520063 -0.790672 3.22889
0.374613 0.0830886 2.93101
0.24371 -0.751665 3.27564
0.699759 0.781678 2.94032
0.0454329 1.32001 2.85232
1.2133 0.0206285 2.79819
0.866633 0.742557 2.91747
0.840775 -0.688582 3.15431
-0.233683 1.00447 2.74478
-0.319155 0.738302 2.9962
0.102312 -0.800066 3.2764
0.356997 0.0329589 2.95977
-0.279432 0.568599 1.83388
0.406339 0.725399 3.04226
-1.11805 -1.03136 3.33893
1.04204 -0.731682 3.0945
1.70033 -0.0113562 3.11292
-0.0507485 -0.705359 3.27002
1.02345 0.0858338 2.8378
0.163646 0.824894 3.02557
1.37875 0.194669 2.01439
1.55541 0.694801 2.61812
-0.844097 -1.59814 3.44969
1.85762 -0.284019 2.73682
0.891222 0.0589242 2.90726
-0.99668 -0.685964 3.31314
1.48076 0.569674 2.66168
0.714464 -0.928094 3.2742
0.626055 -0.113894 2.9727
0.574775 -1.77352 3.72943
-0.940773 -0.886402 3.36133
1.3963 0.537804 2.69933
-0.591798 -0.075142 3.06093
1.76975 -1.05583 2.99638
1.20424 1.24161 2.72863
0.0981928 0.679067 3.00237
0.257664 1.63302 2.79039
1.28348 -0.0493924 2.80697
-0.97316 -1.35311 3.41087
0.573166 -0.855046 3.32431
-0.0551108 0.00663549 0.839365
-0.0354197 -0.251518 3.0646
-0.56364 0.777648 1.84839
0.689895 -1.13617 3.41875
-0.819362 0.521573 3.05848
0.590197 -1.75368 3.65152
-0.664559 -0.235285 3.10374
0.304135 1.16998 2.92799
0.652562 0.461324 2.90974
1.24392 -1.02984 3.20238
1.88884 -1.8662 3.41727
-0.914603 0.624577 3.23344
-0.182977 -0.189219 3.05049
1.27913 1.20423 2.69268
-0.855185 -1.0302 3.42976
-0.0142969 -0.0959905 0.798338
0.465032 -1.00249 3.41827
0.924416 0.523083 2.89035
1.45496 -0.147542 2.7788
0.000739425 1.23032 2.72951
-0.178555 1.14972 2.96055
-1.16069 -1.1756 3.26927
-1.00723 0.395383 2.91775
-1.3304 -0.39815 3.1872
0.0548938 1.10877 2.92715
0.434271 -1.26813 3.52711
-1.38763 0.370538 3.00213
-1.1045 -0.216036 3.12058
-0.54373 0.734232 1.95064
0.304364 -0.359115 3.07886
0.90269 1.08174 2.76426
0.0716967 0.615939 1.32756
0.901717 0.429491 2.92007
-1.35598 -0.326762 3.16853
0.0337631 1.13528 2.41431
-0.0412679 -1.19382 3.46966
1.34787 -0.218045 2.81545
-0.483744 0.824693 1.89043
1.89185 0.301339 2.82349
1.15795 -1.07019 3.32354
-0.327422 0.541446 3.04669
-0.0195972 -0.1876 3.05947
0.739601 1.16509 2.81472
1.14993 1.24295 2.72779
0.820182 -1.0092 3.25269
1.2611 0.467409 2.83069
0.805127 0.155526 2.88904
0.650265 -0.147216 2.97709
0.340504 1.40461 2.85117
1.75892 -0.898849 3.02171
-0.0440549 0.660722 3.21301
-0.442527 -0.101304 3.03048
0.492624 1.29898 2.8789
0.577233 -1.52914 3.6091
-1.4067 -0.903221 3.23041
1.47226 0.510117 2.69945
-1.50475 -1.18762 3.29819
-0.80847 0.438791 3.01068
-0.0740264 -0.0340229 1.01377
1.05873 -0.341888 2.92927
-0.472112 0.747648 1.89724
0.00991269 -1.18549 3.4257
1.60597 0.345636 2.67824
0.653552 1.09189 2.90178
0.203738 -0.316611 3.05667
0.0664792 1.39647 2.49519
0.417654 -1.18253 3.55045
1.0489 -0.258127 2.88973
-0.498238 0.464168 2.9629
0.10044 1.31632 2.64882
0.135685 1.13884 2.88033
0.382281 1.01952 2.985
0.264469 -0.496941 3.12116
1.33644 0.254822 2.79821
1.01006 -1.42389 3.4644
-1.12169 -0.616011 3.31003
0.0149559 0.610138 1.52841
1.30967 -0.441749 2.88517
1.01289 0.931383 2.7849
1.07656 -1.38414 3.47656
0.123621 0.257664 2.91019
-1.18319 -0.438917 3.20612
0.868118 0.341708 2.91817
0.538303 -1.37472 3.57575
0.0112642 1.06731 2.91246
2.09501 0.451336 2.63018
-0.996521 -1.26538 3.48144
0.706131 1.00407 2.85485
2.17331 -0.108747 3.19548
1.61235 -0.361681 2.76304
-1.37809 0.325444 2.95922
1.72243 0.163525 2.74575
-1.27042 -1.42184 3.16121
1.4715 0.786262 2.60278
0.0794262 -0.634381 3.19553
-0.486912 -1.49098 3.47915
-1.17535 0.145745 2.95695
1.68612 -0.541701 2.79243
2.13229 0.209407 2.89431
0.155068 0.858423 2.9918
1.2495 -1.59322 3.74563
0.701012 -1.4667 3.57073
-0.0882041 0.943283 3.02313
-0.0207928 -0.550006 3.1613
1.73175 0.202174 2.74677
2.10397 0.336225 2.64591
1.47527 0.424567 2.70572
0.324199 1.34348 2.8999
1.00595 -0.307499 2.93286
-0.638768 0.757717 1.86741
1.53024 -1.1495 3.25195
0.22927 -1.14816 3.49869
-0.20215 0.785191 1.96111
0.9182 -0.257301 2.98969
1.74264 0.453195 2.70006
-1.03093 0.454822 3.04756
-0.256894 -1.05919 3.35604
-0.883192 0.563884 3.08191
1.38387 -0.217396 2.82738
0.0974073 1.36034 2.62329
-0.567785 0.835244 1.87882
-0.53051 0.504241 2.99134
-0.0837154 -0.0325549 1.02671
-0.489941 -1.08907 3.56818
1.07695 1.13435 2.69648
1.76145 -0.202381 2.83688
-0.354539 -1.31898 3.49879
0.249933 1.05761 2.97945
1.42864 -0.393158 2.84421
0.070856 0.610833 1.40337
-0.197024 0.326763 2.98651
0.196786 1.48422 2.64501
1.23266 1.05099 2.7373
0.0453255 -0.37308 3.10002
1.46431 0.3879 2.92679
0.260996 -1.31272 3.53729
1.40732 0.979301 2.62125
1.24687 -0.345157 2.85446
0.057259 0.933164 1.87593
-0.986813 0.36266 2.96189
-0.866822 -1.1946 3.40977
-0.9402 -0.577934 3.15033
2.07576 0.4231 2.63677
-0.0874617 0.22012 2.95412
-1.00141 -1.42265 3.30924
1.2623 0.875032 2.7456
-0.310809 0.915125 3.05851
1.0125 -1.58471 3.746
2.44059 1.08278 2.91808
1.72034 0.153673 2.74888
0.345026 -0.53489 3.14111
-0.601513 -1.63086 3.42236
-0.146376 0.297155 2.96043
0.929587 -1.57753 3.81768
2.43923 1.10903 2.8632
1.04223 -0.467893 2.93445
-0.0730504 1.01911 2.99629
2.32817 0.619669 2.75649
0.541096 -1.48709 3.7371
-0.310486 0.268788 2.9848
-0.202686 -0.462449 3.15691
-0.728359 0.676287 1.98476
-0.012427 0.785713 2.97952
-0.675531 0.0717729 3.03043
-0.989553 -0.575902 3.30008
-0.675695 -0.741437 3.3882
-0.112716 1.35311 2.90413
-0.822781 0.668905 2.25702
0.456261 -0.65553 3.14629
-0.547813 0.138745 2.98086
0.399407 -1.64036 3.55368
-0.899337 -0.668075 3.40298
1.32494 0.752186 2.70265
-0.508302 -1.55867 3.50559
0.476016 0.102378 2.8937
1.20259 0.912789 2.75361
-1.34141 -0.561384 3.2301
2.18857 0.964096 3.04347
1.91759 -0.490977 2.797
-1.75037 -1.50448 3.52941
1.47526 0.246204 2.85876
0.489505 -0.512545 3.14366
-0.413754 0.684936 2.10552
0.0875241 0.695948 1.45821
-2.22352 -1.91726 4.62604
-1.12509 0.233411 3.05333
-0.836245 0.320761 2.96648
-0.998941 -1.37561 3.46272
0.36948 1.06389 2.97615
2.32476 0.964036 2.93273
1.58981 -0.440506 2.87135
-0.755642 -1.31873 3.50478
-1.32937 0.309546 3.01652
-0.707714 0.69414 1.97161
-0.0202309 -0.430172 3.16604
2.1022 0.356075 2.62912
0.876392 -1.69812 3.68166
1.25166 -0.633303 2.98906
0.787958 -1.69414 3.64434
-1.37872 0.118659 3.08407
-0.566742 0.821726 2.95681
2.21513 0.273475 2.63975
1.28314 1.02835 2.7134
1.3075 -0.577265 2.856
-0.665245 0.643281 2.07408
1.18228 -1.7197 3.78445
-0.195581 0.197213 2.98327
0.508954 -0.595166 3.20978
1.06547 0.817821 2.81748
1.66742 0.121696 2.77483
-0.0800245 -1.56893 3.63691
-0.0607261 0.704519 2.97052
1.16066 -0.0370318 2.82198
0.0867054 1.28038 2.76926
-0.546332 0.00688142 3.0402
1.40361 -0.75723 2.93065
-0.915681 0.674446 2.93904
2.26489 0.937399 3.2062
0.882708 -0.776246 3.15634
1.43684 0.0535692 2.88117
-0.54747 -0.769532 3.30272
-0.316999 0.795813 3.03056
0.803376 -1.54462 3.72324
-0.935249 0.041765 3.06704
-1.10725 0.230313 3.03184
-1.00851 0.775297 2.99947
0.0523461 -0.711078 3.23542
1.83592 -0.16325 2.88653
-0.0910674 -0.966699 3.3647
0.314537 -1.72296 3.62573
-0.183334 -0.138983 3.04075
0.0701305 1.2372 2.78096
0.958119 0.551167 2.89989
-1.02215 0.369487 3.03135
0.256077 1.31575 2.91107
1.82176 0.885538 2.54455
-1.16353 -0.109106 3.12657
-0.502755 0.646751 3.05489
1.49262 -0.82381 2.84505
-0.290149 -1.08772 3.47265
-0.268868 -0.0702319 3.04234
1.64504 -0.803382 2.90677
1.20445 0.555696 2.80907
-1.25618 -0.910625 3.26698
-0.00555211 -0.0489876 0.66401
-1.30577 -0.114594 3.10074
1.78901 0.515796 2.65449
0.209099 0.58489 2.93315
-0.650363 0.703271 2.20442
0.596143 -0.0699001 2.94432
0.510281 1.27622 2.88659
-0.596276 0.68113 3.08724
0.270555 -0.899661 3.31508
2.03281 0.216724 2.83134
-1.26544 -0.0421404 3.08051
1.04195 -0.846759 3.27749
0.5988 0.628125 2.98974
-1.28927 -0.287711 3.19929
-0.745702 0.752392 1.79274
-0.720501 -1.11883 3.42454
-0.277589 0.498792 2.97966
0.523967 -1.77099 3.62107
-0.199608 -0.226186 3.0849
0.433022 1.15587 2.89866
1.5652 -2.06157 3.43593
-3.40985 1.10839 7.05097
0.600439 -1.09104 3.38427
-0.774323 -1.05643 3.48412
0.991999 0.54348 2.91106
0.66491 -0.195267 2.95893
-0.854701 0.227351 3.03533
-0.32226 0.800773 2.09879
0.0681363 0.536676 2.96655
1.15047 -0.980675 3.29053
0.516864 1.36781 2.88401
-0.30506 0.898205 1.93697
-0.743576 -0.151113 3.07338
0.861886 -1.36566 3.67032
-0.985182 -0.392723 3.15349
-0.272806 -1.1278 3.49254
-0.0584904 0.361656 2.96573
0.0471884 1.35724 2.64194
-0.762932 0.706307 1.89747
1.74558 -0.354679 2.74002
1.61288 1.00729 2.53237
2.50311 0.700273 2.7952
1.55482 0.366956 2.51135
-1.06231 -1.09054 3.10158
-0.671716 0.733013 1.92055
0.41198 -0.313313 3.0787
-0.248899 0.380758 2.93595
0.492884 -1.28899 3.6854
0.156203 -0.552756 3.14985
2.32399 -0.153906 3.03784
-0.22747 0.254702 2.97362
-0.736645 -1.45796 3.52486
1.67921 0.853867 2.54614
1.3752 0.84321 2.64732
-0.92822 -1.39539 3.48539
0.283814 1.37958 2.90505
-0.0400359 0.225526 2.93946
0.884078 -0.505436 3.04119
-0.685478 -1.35064 3.46463
-0.794763 0.32562 3.00606
1.13543 -0.430996 2.88914
0.677352 1.01343 2.86684
2.28079 0.630687 2.7609
-0.131881 -1.35489 3.56312
0.0976321 0.27937 2.89707
2.38332 0.898159 2.93454
-0.733158 -0.434516 3.14141
0.615341 0.995996 2.89695
-1.3923 -1.14101 3.16723
0.06975 0.426449 2.92213
1.15997 -0.349309 2.87844
-0.784899 0.730852 1.8483
0.598989 -1.23274 3.51981
0.275831 0.3691 2.89328
-1.06981 -0.130854 2.95957
-0.827717 0.716452 1.85854
1.08009 -0.311704 2.87883
0.191539 1.17433 2.94519
0.0795434 1.31176 2.44144
1.3453 0.433038 2.80307
-0.456674 -0.293678 3.08037
-0.996196 -0.0125981 3.10599
-0.652718 -1.11454 3.39485
0.386724 -1.42966 3.54452
1.33533 -0.469884 2.84673
-0.491105 0.701573 2.02319
1.22285 0.275845 2.855
0.542518 -1.51116 3.6645
-1.38019 -0.494313 3.24437
0.627118 0.971753 2.9242
0.0596662 0.941967 1.95725
-0.952135 -1.38858 3.56705
0.663116 0.235469 2.91308
-0.601996 0.347071 2.97099
1.38875 -1.32296 3.36181
0.0539565 1.0624 2.91434
2.3384 0.24636 2.74557
-0.626646 -0.447129 3.17064
0.630487 0.293932 2.90908
0.449998 -1.30009 3.48374
-0.79603 0.684459 1.88429
0.572443 -0.388649 3.04959
1.09466 -1.68608 3.61545
-0.0694101 -1.58 3.53295
-0.517159 0.171982 2.98219
-1.44068 -0.614741 3.04716
0.777612 0.868769 2.87031
0.860673 0.12239 2.90201
-0.80886 -1.44977 3.35503
0.374582 -1.74562 3.63813
-0.544012 -0.575043 3.10464
0.348422 0.861234 2.98166
2.00439 -0.786323 3.27064
0.668542 -1.62601 3.61994
-0.45206 0.678813 2.10565
1.30767 0.197254 2.80185
1.80599 0.31117 2.82406
1.26681 -0.528025 2.92596
0.78132 -1.71833 4.0414
1.31694 0.67575 2.72782
2.22695 -0.184182 3.59125
-0.268492 0.033582 3.01541
0.417402 -0.814533 3.31226
-0.243191 0.737383 3.10026
-0.0770322 1.09557 2.95951
0.715333 -0.0043171 2.93458
-0.796976 -0.798116 3.44644
0.908765 0.100029 2.89619
1.67685 -0.768059 2.55868
1.04267 -0.673032 3.04642
-0.100225 0.83255 3.06194
-0.244053 0.0685235 3.03537
-0.807357 -1.60305 3.44705
1.83939 -0.511063 2.75534
1.64299 0.698164 2.66214
-0.91893 -0.694815 3.31253
-0.196368 0.768722 2.10857
-0.550912 0.32382 3.02398
-0.935795 0.0182341 3.08657
0.474561 -0.419757 3.05743
0.102176 1.24749 2.43893
-1.05064 -1.25213 3.29652
0.981003 -0.374763 2.99729
-0.346634 0.766223 1.98102
1.33592 -1.22909 3.26048
0.591736 0.379135 2.9357
0.710322 -0.358186 3.02307
1.44445 0.975505 2.63061
1.48437 -1.22488 3.35827
0.512863 0.335617 2.85732
2.50831 0.310539 2.64993
0.78843 -1.71313 3.91551
1.17167 0.204718 2.80989
2.24552 0.158826 2.98495
0.172104 -0.590433 3.17658
-0.362012 0.918267 2.7804
-0.177478 -1.50669 3.62968
0.947555 0.158262 2.84755
2.33759 -0.087266 2.99721
1.57743 -0.488656 2.76963
1.06828 0.848185 2.82563
1.41567 -1.4119 3.38965
1.39529 0.274113 2.79427
2.17494 0.288167 2.6412
0.661065 -0.504604 3.12157
-0.33161 0.726409 2.06491
-1.45773 -1.23005 3.06677
-1.37964 0.282463 3.08954
-0.012607 1.32289 2.89441
-0.743312 -0.477757 3.17833
0.378575 0.979837 2.97632
0.129877 0.792971 3.0476
-2.48476 -1.26761 5.22427
-0.100307 1.32773 2.89586
0.451037 0.0594528 2.91242
-0.513952 0.767913 3.03684
-0.290668 -0.716285 3.22336
-0.672379 -0.992737 3.56958
-0.156169 0.0356044 3.00568
1.06225 -0.64754 3.04076
-0.499786 0.799854 2.76914
-0.0872168 -1.69275 3.63665
1.7177 0.117228 2.74675
1.83926 -0.316107 2.72225
1.55597 -0.582587 2.85535
-0.501827 0.819167 3.00729
-0.441615 0.0997335 3.01068
0.695348 -1.74145 3.88721
0.714929 -1.58855 3.76076
0.405665 -0.874187 3.26067
-0.998346 0.78664 2.84642
-0.829224 0.704887 3.05935
-0.840965 -0.0622611 3.08134
0.0461206 -0.836355 3.28158
0.556029 0.625919 2.94647
-0.554725 -0.0385402 3.06624
1.26821 -1.79193 3.70402
-2.15819 -1.1022 4.39083
-0.283758 0.883733 2.43393
-0.00602701 -0.0492949 0.664786
-0.30451 0.952959 2.74774
0.141336 -0.000137999 2.94136
-1.13198 0.724386 2.94486
-3.14285 -3.24878 6.92852
1.07226 0.764599 2.79897
1.46103 -0.620434 2.92377
-1.18674 0.118998 3.13699
-0.101769 -1.69848 3.5255
0.616289 -1.47792 3.57203
2.18235 0.319718 2.63301
1.21874 0.807291 2.71925
-0.172293 -0.637888 3.26009
-0.0614902 0.185686 2.9591
-0.879473 -1.52634 3.42641
1.20872 -0.57424 3.01081
1.41166 0.754577 2.60912
0.201026 -1.52522 3.52587
-0.220667 0.14147 2.99644
-0.216828 1.15673 2.95841
0.302062 -0.0287841 2.95678
-0.221432 -0.00164592 3.04666
0.0123476 1.16675 2.86829
1.43754 -0.769091 2.90816
0.136882 0.723048 3.03531
2.30146 -1.51684 4.22245
1.15712 -0.766625 3.10926
-1.16223 0.670174 2.89067
0.328851 -0.781173 3.30663
1.78332 0.0594246 2.76887
-1.00428 0.79265 2.91933
1.51403 -1.49235 3.44318
1.64143 -0.827721 2.7296
1.61119 0.0261582 2.67378
-1.33561 -0.718932 3.27628
1.71726 0.700536 2.71444
0.236994 1.25583 2.93277
-0.955775 -0.196282 3.09625
-1.19936 0.534979 2.76319
1.27267 1.14238 2.67673
-0.0511227 0.00206129 0.836382
-1.01839 -0.158023 3.15434
0.289041 -0.998785 3.38912
1.86285 0.998359 2.54569
-0.0521688 -0.104626 3.03178
0.203682 -0.925815 3.2916
-0.711208 0.636835 2.99344
-0.892381 -0.00507375 3.07255
-1.20111 -0.0739962 3.10071
-1.07136 0.590061 2.90579
1.3107 -0.836723 3.03955
-0.917876 0.466833 2.96074
0.348057 1.44933 2.79095
-0.738232 -1.16403 3.41774
1.6031 -0.297401 2.73645
0.818806 1.11762 2.79107
1.46812 0.386238 2.72421
-1.04235 -1.07057 3.32585
-0.29233 -0.273495 3.06543
-0.0924804 0.832476 2.11994
1.23068 -1.85723 3.56545
-0.141712 1.17389 2.84552
-0.00584166 -1.07277 3.38865
-1.09348 0.532945 2.93606
-0.500533 -0.241835 3.07366
-0.458283 0.873202 1.89729
-1.15525 -0.248218 2.96859
0.194742 -1.09638 3.61297
-1.71161 0.622165 3.63977
-1.04449 -0.197159 3.11275
-0.136412 0.84262 2.00492
0.397384 0.483923 2.92687
1.26109 -0.2674 2.86272
1.33391 -1.71218 3.52712
-0.156334 0.839289 1.99258
-1.11054 -1.09282 3.32988
-1.31312 -1.03599 3.25759
0.745241 1.11823 2.813
1.55527 -0.236055 2.85052
1.36 -1.6263 3.44869
-1.10344 0.460743 2.92463
0.805906 -1.06248 3.41536
-0.954982 0.557577 2.95485
-1.35381 -0.207174 3.08635
-0.607946 0.841751 1.87088
0.356026 -0.0667735 0.179623
1.36507 0.496548 2.80831
0.624543 1.46838 2.86719
1.17882 -0.95175 3.2205
-0.875602 -0.168427 3.10768
0.93114 1.0168 2.79322
0.132179 1.33031 2.88447
1.04165 0.340581 2.87198
-0.0172135 1.07931 2.36594
-1.05577 -0.40638 3.16848
0.627262 -1.29978 3.47654
1.96253 0.508662 2.64209
-1.35572 -0.38201 3.17953
0.303117 1.16558 2.98552
-1.37073 -1.16416 3.25189
1.78118 0.397736 2.79301
-0.267649 0.775308 2.01052
0.511241 -0.319382 3.03744
2.64931 0.641449 2.72403
0.395705 -1.2337 3.51855
1.48291 0.337778 2.74255
-0.00771569 -1.51845 3.64619
-0.781745 0.257004 3.03703
2.14687 -1.08667 3.52664
1.50622 -0.493839 2.73234
-0.694507 0.66973 2.04262
0.7904 -1.71231 4.13595
-0.748592 0.216762 2.96054
1.31578 -1.7209 3.72193
0.763427 -0.513184 3.06987
-0.769362 0.64648 2.0337
-0.319411 0.318633 2.97898
1.40923 -1.67936 3.55657
1.40811 -1.51694 3.72984
2.04834 0.279572 2.77289
0.920237 -0.457096 3.03631
-0.0118878 1.02937 2.92246
0.440753 -1.40439 3.61695
0.833769 0.270328 2.87588
1.8782 0.675516 2.64674
-1.0288 -0.438146 3.17518
1.66535 0.873305 2.5619
1.63741 0.737251 2.67028
1.00506 -1.59373 3.61665
0.0516519 0.112132 2.97912
-1.4031 -0.674426 3.15296
0.489354 0.628262 2.94441
0.566664 0.881689 2.94075
0.146382 -0.638284 3.21369
0.63532 0.160731 2.8688
-1.04761 -1.5518 3.44299
1.26452 -2.00982 4.11448
0.982155 -0.580369 3.04394
0.723856 0.829592 2.9043
0.476869 -1.63212 3.7529
-0.736127 0.132724 3.00699
-0.278682 0.971916 2.38086
0.297303 -0.52164 3.11029
-0.0767301 0.481252 1.47176
0.175893 0.274023 2.90746
-0.186052 -1.4502 3.58013
0.876818 0.96817 2.85694
-1.34522 -0.497317 3.22934
-0.198972 0.972206 2.98757
2.66214 0.871705 2.8345
0.110548 -1.3926 3.48085
-1.38794 0.255317 3.01369
-0.507668 0.352305 3.02178
-0.328476 -1.34882 3.5488
-1.43299 -0.458204 3.19718
-0.342576 0.746526 2.00972
2.08496 0.49554 2.60383
-0.457155 -1.31141 3.56059
0.335622 0.298634 2.88885
2.00362 -0.458496 2.78128
-0.496049 -0.41218 3.26224
1.29181 0.966492 2.73394
-0.280476 -1.63233 3.63736
1.43834 -0.583389 2.84644
-0.878298 -0.322746 3.15168
0.943238 0.133918 2.8832
-0.368784 0.874765 3.06164
1.99375 0.306085 2.78121
-0.692726 0.958431 2.94597
0.634323 -0.594406 3.1547
0.957462 0.897031 2.85549
0.0331465 -1.53156 3.54493
1.63723 0.18156 2.69632
-0.96476 -0.564779 3.15285
-0.798739 0.638245 2.10681
-0.290676 -1.48155 3.55485
-0.302223 0.169564 2.9753
1.18294 0.0106635 2.78046
1.51387 -1.00058 3.28852
1.24859 -0.759876 2.99753
-0.22018 0.76584 3.06684
-1.19387 -0.768047 3.28022
-0.0287677 0.72569 3.05638
-0.276481 1.04846 2.86695
0.168539 -0.010475 2.94265
-0.752464 0.10228 3.05258
-0.723058 0.822406 2.95751
0.994332 -1.74414 3.67732
-0.439242 -0.736841 3.27263
1.62329 0.601115 2.54735
-1.19012 0.0685395 2.97234
0.499871 -0.686327 3.21045
0.401109 0.788076 2.9974
1.29451 -0.880547 3.05196
1.93134 -1.16399 3.34284
0.989381 0.568818 2.9371
-0.546798 -1.61757 3.44876
-0.462809 0.717303 1.93727
1.41737 -0.129981 2.7492
1.90258 0.433565 2.64691
1.1726 -0.0871798 2.75891
0.840519 0.646505 2.91224
0.98242 -0.911633 3.31585
-0.260368 -1.15157 3.47119
-0.0245482 -0.0481491 3.01721
-0.669666 0.620994 2.99429
0.42132 1.29154 2.87596
1.74223 -0.735056 2.76298
0.262611 0.213934 2.952
1.03489 -1.567 3.56614
1.76449 -0.438592 2.74481
0.614732 0.921609 2.9405
-1.39357 -0.632391 3.33365
-1.20995 -1.41337 3.36826
-0.408308 -1.59065 3.42856
1.40132 0.157676 2.8391
-0.131298 -0.55374 3.14481
-0.4542 0.876377 2.90144
-1.08899 -1.32682 3.30135
-0.845584 -0.503112 3.19896
0.896759 -1.78335 3.64982
-0.893618 -0.510732 3.15432
0.00687247 0.24422 2.9408
2.34571 0.122146 2.96464
-0.309023 0.744246 2.19631
1.21928 0.72476 2.76456
1.40325 -0.718107 2.98168
0.799444 0.0526588 2.87413
-0.158762 0.93121 3.03084
-0.718259 -0.742512 3.3035
1.14669 0.720261 2.83741
0.647571 -1.46049 3.56133
-0.812733 0.0244801 3.09884
-1.22277 -0.714807 3.39058
1.73669 0.101251 2.74368
-1.2191 0.831896 2.82223
-0.264073 0.827902 3.03411
1.82927 -0.533561 2.79117
-1.18534 -1.561 3.4518
-0.282354 0.111641 2.96029
1.00217 -0.610913 3.02676
1.13603 -2.10566 4.83271
-0.521255 -0.959013 3.54633
-0.00902469 -0.0582895 3.00344
-0.497691 0.686754 3.09758
-0.331273 0.645628 3.1032
1.19566 -0.820971 3.11425
-1.17994 0.0101946 3.09088
1.06497 -0.0413311 2.86196
1.74759 0.986223 2.53273
-1.60794 -0.83297 3.34436
1.28035 0.657532 2.77608
-0.143667 0.0526216 1.0631
-1.04972 -0.00816858 3.05202
1.85681 0.516713 2.63672
-0.36633 -0.236962 3.05963
-0.832425 -0.634575 3.22765
-0.0155579 1.22639 2.64658
-1.34772 -1.00967 3.16885
0.683787 0.523352 2.9496
0.96764 1.14128 2.76795
0.0335867 -0.201146 3.04724
1.01706 1.20966 2.7414
0.150839 0.483588 2.9152
-1.286 -1.05581 3.40002
-0.962204 -0.170843 3.09588
-0.592925 0.620282 3.12571
1.10524 -0.151319 2.81772
0.425456 1.47372 2.83909
0.978658 -0.96853 3.25383
-0.131933 -0.939695 3.39597
0.302361 1.25137 2.90907
0.901717 -0.123936 2.91522
0.0299644 0.584087 3.03687
2.00417 -1.01135 3.41417
1.85954 -0.552949 2.75882
-0.374994 -0.864632 3.36263
0.459253 -0.0196815 2.95726
-1.04907 -0.0416193 3.11339
-0.749517 0.719222 3.00594
-0.139959 -0.809515 3.30809
1.08523 0.653879 2.90396
-0.763481 0.0760474 3.08197
1.89559 0.142146 2.74216
-1.13768 -0.787706 3.34771
-0.77722 0.799162 3.00818
-0.316643 0.027475 2.96768
-1.01899 0.783415 2.83075
0.936167 0.724969 2.88009
1.11089 -0.686639 3.00967
-0.578318 -0.199511 3.11207
-0.654658 0.793302 1.86477
0.163016 -1.27468 3.51155
-1.82991 -1.1823 3.78325
0.203743 0.549689 2.90613
0.891993 1.18716 2.77851
1.52486 -0.152108 2.80805
-0.595437 0.827256 1.87271
-0.468968 0.940703 3.05206
-0.991027 -0.974201 3.35144
0.886436 0.241923 1.36439
-1.0417 0.789633 2.85292
-0.398871 -0.116887 3.01593
1.31049 -1.8048 3.52555
-0.594362 0.626333 3.04745
0.276145 -0.959735 3.3847
-2.66445 -0.26506 5.76574
-0.49516 -0.88412 3.36003
1.38421 -0.795382 2.87141
-1.21517 0.590349 2.90006
0.141397 0.444757 2.92767
1.48139 -1.15866 3.23764
-0.837582 -0.341472 3.1977
0.428041 1.50621 2.80213
-0.661927 0.745041 1.84559
1.40733 -1.15529 3.37784
-0.0879367 0.423603 2.96106
0.802049 1.09688 2.82539
-1.07366 -0.285375 3.14982
-1.25228 -0.337797 3.18168
-0.523987 -1.15274 3.59329
1.39487 -0.226264 2.74693
1.69393 0.471504 2.85783
-1.01746 -0.271087 2.94854
0.349916 1.1969 2.92057
0.972034 0.981833 2.76784
-0.989116 -0.46308 3.09144
-0.128563 0.31453 2.97583
-0.538357 -1.35948 3.47391
0.827613 0.962596 2.83677
2.37654 0.464663 2.59385
-0.443376 -0.4497 3.25208
0.119932 1.4193 2.54877
1.11117 -1.33569 3.37507
-0.898196 0.290462 3.00438
0.373606 -0.39697 3.10914
0.674526 1.08013 2.89339
-1.145 -1.22162 3.3547
2.31961 0.0147964 2.8932
0.467817 0.365563 2.87272
-0.650034 0.719997 1.92824
0.376867 -0.366492 3.12434
0.11376 -1.27639 3.56553
1.71515 -0.138845 2.83765
1.53726 0.296701 2.68161
0.160419 1.06007 2.95715
0.97649 -0.438799 3.00751
-1.14966 0.352317 2.99076
0.701663 -1.40331 3.59377
-0.479905 0.715394 1.98404
0.00962844 1.13174 2.31639
1.49379 -0.379169 2.7828
0.509142 -1.36101 3.61107
-0.402394 0.31273 2.95636
1.86655 0.525263 2.64414
0.653778 -0.362416 2.95716
-0.361401 0.764057 1.94932
-0.0447284 0.538021 1.37143
0.103085 -1.28776 3.55756
-1.2358 0.430225 2.99415
1.57473 0.983655 2.55912
-0.253534 -0.327473 3.1219
1.36516 -1.19096 3.32721
2.63194 0.690525 2.76086
0.192778 0.365557 2.93114
1.06213 0.227062 2.87778
-1.04141 -1.38258 3.27542
-0.0149509 0.560813 1.28744
-0.377589 0.708805 2.11913
1.5016 -0.531531 2.87362
0.621192 -1.53612 3.70992
0.635714 0.200396 2.88319
-0.572862 -0.536183 3.22483
-0.588185 0.654605 2.05026
1.24073 -1.4833 3.64641
2.03829 0.361445 2.66134
1.56834 -0.444625 2.75586
0.988409 0.259981 2.89701
2.22849 0.471431 2.60251
-0.250898 0.906655 2.58451
1.28617 -0.673727 2.89797
1.37745 0.741548 2.70966
0.557596 -1.46723 3.58245
1.71207 0.0889262 2.76223
-1.1771 0.737237 2.73776
1.35485 -0.648529 2.97991
-0.666929 0.79171 2.97624
1.63752 0.0403165 2.81563
0.741385 -0.638929 3.12581
1.04682 0.153815 2.8215
1.43724 -1.66761 3.62669
-0.829811 0.632459 2.08632
0.666527 0.845181 2.96574
1.33947 -0.568852 2.89065
2.39202 -0.930739 3.83857
-0.575292 0.127564 3.01223
1.19942 -1.68899 3.82639
-0.277238 1.08585 2.45641
0.871227 -0.844115 3.22652
-1.16591 -0.0155882 3.0874
0.523652 -1.46571 3.5633
-0.0596835 -0.0505814 3.01322
1.32673 0.639598 2.71621
-0.183317 -0.797996 3.28414
1.45451 0.611146 2.73462
0.74098 -1.88569 3.97005
0.995126 -0.781724 3.23443
1.9038 0.375675 2.67774
1.58799 -1.48595 3.39419
1.61086 0.0130377 2.76449
0.0501254 0.755753 3.05309
-0.760495 0.626127 2.15697
-0.21021 -1.68183 3.60839
-1.3247 0.139514 3.08831
-0.486514 1.38187 2.96069
1.63594 -0.602808 2.84787
2.21883 0.250019 2.76597
0.217687 -1.68865 3.69467
-0.478482 0.679734 2.12436
-0.205716 -0.624776 3.18513
-1.05933 0.217397 3.02874
1.1434 -1.49493 3.36526
0.928618 -0.556707 3.0113
-1.1393 0.745894 2.45969
-1.16404 -1.40434 3.32469
-0.708588 0.168909 2.97118
1.86463 0.995941 2.54951
1.08673 -0.781407 3.10398
-0.863332 -1.264 4.49538
0.908597 0.0198229 2.89687
1.47795 -0.0352795 2.79227
1.25357 0.694606 2.78622
-0.591713 -0.760342 3.21268
-0.251984 1.08073 2.45388
1.13565 0.682839 2.86054
0.0260719 0.0990872 2.96537
1.55737 -1.38211 3.19939
0.797186 -0.719113 3.16994
1.09591 0.749646 2.79927
0.959524 0.0538332 2.89751
-0.525982 0.78032 2.26796
0.492532 0.762789 2.92289
1.64825 -0.627532 2.82418
1.50183 -1.46506 3.36697
-0.374671 0.596967 3.05702
1.82676 1.03905 2.55017
1.34922 -0.122848 2.69793
-0.0471997 1.07 2.40805
1.36735 -0.898503 3.08172
1.87603 0.079411 2.72603
-0.316873 0.673683 3.08259
1.64042 -2.09787 3.43196
-0.513587 -0.0894596 3.07543
1.39741 -0.838583 3.00556
1.7372 -0.0567762 2.77601
1.20991 -1.4481 3.44192
-0.0712933 -0.869798 3.32848
1.44672 0.556979 2.67577
1.02383 -1.12159 3.30533
0.566785 0.473475 2.91959
0.49916 1.24434 2.88163
1.23947 -0.952779 3.1555
0.736426 -0.273245 3.03094
0.987426 1.12617 2.74613
1.45384 0.415356 2.79958
-1.14221 -1.03321 3.30316
-0.707328 -0.238501 3.0525
0.710706 1.13872 2.86175
-1.10546 -0.088628 3.12752
-0.58753 -1.10777 3.61083
1.30012 0.511672 2.79726
-0.774077 -0.205568 3.05901
-0.158386 1.14996 2.95625
-0.135335 -1.0005 3.35429
-0.769785 0.526621 3.04543
-1.43871 -0.171181 3.088
-0.443713 0.899866 1.87767
-0.123401 0.776913 2.98969
-0.360981 0.843172 1.92765
1.30027 -0.716433 2.97267
1.08918 0.0506339 2.80723
-0.576376 0.757641 3.05237
-1.35773 -0.725996 3.21653
0.531765 -1.46855 3.56399
-0.0306823 0.0300483 2.97147
-1.41057 0.136623 3.05333
1.94812 0.712646 2.569
-0.723121 -0.691441 3.27777
-0.66917 0.857397 2.89341
-1.10746 0.117224 3.12258
-0.443625 -1.60905 3.56746
0.270646 -0.0857754 0.144047
0.650026 -0.641503 3.18852
1.49258 0.724081 2.62578
1.10598 -0.845408 3.08094
-0.177811 0.660274 2.96085
1.85208 0.101318 2.72221
0.963072 -0.0730735 2.91039
-1.28941 -0.824192 3.18784
0.773772 0.604309 2.9402
-1.47618 -1.58449 3.36436
1.46619 -0.0506344 2.83719
1.5268 0.377351 2.27681
1.79454 0.957757 2.52724
-0.861552 0.713455 2.97693
-0.947322 0.336034 3.03238
-1.00502 -0.00448218 3.07337
1.18155 -0.765593 3.0694
-1.09396 -0.249879 3.14157
-0.548552 0.819918 1.88862
0.79016 -1.08172 3.34463
1.67622 0.448065 2.59266
1.58524 -0.919227 2.94952
0.974089 -0.196746 2.92931
-0.716879 0.781934 1.86342
-0.125541 0.684598 1.64051
-0.544403 -1.06297 3.43899
-0.375449 0.494431 2.97704
-0.488524 -0.995533 3.36422
0.103761 0.598254 3.0047
-0.176377 -1.17859 3.5037
