ply
format ascii 1.0
element vertex 1836
property float x
property float y
property float z
end_header
-0.33942 -1.59384 3.52051
-0.177683 0.895194 3.02416
0.085011 0.701979 3.3466
-0.743605 0.861899 2.93904
-1.03317 -1.46144 3.30643
1.41689 0.10943 2.86003
1.44712 -0.585879 2.93765
-0.298409 0.858929 1.9311
-0.849281 -0.993186 3.78187
-0.958014 0.699852 2.944
-0.152975 -0.052692 3.01922
1.51094 -0.681115 2.66972
-0.97405 0.728643 3.25019
0.306128 -0.0210508 2.97077
-0.212204 1.01318 2.76517
1.8204 0.353212 2.6621
0.705896 0.736616 2.95321
-1.20406 0.0249272 3.09143
1.51559 0.406715 2.27159
1.46153 -0.725042 2.93221
0.434117 -0.212555 2.99837
-0.129502 0.942663 2.14989
0.349996 1.27724 2.90049
-0.451716 -1.08739 3.49852
-0.987684 0.55402 2.96334
1.33304 -0.171118 2.79948
-0.633037 0.807645 1.86557
1.69799 1.11181 2.56109
-1.10889 -0.967978 3.26557
-0.35769 0.520951 2.98883
-0.592558 -0.983396 3.43431
-1.12846 0.606026 2.8669
-1.03534 -0.132677 3.16647
1.7134 -0.794403 2.8063
1.56921 0.528306 2.68899
-0.744014 -0.0848865 3.0251
0.686279 -0.805583 3.18534
1.05124 0.0103009 2.88988
2.55467 0.00467971 3.77956
0.932773 -0.0272018 2.89471
-0.305773 0.765968 3.08951
0.221279 -0.784988 3.28205
1.03366 0.6843 2.88007
1.85746 -1.40646 3.26873
-1.38592 -0.723442 3.14278
-0.869566 0.766737 2.65009
-0.362545 0.0489999 2.97875
1.34988 0.710355 2.71747
-1.38726 -0.173111 3.08305
1.35671 -0.938407 3.06516
-0.398881 0.586256 2.98749
1.90153 0.589507 2.62204
1.55259 -0.139018 2.75008
-0.547124 0.855084 1.88399
1.88638 0.365906 2.65017
-1.43748 -0.910697 3.17817
0.615468 0.541214 2.9302
0.870422 -0.0952603 2.96432
1.3958 0.596712 2.70749
-0.104921 -0.911938 3.33793
0.781167 1.27099 2.82678
0.642626 -0.0602903 2.9486
-1.40452 -0.824811 3.13209
1.74044 0.561947 2.70747
1.15601 -1.16262 3.38136
1.74932 0.449847 2.74466
0.074672 -0.293324 3.06767
-0.451032 0.775919 1.86275
-0.70291 0.46796 3.07197
0.0982114 -1.15003 3.55494
0.000273956 0.844452 2.09144
0.472331 -0.259189 2.98185
1.59765 -1.00215 3.12841
1.66663 -0.208236 2.72664
0.619557 0.505971 2.93023
-0.691954 0.71162 1.91368
1.33415 -0.416253 2.75131
0.971154 1.0214 2.7838
1.30265 -1.36991 3.44292
1.40597 0.313616 2.79658
-0.257253 -0.416303 3.16336
0.524827 1.02944 2.91648
0.333074 -1.31696 3.49885
0.245573 0.299211 2.93052
1.55707 0.364855 2.64068
1.28123 -0.365117 2.86469
0.699083 -1.28482 3.5049
1.19121 1.0663 2.72568
-0.619496 -1.19426 3.44336
1.81956 -0.33755 2.81905
1.34476 1.01625 2.67448
1.2336 0.356289 2.85702
0.774872 -0.895962 3.22349
1.56133 -0.0963372 2.84427
1.93199 0.000323432 2.73698
0.080696 0.656473 3.12813
1.0405 -1.75013 3.69114
1.26235 -0.0585138 2.79004
1.65201 1.14291 2.56437
0.369277 0.719939 3.0264
-0.485618 -0.870263 3.35087
0.783317 -0.0234801 2.92322
-1.2318 0.657128 2.88305
0.227927 -0.828868 3.31457
1.32812 0.498938 2.85184
1.24697 -0.243796 2.78523
-0.262005 0.878341 1.97248
-1.22837 -1.05677 3.3061
-1.27342 -1.01478 3.30419
-0.383125 0.779096 2.02934
0.839825 1.16517 2.80088
1.55923 -0.216466 2.87383
-0.468709 0.49432 3.00891
-0.674102 -0.999978 3.4162
-0.898634 0.596521 2.99914
0.059307 -0.168955 3.0361
0.273975 0.548073 2.93275
-0.294724 -0.943073 3.34649
-0.607955 0.872411 1.88271
0.509698 -0.133364 2.95968
0.90395 1.06129 2.78519
-0.648246 0.381252 3.00307
-1.00594 -0.371999 3.14344
-1.15787 -1.21301 3.34447
1.61428 -0.32697 2.84427
-0.474812 0.756778 1.87749
1.12775 -1.21546 3.42096
0.59957 0.448186 2.91979
-0.76635 0.7273 1.85147
-0.511311 -0.291015 3.08897
0.80452 0.409239 2.927
1.0073 -1.20019 3.50905
1.47343 -0.488822 2.80685
-0.587432 0.279778 2.98557
-0.443523 -1.43816 3.52562
1.08299 0.950994 2.77017
1.36462 0.88789 2.69309
0.967418 -1.53075 3.77614
-0.320586 0.242859 2.99952
1.26309 -0.478965 2.94332
-1.41191 -1.22748 3.1667
-1.09426 0.348625 2.94983
0.397911 -0.44597 3.0925
-0.695664 0.720306 1.93799
-0.176276 -1.33112 3.58226
1.00321 0.293444 2.92864
1.06292 -0.395673 2.9264
0.171298 1.03283 2.91742
0.740705 -1.1635 3.27914
0.991707 0.443606 2.91102
0.0216381 -0.337322 3.08004
-0.530837 0.419481 2.99654
0.376613 -1.19908 3.54528
1.01694 1.08703 2.77657
-0.994195 -0.292343 3.13421
0.215782 1.20655 2.89246
-0.842414 0.499781 3.0222
-1.3126 -0.258394 3.14438
1.54955 1.02676 2.54573
-0.956675 -1.02368 3.1619
-0.244587 -0.494476 3.17049
1.35401 0.954517 2.68667
0.595705 0.294127 2.90375
-0.869439 -1.40572 3.53442
-1.30651 -0.452151 3.15984
1.47216 0.881899 2.57117
0.403288 -1.38323 3.55649
0.871183 0.264474 2.88635
1.66153 0.334752 2.67061
0.905028 -1.3228 3.49201
-0.185149 0.790448 2.06965
0.234473 -0.408861 3.09986
-1.07447 0.352164 3.02482
1.26097 -1.2448 3.35837
1.11703 1.01211 2.75281
1.59781 -0.361452 2.82489
-0.967213 -1.48667 3.41114
-1.33858 -0.644854 3.37301
0.393666 0.158716 2.92154
-0.400142 0.900384 3.01737
-0.478522 -1.60469 3.41447
-0.501645 1.40529 2.96236
-1.44955 -0.579636 3.18469
-0.852529 0.668017 2.01882
0.819119 -1.52836 3.5746
-0.827997 0.235476 2.99207
-1.00049 -0.544175 3.21812
1.67391 0.806849 2.54618
0.806076 -1.57014 3.78931
1.24428 0.186892 2.7981
-0.037595 0.05178 2.9602
-0.229832 1.06848 2.45275
0.99349 0.761747 2.88724
1.68669 -0.711121 2.85793
0.986175 -0.734575 3.15279
0.0253844 0.755013 3.03577
2.00035 1.0756 2.69676
0.682285 0.0145352 2.92176
0.762619 0.118104 2.88046
-0.298996 0.874403 3.02937
1.8264 0.720259 2.57785
0.873421 -0.685582 3.13539
0.627326 -1.79174 3.90245
0.273401 0.0860795 2.96269
1.05947 -0.639883 3.07312
2.50559 0.0232995 3.75541
0.764494 0.805991 2.90945
0.711864 -0.737616 3.16816
1.19748 0.759612 2.77516
-0.0441358 1.13612 2.93258
1.06752 0.0758692 2.81664
1.39575 0.694532 2.66757
1.4771 -0.641002 2.85323
-0.285328 -1.08237 3.43431
1.14461 0.0345012 2.85441
-0.607975 -1.57219 3.46118
-0.678303 0.156202 2.96783
2.06529 1.16269 2.80725
-1.37156 -0.647619 3.16487
-0.116625 0.920697 3.09941
-0.266334 0.120211 2.99445
-0.678103 -1.54497 3.51879
2.12213 1.05894 2.76579
0.227465 -0.627911 3.22446
1.64662 0.741705 2.60598
1.11747 -0.82257 3.06909
0.791002 -0.0630021 2.91711
0.583911 -1.79376 3.74084
-0.276275 0.693261 3.15872
1.92127 0.64225 2.6249
-1.4296 -0.0233483 3.08517
-0.904012 -1.61898 3.41758
0.112822 0.750343 3.04192
1.91825 -0.165855 2.72128
0.813386 -0.813506 3.18656
1.25843 0.00563574 2.77847
0.337393 0.713534 3.02958
-0.411058 -0.789944 3.31286
1.29689 0.517812 2.81617
0.164936 -0.223101 3.05104
-0.278069 0.909576 1.96615
0.0487185 -1.06533 3.41466
-0.6445 -1.00081 3.38904
-0.447503 0.756806 2.22485
-0.684305 0.801805 1.86578
0.993313 -0.182657 2.93777
0.826143 0.512302 2.97227
-0.548847 -0.956776 3.32685
1.05018 0.598906 2.89272
-0.395504 -0.142371 3.0934
0.437181 0.567901 2.91053
1.22116 -0.893283 3.15722
0.673536 1.25413 2.85222
0.41068 -0.1002 2.97708
-1.03381 -1.20967 3.49988
-0.378519 -0.348033 3.11992
-1.31516 0.420547 2.95399
-0.393525 0.7593 1.94391
1.66458 -0.275837 2.62177
1.16793 1.12294 2.70726
0.296379 -1.20909 3.55167
0.358126 0.468056 2.88351
1.14129 -0.255021 2.84453
0.395565 1.14434 2.86676
-0.591398 0.452689 2.97349
0.445973 -1.1521 3.53569
1.26808 -0.175642 2.78362
-0.422397 0.723903 1.96896
0.30459 1.31655 2.90198
-0.944682 -0.98256 3.3711
1.13148 0.556232 2.85028
-0.685026 0.856499 1.8654
-0.813108 -0.136087 3.07203
-0.56187 0.558815 3.03219
1.83523 0.66152 2.60272
-0.774377 -0.946378 3.35008
-0.579142 -0.0970643 3.08946
-0.886708 -0.891235 3.28577
-0.1179 0.694551 3.12167
-0.198095 -0.894199 3.42527
-0.327905 -0.0604875 3.0538
1.39073 0.566765 2.76048
-1.42953 -1.08678 3.20487
0.0359617 0.490356 3.00615
0.82378 -0.30268 2.99554
0.620565 1.19631 2.88684
1.42133 0.417078 2.77655
-0.390184 -1.19616 3.68263
-0.340074 -0.263237 3.09844
1.42557 1.05883 2.63684
-0.369231 0.850351 2.41277
0.0933011 0.511699 2.96752
1.29826 -0.213817 2.80971
0.691144 -1.08881 3.42201
-0.908792 -0.46157 3.20082
0.823393 1.03993 2.8443
0.198067 -1.42504 3.64979
1.67015 0.298881 2.73199
-0.312221 -0.420416 3.16954
1.12819 0.988152 2.7916
0.680898 -1.37639 3.62568
0.912782 0.289892 2.87709
1.53747 0.368885 2.70778
1.65443 -1.21251 3.2224
1.53026 0.986125 2.52927
1.23368 -0.374141 2.93093
-0.00271726 0.367214 2.95917
1.67248 -1.10337 3.06596
-0.808091 0.706946 1.87053
-0.727244 -0.344091 3.1159
-0.730823 -1.47699 3.49445
1.10076 -0.546799 2.92442
-1.36514 -1.29866 3.10457
-0.267984 0.191019 2.96456
1.65365 -0.500258 2.82656
-0.659709 0.644836 2.08339
0.738459 0.978945 2.88268
0.24853 0.268688 2.94122
-0.0443912 -0.508133 3.18631
0.968313 0.936454 2.86655
-0.587126 -1.39484 3.48953
1.51532 0.2041 2.71196
1.1208 -1.11169 3.36487
-0.518564 0.520813 2.99394
-0.0729227 -0.259468 3.07933
-0.317597 0.863958 1.94197
1.19827 0.461699 2.83696
-0.742674 -1.06323 3.4444
-1.13586 -0.220573 3.16095
1.55054 1.0348 2.48396
-1.51935 -0.956563 3.17289
1.66847 0.541564 2.76403
1.24757 1.16718 2.69652
-0.245269 -0.177457 3.07448
-1.12992 -0.915115 3.20844
-0.0262518 0.559315 3.02517
0.311604 -0.137468 2.97912
-0.515678 0.853849 1.88441
0.878318 1.0728 2.82632
-1.101 0.378381 2.99407
1.17791 0.996787 2.71711
-0.493127 -0.374689 3.08281
0.979674 0.327455 2.93273
0.0563661 -1.32162 3.63076
-1.13705 -0.361335 3.26694
1.54646 1.00323 2.49724
-1.25913 -1.15913 3.33459
0.753706 0.446609 2.93359
0.255373 1.13958 2.94493
0.446073 -0.292477 3.00196
1.32895 0.389479 2.80292
-0.615678 -1.17619 3.50441
-1.21071 -1.32634 3.24308
1.53109 0.238857 2.59003
1.31609 0.938336 2.73909
1.31161 -0.511004 2.91021
-0.67524 -1.39184 3.51354
-0.622177 0.232054 2.92361
0.997633 -0.489745 3.01307
-0.46678 0.687049 2.08122
0.728991 -1.40008 3.56909
0.695816 -0.455937 3.09216
-0.0316174 -1.34571 3.58097
0.766426 -1.81142 3.81853
1.50785 0.27577 2.76151
-0.19355 -0.416794 3.13543
-0.545804 0.699421 2.00116
-1.46123 -0.69239 3.19233
-0.643676 0.855181 2.98339
-0.501111 1.35673 2.96252
-0.126746 0.123762 3.00078
0.0618482 0.828922 3.0318
-0.726349 -0.679121 3.38834
-0.993491 0.10572 3.22786
0.077715 -1.58355 3.48226
0.746084 -0.60999 3.12034
0.188003 0.945215 3.01872
0.637887 -1.65759 3.73018
1.53737 0.179898 2.80414
-0.178626 1.11824 2.87394
-0.731877 -0.569597 3.19435
1.59846 0.766587 2.57639
-1.34595 -1.40376 3.32542
-1.03971 0.167355 3.00203
0.726245 -1.66491 3.65026
1.0034 -0.479694 2.94337
1.08233 0.29327 2.90909
-0.69272 0.706165 1.97822
1.06961 -1.36323 3.33697
-1.08548 -1.27427 3.3397
1.23999 0.256181 2.82626
1.51621 0.884889 2.60141
0.0766004 -0.454758 3.12111
-1.48341 -1.23678 3.29133
1.0882 0.35542 2.88583
-1.3311 -0.431946 3.24046
-0.231642 0.776785 2.03586
-0.930997 -1.23193 3.42654
-1.36019 0.343717 2.99125
1.48865 -0.364922 2.82533
-0.42152 0.736629 1.99578
1.2306 0.828864 2.77124
-0.421336 0.157362 2.99324
-0.763765 -0.619132 3.27325
0.110095 -1.63548 3.69311
-0.709643 0.662478 2.00633
1.4685 -0.567445 3.01232
-0.35503 0.236882 3.05311
-0.180433 -1.53576 3.61047
-0.436023 -0.540489 3.22907
1.35939 0.845002 2.70491
0.223449 -1.46361 3.54677
-0.892605 0.196104 2.97444
-0.215433 1.34467 2.92538
-0.247113 1.01584 2.23591
0.491719 0.0439014 2.93082
-1.09747 -0.793244 3.37353
-0.616633 0.766362 2.94998
-0.567192 -1.03226 3.58342
-1.07296 0.748982 2.97518
-1.41462 0.0209041 3.16808
1.39128 -0.708238 2.99182
0.387613 0.113204 2.93371
1.4676 0.330083 2.1891
0.568805 0.835904 2.92833
-0.86417 -0.699766 3.23477
0.135154 -1.57767 3.47372
-0.82785 0.0895211 3.03358
1.91197 1.12821 2.94595
-1.06975 0.787777 2.8377
0.179132 -0.661494 3.21209
1.28344 0.574344 2.774
1.84249 0.320645 2.68443
-0.370336 -0.0930903 3.06741
0.0146493 -1.7142 3.68333
-0.984116 -0.899885 3.33906
1.67293 -1.06705 2.94595
-0.661547 -0.0608261 3.07256
1.76865 0.661341 2.7945
1.4843 -0.801285 2.95361
-0.690742 -0.0236429 3.06064
-1.05359 0.661263 2.97496
-1.20345 0.238155 3.00156
-1.18662 -0.794738 3.20053
0.0177677 0.716998 3.24393
0.0351453 1.26545 2.85567
-0.473642 -0.0624814 3.07267
-0.386022 0.866366 2.36069
0.114077 -0.879617 3.33995
-1.45425 -0.0286193 3.08773
-1.2 0.729524 2.91628
-1.23605 -0.789088 3.15122
1.43984 -0.00508178 2.7971
-0.695516 0.699961 3.02453
1.76066 0.930361 2.54237
-0.0948319 -0.7968 3.31846
1.71195 0.48365 2.64187
0.330831 -0.228936 3.04607
-0.377161 0.846988 1.91256
-0.983325 -1.04958 3.39963
1.30783 -0.952391 3.10439
0.460432 0.493643 2.89362
-0.135685 0.992415 2.64358
1.15683 -0.176006 2.78132
-0.354958 0.869008 2.45738
1.84576 -0.861109 2.91416
-1.02252 0.611674 2.97352
0.980794 -0.150115 2.91247
-0.758999 -1.0156 3.6301
0.37449 0.562921 2.93337
0.47845 -0.104933 2.98415
0.922114 1.247 2.77218
-0.553087 0.745637 1.90837
0.916287 0.396867 2.93086
0.468866 -0.346517 3.04513
1.22051 -1.18291 3.29117
1.59108 -0.30563 2.96532
1.64724 1.04704 2.53686
1.12312 -1.20075 3.47382
1.119 0.463557 2.88158
1.33001 1.05698 2.6355
-1.42535 -0.270369 3.11291
-0.26188 0.452126 2.99021
0.597569 -1.11433 3.37969
0.404272 -1.43481 3.54816
1.17243 0.277922 2.81148
-0.799785 0.692975 1.96871
1.19198 -0.475945 2.87713
-0.209981 -1.39238 3.57349
-0.689685 0.268615 2.97688
-0.366517 0.720926 2.09565
0.73639 -0.451779 3.01639
0.0693225 -1.34141 3.55884
0.445917 0.352651 2.88645
0.703225 -0.417552 3.04201
-0.4521 0.741319 1.95256
-0.111318 -1.26494 3.48419
-0.969687 0.328258 2.96013
-0.239091 -0.384597 3.13955
1.50719 0.938532 2.57098
0.867448 -1.1702 3.38841
-1.50975 -0.321261 3.22292
0.451144 0.432653 2.90492
-0.294192 0.781421 1.96586
1.08781 -0.259434 2.84603
-0.696444 0.684897 1.9361
-1.35136 -1.06488 3.2319
-0.432873 0.516702 3.00527
-0.754269 -0.219068 3.06223
1.10044 1.10777 2.6981
0.913076 0.470155 2.92563
0.406447 -1.07384 3.40736
1.51161 -0.434823 2.81483
1.15873 0.303386 2.81947
-0.599709 0.697547 1.94523
-0.4363 -1.35291 3.49237
-0.892305 -1.27478 3.41943
-0.0366026 0.293769 2.93752
-0.660605 0.693995 1.95878
-0.58929 -0.429262 3.23131
-0.739192 -1.25162 3.46805
-0.92874 0.407329 2.95729
-1.09574 -0.37046 3.02538
0.395424 1.10657 2.86874
-1.06255 -1.18445 3.34904
1.68055 0.326509 2.70223
-0.610361 0.723529 1.91001
-0.787266 -0.35336 3.16728
0.881842 -1.50675 3.46435
0.8892 -0.573334 3.05598
0.290989 0.181438 2.9392
0.29296 0.93549 3.03688
0.816392 0.973385 2.87838
1.03089 -0.527959 2.99694
0.199122 -1.69552 3.59895
-1.53939 -1.38462 3.31474
1.1413 0.25045 2.82856
-0.180789 -0.507142 3.17368
1.1105 0.894995 2.76388
0.0177489 -1.43567 3.56188
0.355003 0.216147 2.91652
0.932637 -0.730633 3.12218
1.55144 0.0703893 2.96916
-0.458653 1.05522 2.85706
-0.534398 0.81266 3.00415
1.36467 0.694116 2.6793
-0.141342 1.38762 2.9068
0.281667 0.0364624 2.96007
1.10019 -0.675898 3.02269
0.198529 0.144559 2.96938
-0.566744 -1.56219 3.4349
1.39018 -1.35697 3.26078
0.966116 0.847326 2.86791
-1.35197 -0.665363 3.21196
-0.21857 -1.58627 3.59227
0.236012 0.111281 2.9627
-1.23651 -0.650299 3.34766
2.26517 1.0697 3.01765
-0.395284 0.866981 3.07155
0.477671 1.07733 2.86789
-1.24393 -0.418707 3.1647
1.47855 0.348577 2.86326
0.957995 -1.50298 3.92714
-0.225691 0.764304 2.06991
0.171446 -0.379879 3.08076
0.884355 0.319119 2.92322
0.930718 -1.33041 3.58127
-0.0194033 0.44855 2.97017
1.34371 -0.327638 2.77158
-0.41139 -1.24319 3.54327
0.481522 1.14126 2.86007
-0.418091 -1.1895 3.51684
1.11841 1.04309 2.6783
-1.12973 -0.303664 3.18932
0.755838 0.400177 2.91964
-0.0858396 0.267797 2.96052
0.875513 -1.50384 3.58873
-1.16299 -0.562089 3.34225
0.449758 0.998783 2.94478
-0.805568 -1.39003 3.47951
0.225625 0.222762 2.93491
-1.16686 -0.513 3.24705
0.385381 0.95617 2.94457
-0.404027 -1.36951 3.54273
0.653008 -0.458649 3.07797
-1.35385 0.304563 2.95481
1.47292 0.90931 2.57517
0.399687 0.844611 2.97843
0.12452 -0.704431 3.23948
0.999057 0.106194 2.8732
-0.00360776 1.36779 2.88465
0.559779 -0.667337 3.21085
0.440653 0.808149 2.95569
1.13703 -1.75748 3.78994
-0.479078 0.0834969 2.97557
-0.458608 -0.63301 3.30399
1.15992 0.173486 2.79971
-1.21103 -1.42293 3.22923
1.75855 0.0735842 3.29873
0.887676 0.906611 2.90484
1.69997 0.779684 2.62392
-1.11351 -1.41868 3.32504
-0.26898 0.153856 2.95559
-0.670183 0.793187 2.97294
-0.489359 -0.594816 3.29981
-1.24765 0.0180588 3.12593
-0.349 -0.841379 3.38221
0.903378 0.713098 2.88723
1.71936 -0.0368669 2.70988
-1.41879 -0.77238 3.19803
-0.537803 0.715602 3.07196
-0.785016 -1.26193 4.36702
1.54789 0.0507781 2.37198
0.603961 0.785871 2.99664
-0.610243 0.0484282 3.03123
1.09865 -1.67317 3.51851
0.0273849 1.222 2.8856
-0.0935647 -0.746008 3.25895
-0.574065 0.823939 2.73082
1.13515 0.136947 2.82561
-0.520009 -0.629286 3.26429
0.257314 0.861667 3.05051
-0.804274 -1.55566 3.52023
-0.940098 -1.62989 3.44006
1.68798 0.0961736 2.76057
0.553389 -0.589132 3.18637
-0.564111 0.68391 2.09054
0.259822 -1.55396 3.62902
-1.00371 0.239867 3.01805
-0.156244 1.07366 2.98018
-1.22206 -0.560087 3.29915
1.20549 0.856751 2.76543
-0.0924079 -1.48878 3.60233
-1.42676 0.199966 3.08526
-0.349772 1.29917 2.94866
2.14315 1.06496 2.93074
0.188587 -0.793164 3.28974
1.64213 0.0306482 2.70904
-1.13093 0.781941 2.96833
-0.603612 0.0115763 3.04743
-0.691887 0.725765 2.9626
-1.18682 -0.725379 3.18959
-0.358847 0.982415 2.70355
1.63141 -0.665034 2.92754
1.56673 0.063731 2.70042
0.668536 -1.85065 4.01866
1.97617 0.112866 2.62025
-1.25399 -0.678596 3.31223
0.0832119 0.819166 3.01993
1.61713 -0.14699 2.79169
1.44374 -0.871283 2.92865
1.0765 0.590202 2.8777
1.93743 0.542536 2.63227
1.15206 -0.0996797 2.77694
0.39065 1.31252 2.89949
-0.0709108 -0.918647 3.33554
-0.649802 0.60053 3.09564
1.88897 -1.02722 2.90698
1.61928 0.615842 2.63927
-0.736193 -0.0585267 3.05372
1.53418 -0.800283 2.94656
0.87172 0.633398 2.90658
-1.38956 -0.022546 3.11351
1.51968 -0.758786 2.91917
1.19226 -1.29083 3.39712
-2.54676 -1.9648 5.52484
0.645255 0.499783 2.91947
0.620654 -0.264527 2.96295
-0.790044 0.735677 2.37372
-0.101614 0.483244 2.97261
0.483826 -1.09211 3.45638
-0.411878 0.772542 1.87237
0.486786 -0.220787 2.9835
1.4767 -0.886608 2.87416
0.0821566 -0.180761 3.03002
-1.28686 0.532451 2.87086
0.15364 1.29644 2.89685
-1.09533 -1.01986 3.2439
0.452256 0.521835 2.90499
-0.298888 -0.228428 3.11019
-0.611645 0.896036 1.86309
-0.129941 -1.03103 3.44891
1.14155 0.490494 2.88731
0.943237 -0.193431 2.92085
-0.232859 0.814696 1.92897
-0.0537448 -0.973933 3.35986
1.79809 -0.151574 2.80707
-1.33571 0.566818 2.89898
1.0609 1.23179 2.73701
-0.756424 0.7275 1.87359
1.10912 -0.369014 2.89326
-0.753038 0.40207 2.98004
-0.394824 -1.29273 3.54374
0.630922 1.08139 2.88664
0.0874011 -0.355478 3.10107
-1.23118 0.374537 2.99753
0.516524 -1.29073 3.61159
0.930848 -0.306045 2.95645
1.36995 1.07549 2.61835
-1.03751 -1.13249 3.35359
-0.89464 0.478543 2.95742
0.847712 -0.278262 3.00297
1.63044 1.00126 2.49048
0.265107 0.427369 2.8926
0.0169508 -1.12735 3.43822
1.63132 0.259212 2.63582
1.36998 -1.41948 3.43692
-1.24316 -0.51912 3.25903
-0.483358 0.708318 2.00791
0.359746 -1.32608 3.37299
1.31621 0.247587 2.81516
-1.03961 -0.456131 3.10287
-0.512979 0.695874 2.03742
-1.1226 -1.25301 3.33821
0.801917 -0.423542 3.03263
1.46179 0.295895 2.78141
1.5954 0.942094 2.58899
0.0472886 0.894665 3.0534
-1.4203 -0.653552 3.11978
0.342592 0.145082 2.95748
1.14733 -1.66788 3.58538
0.336112 0.854178 3.02618
-0.500621 -0.645433 3.32321
0.176477 0.106501 2.95294
1.49051 -1.61079 3.54077
1.52557 -0.53474 2.7921
-1.32521 0.24053 3.06117
1.30109 -1.57917 3.60966
0.0470405 1.30302 2.88093
0.295387 0.970638 2.99965
1.4364 0.818607 2.65807
0.927189 -1.531 3.63489
1.01431 0.168689 2.84804
-0.362595 1.41212 2.93686
0.364105 -0.545661 3.14251
1.56428 -0.444515 2.85343
0.0767972 0.314287 2.91953
1.28918 -1.41328 3.52898
0.425305 1.04465 2.89431
0.569801 -1.35448 3.53694
1.24304 0.957018 2.73983
0.19046 0.285975 2.92313
-1.32449 -0.426874 3.16585
1.05273 -1.20248 3.23755
1.64465 0.362434 2.68126
0.612821 -0.384539 3.0319
0.0254121 1.10717 2.88278
-0.0971899 -1.35364 3.79808
0.224185 0.355012 2.93278
0.154262 1.09927 2.93982
-1.18231 -0.352828 3.12717
-0.0648269 0.922068 3.02158
-0.963697 0.189632 3.04189
0.820636 -0.580058 3.09928
0.846731 -1.5071 3.45877
-0.600288 0.665586 1.9832
0.969724 -0.538966 3.01815
0.14112 0.262369 2.93442
0.131032 -1.53467 3.68486
1.13036 -0.482505 2.92595
1.52384 0.84699 2.61127
1.48233 -1.40336 3.37101
1.41014 0.206117 2.84536
-1.38691 -0.786558 3.32934
-0.237162 1.31917 2.93399
-1.46054 0.0835233 3.20479
0.301347 0.782136 2.91719
-0.0742749 1.34839 2.89815
-0.957952 0.0432359 3.04365
-0.50115 0.794543 3.07201
0.25469 -0.721855 3.2853
0.812956 -1.74218 3.75719
1.00411 0.132544 2.86501
-0.560171 0.914472 2.86524
1.16526 -0.631869 2.95039
-0.455199 0.879989 3.00706
0.706359 0.101294 2.90062
0.154955 -1.60445 3.60574
-0.160817 0.527174 1.46593
1.47885 -0.577968 2.82304
-0.836321 0.845511 2.93985
1.13448 -0.109131 2.79566
-0.215605 0.645547 2.98753
1.20177 -1.70171 3.66425
1.25041 -0.893498 3.1407
0.37461 -0.0694113 2.94973
-1.04014 -0.867806 3.33307
0.454338 0.594871 2.94854
1.53444 0.262272 2.30669
0.601141 0.733707 2.98059
-0.753403 -0.0327642 3.06482
1.25534 -1.69364 3.53817
0.554057 -0.0013337 2.96786
1.7804 0.797583 2.57543
-0.943948 -0.987872 3.80054
1.27626 0.637731 2.77451
-0.562182 -0.850129 3.46275
1.7592 0.904407 2.55332
0.0271251 -1.50626 3.64111
-0.279539 0.265073 2.97186
0.247665 1.01206 3.003
0.900775 -0.539533 3.05166
-1.19915 -1.35146 3.4139
-0.869336 0.229103 3.01951
-0.68908 -0.507196 3.23478
0.701397 0.945177 2.90984
0.0617965 1.0175 2.92925
-0.96651 0.304425 3.01314
0.126516 -1.71044 3.62312
-0.0749432 -0.4739 3.18861
-1.03966 -1.29573 3.38423
1.16007 -0.674933 2.99891
0.719438 0.835746 2.95486
-1.02472 -0.682724 3.31995
-0.893621 0.119007 3.04437
-0.843293 0.829985 3.05153
0.912556 -0.668204 3.16644
0.521144 0.0745253 2.90816
1.24467 -1.62242 3.48901
1.01827 -1.61335 3.60984
0.029958 0.174536 2.94461
2.24506 1.03594 3.07466
1.55519 -0.568659 2.77518
-0.394959 0.909748 2.97265
-0.899308 0.151441 2.98334
-0.352644 -1.4632 3.42671
0.0625861 1.32381 2.8847
-1.14762 -0.597559 3.34151
0.178832 0.886575 3.00118
0.418443 -0.838939 3.29859
1.04002 -0.0383384 2.89141
1.59427 0.0463106 2.41192
0.890499 0.668466 2.88142
-0.518696 0.919414 2.87308
-0.0485927 1.11677 2.43854
-0.877039 0.768556 2.95347
-1.35356 -0.795949 3.30382
-0.109459 0.0421743 3.00125
0.484883 0.729124 2.98198
0.570967 -0.755446 3.23119
-0.197405 0.00691438 3.03024
-0.318966 0.66182 1.67571
0.498227 -0.183253 2.98455
1.52609 1.09894 2.5637
0.254205 -1.05025 3.49127
-0.174673 0.552172 2.85406
1.72507 0.920897 2.54379
-0.298158 -0.140863 3.02434
-0.167099 0.878306 2.01452
-1.29082 -0.936824 3.25934
1.6446 0.505765 2.7982
0.548257 -0.927619 3.31306
1.4182 -0.107039 2.72172
-1.30289 0.618041 2.80575
-0.669704 -0.915773 3.45078
1.58549 0.538161 2.64668
1.28202 -0.071196 2.76666
0.283147 -0.81464 3.35118
0.0252119 0.0360807 2.95843
0.445785 0.760702 2.9505
0.916126 -0.746456 3.16505
1.746 0.000938911 2.74405
1.01439 0.709383 2.88312
2.33627 1.01916 3.14324
1.512 -0.0325874 2.21669
0.69369 -0.699962 3.16525
-0.937551 0.083664 2.95926
1.9694 0.000222018 2.63071
-0.505576 0.814453 3.02669
-1.13307 -0.148107 3.1015
0.756827 -0.971478 3.305
1.70725 0.911527 2.5504
0.406346 0.566023 2.78793
0.760596 1.2454 2.82931
1.54835 -0.881175 2.80403
-1.47177 -0.104986 3.20357
-2.80831 1.13414 5.80529
-0.852832 -1.64652 3.45334
0.104527 -0.932302 3.35166
-0.909192 -0.0592617 3.0917
0.996751 -0.891354 3.2961
1.25784 0.64762 2.79946
-1.99913 -1.05163 4.04714
0.0532653 0.711404 3.21791
-0.347034 0.906233 2.60468
-0.310277 -0.0318251 3.05677
1.09207 -1.14302 3.42841
1.70026 0.457083 2.64536
-0.157103 -0.267678 3.0634
-0.370783 0.760643 2.17196
0.471291 0.462516 2.89717
-0.166337 -1.07801 3.45048
1.01744 -0.226967 2.90348
-0.190871 0.8113 1.96998
-0.61316 0.878672 1.86664
1.22014 0.506705 2.80359
0.430962 -0.185993 2.99611
1.5063 -0.99119 3.20247
1.3129 -0.393323 2.79091
1.47713 0.992781 2.63444
-0.275516 -1.31601 3.48427
0.698532 0.3554 2.91943
1.39985 -0.361471 2.81774
-0.532851 0.713465 1.95112
1.45244 -1.27183 3.37945
0.182259 0.316056 2.917
-0.518589 0.440995 2.95872
1.67499 -0.326598 2.70119
-0.204969 -1.22629 3.47477
-0.362835 0.77134 1.91824
-0.125613 -1.1789 3.45185
0.318215 0.392479 2.90984
-0.187045 0.792989 2.0354
-0.645195 -0.301111 3.0627
1.71197 -0.358018 2.67765
0.733266 1.09267 2.85082
-1.32993 -1.215 3.30863
-1.34219 0.39804 2.93293
0.562141 1.08225 2.91436
-0.449877 -0.36854 3.20956
-0.127206 -1.32709 3.72334
1.71434 0.327839 2.71842
1.38651 0.44128 2.79715
0.587256 -0.321593 3.02165
-1.15063 -1.12829 3.27064
0.277065 1.19963 2.94876
0.565615 -1.17357 3.52233
0.0507573 1.1247 2.84936
-0.191787 -0.270931 3.05946
-1.0465 0.424016 2.8659
1.05667 -1.41928 3.44711
1.78381 0.269505 2.7832
0.451519 -0.521099 3.19233
1.58085 0.898507 2.56819
-1.3385 -1.28067 3.27191
0.513004 0.248234 2.82536
1.44822 -0.442781 2.81215
1.58196 0.850891 2.53523
-0.15244 0.901821 2.4534
-1.33553 0.338641 3.03043
-0.14037 -0.437376 3.14737
-0.826407 -1.26957 3.36046
0.643435 0.871396 2.95475
-0.069419 -1.70414 3.60473
0.617816 -0.675743 3.17601
-0.655557 0.141485 2.97958
-0.0445689 -1.67795 3.66283
1.25042 -0.611904 3.00111
-0.867396 0.824219 2.87292
0.88243 -1.73121 3.83223
-1.47654 0.124126 3.22625
-1.41107 0.228334 2.98102
-0.4155 -1.47666 3.42654
-1.18711 -0.613309 3.3322
1.3134 0.868376 2.69214
-0.376637 1.06704 2.87906
1.75187 -1.57246 3.68514
-1.29576 0.188305 3.04769
0.751449 -1.58543 3.62147
0.750258 -0.548232 3.09774
-0.777618 0.670276 2.17089
1.51102 0.0234292 2.88098
0.311773 -0.819083 3.3491
1.53004 0.668774 2.60129
-1.42728 0.00016425 3.07337
-0.913754 -0.77377 3.32641
1.54577 0.64421 2.64493
-0.348055 0.696871 2.19072
1.50632 -1.46295 3.3655
1.68209 0.707437 2.6246
1.28556 0.0579173 2.78865
1.90203 -0.27948 2.7102
0.00319568 -0.714432 3.22885
-0.930436 -0.622676 3.21267
1.14638 0.845862 2.76467
1.10372 -1.63409 3.6154
1.69554 0.156198 2.76871
0.333592 -0.587714 3.13959
-0.045693 0.900346 3.0708
-1.34151 0.154134 3.06427
-0.616568 -1.48724 3.4722
0.766402 0.961509 2.86393
-0.66272 -0.573128 3.32108
1.16308 -1.60649 3.76563
-0.0502376 0.259041 2.94235
1.80659 -1.92084 3.96517
0.743054 -0.511855 3.10816
0.783965 0.92786 2.89059
0.706733 -1.50826 3.57255
-1.24142 -1.3056 3.23616
1.48163 0.203282 2.82035
-0.0264638 -0.761026 3.25479
0.734749 0.0628195 2.91755
0.244083 0.647142 2.99451
1.17472 0.747062 2.78261
-0.0813534 0.0315061 2.97057
0.768874 -0.708965 3.17614
-0.187075 0.770399 3.03357
1.35715 -1.69859 3.62953
1.92021 -0.324105 2.725
1.15655 -0.651861 3.00336
-0.179545 0.1058 3.00526
0.252604 0.782365 3.57391
-0.176356 0.855465 3.0743
-0.190359 -0.110915 3.04365
0.420318 -0.932043 3.3211
1.64407 0.243181 2.73092
1.13793 0.618343 2.87763
1.74755 -0.501702 2.76882
1.22019 -0.0818171 2.77972
1.16522 0.570713 2.82671
0.600028 -0.895896 3.30601
0.753401 -0.0416365 2.92006
0.764907 -0.00799493 2.93691
0.253169 -0.85013 3.29751
-0.515267 0.737294 3.05706
-0.00788596 0.663562 3.05514
-0.364819 -0.823284 3.40519
0.0619895 0.730719 3.14408
1.5365 1.14723 2.56485
1.16256 -1.04113 3.22824
0.899371 0.524403 2.91
-1.02914 -0.236158 3.16062
-0.647712 0.830512 1.85623
1.70885 0.46641 2.744
0.93082 -1.00134 3.2366
1.06151 1.14146 2.72488
-1.18417 -0.194534 3.10732
-0.381037 0.762095 2.06359
-0.385359 -0.988542 3.42497
1.67234 0.520133 2.72973
0.694504 -0.156465 2.98491
1.23805 -0.667251 2.95942
-1.23187 0.113213 3.02226
-0.307724 1.03542 2.95666
0.866895 0.821139 2.92615
-0.137108 0.795432 2.96864
-1.12987 -1.56156 3.3845
1.69309 0.054497 2.70115
-1.33902 -0.684826 3.28819
1.71745 0.154031 2.72998
-0.533737 -1.55085 3.49246
1.26717 -2.0082 4.32766
0.00393831 0.951902 3.1166
-0.924801 -0.635319 3.27475
-1.51587 -1.3737 3.1454
-1.09732 0.149953 3.0293
1.04671 -0.565288 2.96785
0.970408 -1.40614 3.54093
-1.15179 0.822378 2.76707
1.33568 -0.767113 2.92685
-0.430194 0.704299 3.05748
1.4135 -0.0459755 2.81796
-0.676783 0.719221 2.25802
1.62844 -0.921575 2.92493
-0.599023 0.7667 2.99203
1.02241 0.0280165 2.8796
1.83081 -0.718928 2.86724
1.13017 -1.98359 4.13308
0.33656 0.744226 3.0427
-0.121092 0.951232 2.03463
-1.42642 -0.730469 3.12907
0.225366 -0.00264086 3.00364
1.10045 0.548841 2.86174
-1.09966 -0.192273 3.13162
1.85561 -0.155085 2.72751
1.24342 1.22048 2.72539
-0.304883 -0.994193 3.29703
0.177068 -1.02368 3.51038
1.77082 0.882967 2.55576
0.218592 1.33441 2.89277
0.743327 -0.154736 2.97948
-0.439467 0.547981 3.02342
-0.0201129 -0.923291 3.33515
-0.226425 -0.107204 3.02991
0.749312 0.632507 2.93906
0.328149 0.601121 2.97843
0.0632237 -0.879603 3.30154
1.11593 -0.0765315 2.83118
0.576506 1.14178 2.87113
-0.133143 0.435743 2.96758
-0.799137 -0.312908 3.17064
-0.859268 -1.14877 3.37807
0.401935 -0.278024 3.10145
1.41843 1.0769 2.54014
-1.27084 -1.06687 3.27616
-0.217377 0.503757 2.94535
1.46763 1.04614 2.54432
-1.23332 -0.228035 3.13098
-0.954325 0.481918 2.97312
0.293934 -1.10316 3.49157
1.77206 0.858693 2.55741
-0.668637 -0.15012 3.0412
-1.08714 -0.952436 3.32866
0.911531 0.586271 2.91336
0.781487 -0.114869 2.93067
-0.33422 0.763739 2.0732
0.854417 -1.62916 3.80942
0.833549 -0.92643 3.26353
0.473317 0.553401 2.92559
-0.307295 -0.894137 3.37789
-0.4257 -0.0702669 3.01082
0.456697 0.671893 2.9641
1.01242 -0.856343 3.27398
-1.26646 0.625776 2.87128
-0.197825 -0.0371923 3.02935
0.831908 1.24444 2.79187
-0.10934 -1.13515 3.44664
0.148313 -0.273836 3.04346
-0.329879 0.482653 3.01972
1.00806 1.10976 2.72171
0.283667 -0.229522 3.01974
-0.635246 0.852292 1.86649
-0.591694 -1.05432 3.37836
1.65225 0.51621 2.80705
1.42219 -0.185426 2.72025
0.65266 1.19164 2.8456
1.5208 -0.944444 3.02917
-0.602903 0.515541 3.01713
1.10673 -0.416431 2.93831
-0.39067 0.744753 1.99181
-0.62825 -1.27951 3.40446
-1.25765 0.369735 2.97885
-1.21094 -0.397319 3.21537
1.25614 0.992034 2.72498
-0.0794761 -1.29133 3.52315
-0.393011 0.320873 2.97624
0.945148 0.426192 2.92152
0.917739 -1.26276 3.48234
0.908504 -0.353066 2.99268
-0.791739 0.724279 1.81225
-0.349745 0.395722 2.96543
1.45839 -1.13926 3.22001
0.354918 -0.328113 3.1516
1.15392 1.04493 2.70445
-0.990569 -1.41516 3.37849
0.0237669 -0.553134 3.17854
-0.540503 0.224179 2.99336
-0.317208 0.897065 2.78341
-0.113797 1.03407 2.99021
0.572148 -0.515707 3.15846
-0.308444 -1.38845 3.44733
-1.09983 0.297048 2.96837
-0.391552 -0.476387 3.21234
1.28643 0.93527 2.77444
-0.625024 -1.33426 3.43173
-0.532419 0.26949 3.03804
-1.27887 -1.3069 3.21711
1.39445 -0.491425 2.86489
1.61653 0.235124 2.80423
1.42447 0.891612 2.66178
0.10561 1.05703 2.95283
0.125828 -0.472887 3.11018
-1.18474 0.327168 2.98267
1.41129 -1.34889 3.32539
0.220482 1.04979 3.02757
-1.06954 -0.434863 3.15442
-0.535006 -1.30381 3.43299
-0.109254 0.286148 2.97053
-0.494474 -0.681613 3.24815
0.884273 0.853529 2.90758
-0.950897 -0.368094 3.17145
0.256082 -1.64906 3.58814
-0.97428 0.139631 3.00337
-0.280052 -0.638159 3.22502
0.822936 0.806822 2.90498
1.58736 0.085084 2.74175
-1.4382 -1.4373 3.18643
-0.518667 0.217676 2.98849
-0.518926 -1.47975 3.36903
0.08682 0.968073 3.02772
1.06919 -0.573688 2.97262
-0.21491 1.11837 2.9508
-0.34929 0.176568 3.00115
-1.50522 -1.38454 3.3085
0.494575 -1.5223 3.59742
-0.686998 -0.572056 3.31261
0.999336 0.870667 2.86118
0.631828 -0.794861 3.21086
-0.270796 0.920094 2.4051
0.805781 -0.0181871 2.90684
1.62121 0.639692 2.64516
2.28507 -1.52631 4.21017
1.32847 -1.40176 3.07655
-1.27801 0.786317 2.89602
-0.286994 -0.784103 3.33797
0.123462 0.0631613 2.94754
1.49714 0.66395 2.60781
1.45697 -0.688393 2.99414
0.456439 0.0241167 2.93435
1.28301 -1.88213 3.86867
1.74812 0.550803 2.75576
0.780894 -0.163535 2.98498
-1.0477 -0.643332 3.31771
1.37309 -0.905466 3.00972
-0.362264 0.914314 2.63936
-0.271325 -0.953412 3.41954
0.551752 1.27532 2.87513
-0.284803 -0.11147 3.01017
0.657334 0.561083 2.96044
0.835693 -0.896842 3.27164
-1.33177 -0.078308 3.13209
0.589328 0.67939 2.99469
1.10458 0.610202 2.86924
1.33799 1.16166 2.64354
1.23333 -0.824272 3.11744
-0.264507 -0.0460421 3.06773
-0.305373 0.0673722 3.00056
-0.893757 -0.789084 3.36656
1.5022 0.696458 2.60294
-0.801614 0.0365332 3.07991
0.157296 0.780778 3.07387
0.348188 -0.728272 3.24752
-1.10897 -0.605024 3.30562
1.83961 -0.483289 2.74798
-0.229832 0.866506 3.12758
0.588526 0.0959538 2.92754
1.82329 -2.35582 4.99839
-1.13144 -0.69394 3.34065
0.920656 -1.73623 3.70939
1.0927 -0.116804 2.83199
-0.0515423 1.13726 2.62315
1.40901 -0.864205 2.98561
-0.148754 0.654737 3.07549
0.01679 -0.0758113 3.00597
1.37322 -1.55522 3.36669
0.334167 -0.899328 3.31283
-0.545863 0.619832 3.09454
0.889919 -0.832458 3.1795
-0.801035 -0.00742944 3.07324
1.14412 1.19287 2.71349
1.18506 -0.0508281 2.78773
0.803971 -1.68529 3.45602
-0.83746 0.751874 3.10987
-1.28083 -0.798533 3.29133
1.77801 0.982155 2.53928
0.429413 0.666332 2.95514
-0.905656 -1.07642 3.44002
-0.177648 0.548273 3.06098
1.09279 -0.231385 2.82885
-0.329225 0.894969 2.56584
1.02411 -1.03963 3.32184
-1.10988 0.499104 2.93933
-1.15123 -0.199426 3.08633
-0.792549 0.747866 1.77808
0.927722 1.2264 2.77396
0.827699 0.544951 2.89508
-0.862491 -0.158213 3.12428
1.03725 -0.972764 3.24558
-1.46082 -0.407527 3.19917
-0.711113 0.723728 1.8857
0.582507 -1.33327 3.58516
-0.84793 0.395275 3.00132
1.58965 0.966799 2.60026
1.68401 -0.338155 2.67552
-1.1417 -1.12164 3.18288
-0.406511 0.353017 2.99318
1.65161 0.405857 2.62285
-1.28105 -1.11472 3.24187
0.289615 -0.329944 3.10642
0.654048 1.16953 2.8847
0.542918 0.420466 2.95399
-0.939688 -1.05528 3.17782
0.518197 -0.276502 2.98023
-0.696844 0.733035 1.8656
-1.15876 0.720471 3.12758
0.100327 1.33735 2.88583
1.12392 -0.0494074 2.82408
-0.442312 -0.839228 3.31331
0.0118018 1.20413 2.8599
-1.00982 0.755728 2.92578
1.44214 -0.740127 2.93691
-1.05255 0.0346429 3.04201
1.10336 0.688556 2.83619
1.3408 -0.716431 2.95486
1.58573 -0.911738 2.90462
1.05655 0.550429 2.88868
1.10855 1.23561 2.7272
-0.419915 -0.00407308 2.9996
-0.0879441 -0.193093 3.06198
1.20328 1.18568 2.7185
1.76379 -0.502019 2.78645
0.571207 -0.975241 3.30231
-0.654029 0.551577 3.05789
1.8168 0.538399 2.65988
0.574878 -0.156937 2.96075
-0.240387 0.895025 1.98875
-0.098985 0.692184 3.15997
-1.44874 -0.878135 3.11168
-0.76278 -0.105854 3.03263
-1.12287 -0.893063 3.37339
-0.777561 0.60293 2.98236
-1.09225 -0.0730341 3.21475
1.01635 -0.354056 2.90566
1.09299 1.05902 2.67155
-0.91308 0.432026 2.94896
1.60665 -1.14338 3.10874
0.168691 1.11524 2.92267
-0.887413 -0.317967 3.12159
-0.702722 0.401288 3.04669
-0.204008 -1.16011 3.35127
0.201966 -0.279635 3.058
-0.019376 0.866621 2.05224
0.274035 -1.21102 3.64295
0.186834 0.495518 2.92987
1.13216 -0.227271 2.83526
1.04101 1.11115 2.73482
1.2599 0.435993 2.80478
0.90349 -1.06673 3.32613
-0.548975 0.322825 3.00817
-1.28091 -1.31675 3.36496
0.392369 1.07153 2.97456
1.15864 -0.44111 2.8196
-0.802813 -1.32038 3.49127
-0.628591 0.284337 2.94368
0.281322 1.04054 3.00507
1.56684 -0.409383 2.81904
-1.04093 -1.25858 3.46858
0.942755 -0.397281 3.07164
1.72735 0.307747 2.6679
-0.692261 0.708697 1.9142
0.66579 1.15669 2.85194
0.13069 -1.1791 3.56044
-1.20978 0.465291 2.93066
-0.652887 -0.275355 3.06996
0.787086 -0.236321 2.9863
-0.514021 0.822693 1.891
-1.44091 -1.01354 3.16522
0.843722 0.524366 2.93513
-0.310587 0.795494 1.90381
1.12999 -0.1929 2.82451
1.17248 0.479542 2.83627
-0.0636551 -1.0381 3.40098
0.0105691 -0.435502 3.12315
-0.0275311 0.349183 2.95461
0.790084 -1.35625 3.49769
0.849873 1.05133 2.82811
0.996864 -1.32786 3.55172
0.764691 1.01893 2.83528
-0.55595 -0.397989 3.16114
-0.600773 0.315255 2.94888
-0.820246 -1.20964 3.40047
-1.09938 0.419196 2.84549
-0.991377 -0.362914 3.17092
-0.648662 0.747234 1.87781
1.18613 -1.15362 3.26963
0.0546628 0.383168 2.92906
-0.402854 0.752616 1.94618
1.4038 -0.31012 2.80138
1.40889 0.847617 2.6365
0.739254 0.211183 2.90694
0.624288 -0.55491 3.12882
-0.567352 -1.43672 3.46314
0.346042 -0.51169 3.12594
0.649014 1.00377 2.89675
0.484469 0.277713 2.88362
0.591479 -1.6087 3.92049
1.43663 -0.449804 2.83685
0.788782 -1.74747 3.61393
-0.746513 0.672673 1.98539
0.879049 -1.40481 3.52092
-0.754204 0.2628 3.00998
-0.924845 -0.452147 3.18824
-1.15252 0.11496 3.13369
-0.645959 -0.744913 3.43164
1.52492 0.731641 2.61847
-1.16796 0.0796389 3.12967
-1.28332 -1.56066 3.35114
-0.383654 0.815125 3.05424
0.230258 -0.693493 3.26482
-0.468982 -1.55168 3.47187
0.736003 0.165753 2.89055
0.777209 -1.67381 3.82431
0.527997 -0.646088 3.20494
1.27076 0.820232 2.69478
0.631525 0.131223 2.91857
0.301533 -1.54887 3.57484
-0.734637 1.05373 2.87714
-0.390124 -0.611392 3.30095
-1.24329 0.840496 2.83033
1.1219 -0.657422 3.00801
1.22445 0.112451 2.75433
-0.913687 -0.304141 3.14613
-0.217827 0.883151 3.03144
-0.438414 0.844465 3.05663
0.491536 -1.66057 3.67463
-0.0586666 0.0964219 2.98641
-0.420985 -0.660067 3.30826
-0.927736 0.217161 2.99181
0.443997 -1.6013 3.67664
-1.48489 1.0495 3.25054
0.106336 0.168708 2.9572
0.657637 -0.593095 3.08295
-0.0417069 -1.48566 3.53652
0.313471 0.166529 2.93723
1.02455 -1.62376 3.63172
1.37889 -0.530763 2.87152
0.49558 0.894746 2.95627
1.20858 0.680788 2.8253
0.423064 -0.017177 2.96751
-0.476087 0.891972 2.65533
-1.16202 -0.816629 3.37777
1.95766 -2.17319 4.75443
1.32226 0.73135 2.74838
-1.17896 -0.782616 3.37869
-1.05468 0.0668302 3.06161
0.159678 -0.729955 3.23433
0.85266 -1.72298 3.6704
-0.0708393 0.750398 2.9795
1.67775 -0.0860657 2.59328
1.7358 0.0105704 2.7061
-1.27846 -0.987527 3.38078
-1.47276 0.634702 3.11604
1.73735 1.09761 2.5503
0.329875 -0.163021 2.9901
-0.47048 -0.998216 3.55936
-0.14509 0.572492 3.02909
1.92778 0.157917 2.73643
-1.33405 -0.123039 3.0735
-0.0280085 1.13278 2.68823
1.3298 -0.835113 2.98873
0.998777 0.658034 2.9118
1.64372 -0.0881765 2.81588
-0.696046 -0.890704 3.39352
-0.645653 0.631796 3.00498
1.18246 1.20787 2.72043
-1.20897 -0.0449224 3.05706
1.32928 1.0429 2.5731
-0.753149 0.471131 3.00824
1.67559 -0.278575 2.8307
1.35949 -1.17681 3.45763
-0.985068 -0.246221 3.13302
-0.575993 0.855943 1.86488
-1.23073 -1.02998 3.24622
1.62777 0.472356 2.63461
0.799834 -0.200555 2.95347
-0.108604 0.85246 2.04575
1.32748 -0.973138 3.07756
0.818718 0.488485 2.96534
-0.850431 0.657494 3.09093
1.23536 -0.125609 2.81083
1.89808 0.480435 2.64312
0.612984 -0.948183 3.31578
1.60386 -0.733202 2.58151
1.07112 -0.0834323 2.82919
-1.31375 -0.873844 3.23386
0.603672 0.592525 2.98449
-0.0851305 -0.0116956 2.98061
1.72233 -0.765807 2.8725
-1.38879 -0.0461606 3.10924
-0.197926 0.712186 2.98757
1.38933 1.17997 2.60754
1.8129 0.486832 2.64714
1.18304 -0.750912 2.97653
0.328347 0.684222 3.02131
1.01668 -1.09935 3.37506
-0.0159822 -0.247282 3.07236
0.322769 0.473674 2.86992
-0.476557 0.780619 1.86418
1.53412 -0.203982 2.75552
-0.380329 0.858638 1.90478
0.154413 -1.04038 3.38147
1.19208 0.527885 2.81983
-1.25485 -0.16424 3.15477
-0.0330442 1.16628 2.68483
-0.469233 -1.00447 3.39554
-0.726092 0.531466 3.02037
0.308605 -0.401381 3.07293
1.34347 0.352785 2.76192
0.283053 -1.32828 3.55625
-0.298418 0.769289 1.99384
1.61638 -1.21861 3.28586
0.816036 -0.370368 3.00928
-0.195784 0.779159 2.08982
0.132532 0.342052 2.91469
-1.25856 -1.12348 3.25302
0.830427 0.449544 2.9172
0.327662 -0.340103 3.14361
0.964625 1.12558 2.78437
1.04766 0.409265 2.88143
1.66963 -1.09233 3.17567
0.150265 1.14114 2.92383
0.324331 -0.292634 3.12137
-0.0457742 -1.44006 3.50642
0.0533161 0.977102 2.95614
-1.26932 0.260538 3.02758
0.524027 -0.522706 3.13176
-0.848341 -0.486868 3.24277
1.36885 0.952877 2.66024
0.460499 0.302643 2.90376
0.707255 -1.5753 3.91319
0.908142 -0.43911 3.02371
1.364 0.934133 2.71302
0.315926 -1.38472 3.58116
0.548944 0.265616 2.85517
-1.38514 -0.995328 3.22788
1.4998 1.16179 2.57473
-0.462035 0.567541 3.0055
-0.374876 -0.206971 3.08964
1.01114 1.2492 2.75689
0.0104676 0.530017 2.99559
0.618728 -0.982176 3.31818
-0.515578 0.899135 1.877
-0.707761 -0.157025 3.06107
0.94097 -0.951965 3.3093
-0.316291 -0.114263 3.01771
-0.911172 0.579903 2.89156
0.50186 -0.364629 3.02677
0.864031 1.08681 2.76263
0.260446 -1.34377 3.7011
0.0193196 0.420797 2.93915
0.951121 1.06504 2.78554
-0.481269 -0.327595 3.06995
0.0992885 -1.23779 3.57465
0.868775 0.37366 2.91444
-0.990935 0.497501 2.9841
1.27508 -0.268691 2.79274
0.690354 1.18584 2.84173
-1.17326 -1.06957 3.234
-1.37208 -1.00299 3.14638
0.0874728 1.16865 2.90777
-0.91546 -0.237873 3.10129
0.545076 0.451997 2.92293
0.544807 0.304266 2.8699
1.38789 -1.38543 3.4147
-2.46735 -0.866256 5.30022
1.42641 0.962989 2.6725
-0.678385 -1.28957 3.40386
-0.37527 0.285309 2.97187
1.66203 -0.407789 2.79294
1.30515 0.963255 2.78843
-1.04678 -1.2241 3.37067
-0.526288 0.727349 1.94803
-0.102515 -0.405233 3.12875
1.6872 0.319133 2.71087
0.0587266 0.909767 3.01909
1.24838 -0.585879 2.82892
1.59426 0.152802 2.79153
-0.822793 -1.53368 3.43297
-0.992978 -0.608539 3.22393
-0.703676 0.864534 2.8957
-1.38784 -1.41672 3.28912
-0.0172964 0.134862 2.95928
-0.399052 -0.573158 3.27896
0.201992 0.250605 2.94572
-0.800857 -1.42938 3.4471
-0.683738 0.887033 2.94855
0.32676 1.02048 3.05208
0.756286 0.941574 2.93997
-1.0013 -1.33515 3.32316
0.708847 0.207339 2.92017
1.30779 -1.70569 3.67895
-0.757873 -0.509117 3.14643
1.26845 0.331252 2.84298
1.01264 -1.33994 3.43455
-0.72703 0.714499 1.92129
-0.541946 -0.437681 3.18131
1.27505 -1.25655 3.31701
-0.260681 0.315241 2.97867
0.864592 1.01277 2.83139
0.0894979 -0.403942 3.11299
-0.535676 -1.26071 3.53515
-0.869095 0.423098 2.94147
0.254005 -0.37103 3.09757
0.687206 1.11284 2.83532
1.14499 -1.20053 3.39219
-0.807361 0.389801 3.01681
-0.272049 0.773947 2.02491
-1.32328 -0.334799 3.15541
1.01985 -0.584698 3.01293
0.540012 0.94161 2.95273
1.01678 -1.63256 3.71087
-0.124332 0.214848 2.97426
-0.577499 -0.57268 3.28248
1.47543 0.801339 2.64378
0.543799 -1.5374 3.64256
1.21323 0.15605 2.81601
-1.39902 -0.534648 3.25485
-0.576718 0.694509 1.99466
-1.12942 -1.33682 3.32616
1.02905 0.266893 2.86665
-0.818502 -0.481153 3.18401
1.08596 -0.463928 2.91838
1.49606 0.87394 2.6138
0.47591 -1.45104 3.63028
-1.13758 0.263515 3.05432
-0.41752 0.102306 2.97148
1.05225 -1.57356 3.58222
-0.992406 0.808705 2.85991
-1.14786 -0.743821 3.39251
-0.56827 0.0646904 3.01283
-1.32277 -0.705649 3.33825
0.0578733 0.803483 3.02171
-1.46883 -1.44599 3.19557
2.3807 0.373049 3.6946
0.946048 -0.643872 3.13643
0.157703 0.131893 2.98337
-0.306051 0.818593 1.93444
1.49751 0.756719 2.58229
-1.10883 -0.0752852 3.07372
1.32907 0.623994 2.7666
-1.25406 -0.876517 3.25813
0.025089 1.27804 2.88422
0.5172 -0.0483956 2.97061
1.81919 -0.5773 2.82113
0.923153 -0.83248 3.1707
-0.422782 0.64125 3.0471
1.45239 -1.69364 3.58677
1.08205 0.0170432 2.85005
1.11645 0.71713 2.82524
1.03449 -0.766689 3.06597
0.738045 0.706055 2.95509
-1.24088 0.294279 3.00838
-1.31666 -0.0107134 3.04072
1.13389 -1.76189 3.59375
0.860867 -0.775548 3.21362
1.87947 0.14907 2.71906
-0.962609 -0.0423929 3.02932
1.32 0.65176 2.74154
-0.670845 0.869879 2.71368
-1.4714 -0.829777 3.15577
1.76434 -0.0278327 2.72215
1.1421 0.648878 2.87724
1.36938 -0.746227 2.93621
2.496 -0.0447173 3.84134
0.567238 0.783144 2.95646
-0.155377 0.0578345 2.99404
1.85278 0.396256 2.64434
0.446842 -0.802315 3.34368
1.71473 0.648661 2.58741
-0.507378 -0.720772 3.23061
1.65048 0.0111933 2.81789
1.74261 -0.778512 2.86715
0.102829 -1.01219 3.43935
-0.923038 0.76831 2.73717
-0.296261 0.606359 3.07511
-1.18864 -0.168009 3.10306
1.68365 0.489448 2.64863
-1.45158 -0.868001 3.01947
-0.496653 0.869902 1.89266
-1.22406 -0.127388 3.10482
-1.34894 -0.864617 3.15437
1.72892 -0.0844525 2.75809
1.12974 1.24709 2.72966
-0.889186 0.650459 3.08337
0.535027 -0.335782 3.02914
1.21101 1.09933 2.72024
1.62654 0.398522 2.58363
0.0541923 -1.1976 3.42631
-0.120464 0.797058 2.02176
0.763019 -0.290455 3.0045
0.10218 0.411244 2.91751
1.20817 -1.11046 3.24742
-0.460105 0.527253 2.99881
0.130817 -0.249417 3.04037
-0.168548 0.942032 1.98468
-0.811032 -1.11126 3.49506
0.127684 1.1978 2.88594
-0.578234 -0.214014 3.10398
-0.377381 -1.03856 3.32766
1.36055 0.459293 2.80902
1.09991 -1.34266 3.41735
0.0579102 0.339061 2.91385
-2.43969 -0.98378 5.54671
0.900209 1.04147 2.82179
0.76098 -1.31137 3.48632
0.0499024 0.302507 2.94291
-1.43407 -0.420991 3.22443
-0.169836 0.843024 2.32921
0.892226 -1.363 3.71742
1.61442 -0.358323 2.80734
-0.591551 0.380165 2.97989
0.235248 1.11426 2.93363
0.871692 1.15884 2.7881
0.00185538 0.487125 2.9612
1.2869 -0.243681 2.80986
0.145536 -1.13872 3.53952
1.59356 -0.211884 2.79646
-0.317639 0.860877 1.939
-0.688434 -1.04923 3.41878
1.16372 0.529041 2.84975
-0.666839 0.809359 1.86461
1.23358 -0.166982 2.80617
-1.24735 0.520572 2.91571
-0.552971 -0.98489 3.31334
-0.136045 0.373629 2.95406
0.126529 -1.31426 3.52048
1.54639 1.00395 2.62906
1.25843 -0.386367 2.83224
-0.466605 0.346603 3.00717
-0.546038 -1.23094 3.43508
-0.295929 0.754494 2.0271
0.125149 -0.373865 3.08846
1.29739 -1.18803 3.33178
1.10716 0.442125 2.887
-0.31226 -0.342348 3.13261
-0.171933 0.817002 2.02557
0.829049 0.409848 2.92864
-0.916653 -1.11034 3.34854
-0.620961 0.740384 1.90139
0.691743 -0.291395 3.03476
-0.437409 0.690213 2.0747
0.69253 0.237498 2.93304
-1.01397 -0.523778 3.13299
1.60766 0.812666 2.57847
-0.154799 -1.47222 3.60027
1.41806 -0.470775 2.86674
-0.340622 0.742231 2.05907
-0.745706 0.307556 2.99638
-0.12001 -1.43096 3.59895
0.618549 -0.449464 3.07495
-0.665812 0.685843 2.01533
-1.15294 -1.258 3.32153
0.489587 -1.66721 3.58427
0.270832 0.274605 2.95131
-0.455451 1.36703 2.95712
-1.04101 0.136957 3.03138
-0.239964 -0.694006 3.25342
0.119296 0.859041 2.98089
1.1875 0.0791128 2.7956
0.759728 -1.76749 3.86587
1.29254 0.764977 2.74983
0.0198515 -0.657425 3.24837
0.748665 -1.74881 3.94541
-0.48193 0.208952 2.98852
-0.239944 1.05807 2.86936
0.00795214 -0.607298 3.18934
0.229929 -1.49103 3.5204
-0.167436 0.16438 2.97754
-0.590645 0.224896 2.98468
1.12254 -0.540542 2.91834
-1.00672 0.716286 2.364
-1.10515 -0.379617 3.15281
0.522554 1.12129 2.86709
0.466257 -1.27968 3.53353
1.12175 0.403203 2.87059
0.923591 1.06041 2.77928
-0.510368 -0.330426 3.08134
1.17246 -1.20453 3.38439
0.354546 0.370496 2.90535
-1.43107 -1.10292 3.28038
-1.15764 0.487508 2.89938
0.0514512 -0.286596 3.07882
1.41002 1.09247 2.61382
-0.713727 0.46217 2.98297
0.239594 -1.17153 3.63893
1.67554 -0.253093 2.87125
-0.759601 0.748046 1.84973
0.404269 0.299299 2.90478
-0.411821 -1.40964 3.56963
1.66802 -0.460993 2.84784
1.20778 0.983678 2.74134
-0.884033 -1.31628 3.4439
-1.24544 0.292771 2.99998
1.69472 -0.442394 2.95198
0.686962 0.998326 2.9017
-0.460126 0.726832 1.95452
0.583391 0.337205 2.897
-0.884504 -0.407107 3.18561
-1.39505 -1.22491 3.31739
-0.751605 -1.59479 3.38606
0.82607 -0.641644 3.12241
-0.879818 0.649204 2.13188
1.27045 -1.7513 3.81431
0.712957 0.165687 2.93978
0.0864013 -0.612384 3.21495
0.461131 0.865502 2.98669
-0.0843023 0.129152 2.97758
-0.996305 -1.47307 3.4033
1.24332 -1.53591 3.58427
1.38439 0.227658 2.81515
1.11338 -1.70744 3.68988
-1.21085 -0.580608 3.27704
-0.811685 0.66721 2.00762
-0.248977 -1.42856 3.50981
0.919035 0.203148 2.91901
-0.142353 1.12759 2.96272
1.07777 -0.503633 2.9361
0.492455 0.942004 2.95859
1.37357 -0.731838 2.98436
2.44435 -1.06178 3.91982
0.209938 0.0199223 2.97197
-0.742539 0.737875 2.94893
-0.259917 1.03511 2.45554
1.96448 0.183717 2.6593
-0.840782 -0.744453 3.34405
1.67687 0.70599 2.54653
-1.05162 0.107854 3.06796
0.373936 0.793738 2.9833
0.431047 -0.686202 3.18561
1.26603 0.0494714 2.81422
0.150027 0.961657 3.03589
-1.45607 -0.599583 3.12782
-1.39105 0.216417 3.01629
-0.56109 -1.50383 3.49122
1.35752 -0.536827 2.88353
0.712276 0.884328 2.93334
0.438402 -1.47756 3.49526
-1.33562 0.180752 3.0672
-0.507055 -0.535007 3.21525
1.10638 0.261247 2.82381
-0.175862 1.02477 3.00821
0.651569 -1.52718 3.68703
-0.42953 1.29961 2.95451
0.981051 -1.80315 3.80301
0.847335 0.958082 2.89694
-1.10351 -1.29902 3.31651
1.61065 0.217559 2.6631
-1.25805 -0.485253 3.15592
1.625 0.0794272 2.72881
1.43756 0.735886 2.65677
1.46601 -0.659406 2.80996
-1.26505 0.0656574 2.9813
-1.48632 -0.683518 3.15172
-0.743828 0.788004 2.98329
-0.575806 0.94661 2.95086
-0.664727 -1.54826 3.42847
1.46994 -1.9461 4.18771
-1.00942 0.736247 2.51503
-0.206264 0.131938 3.01163
-0.258971 0.939684 2.16362
0.216341 -0.655807 3.23474
1.44072 -0.0879248 2.71724
0.685751 0.661544 2.95601
1.11544 -0.949656 3.40966
1.35227 0.751819 1.99559
0.569986 -0.055926 2.94726
0.132346 0.676337 3.15976
0.56331 -1.48023 3.61524
1.59881 -0.765056 2.83844
-0.398863 0.0243762 3.01262
0.0383261 -0.813073 3.30294
1.43961 0.675792 2.70222
-0.858042 -0.870807 3.36564
1.26401 -0.739606 3.00698
1.41905 0.645864 2.70716
