ply
format ascii 1.0
element vertex 214
property float x
property float y
property float z
end_header
-1.65525 -1.50536 3.41271
-1.09828 -1.12711 2.71268
-1.40225 -1.2286 3.26093
-2.13305 -1.58729 4.09099
-1.5021 -1.20086 3.54458
-0.119519 -0.67069 2.3362
-0.033164 -0.712997 2.85294
-0.216994 -0.664691 3.49665
-0.424353 -0.598623 1.40812
-0.482119 -0.619553 1.59396
-2.32739 -1.59612 4.37281
-1.19082 -1.27567 2.78107
-0.12333 -0.698645 2.25854
-0.122459 -0.675736 3.10333
-0.433308 -0.590518 3.30378
-3.50208 -0.929937 6.225
-0.318728 -0.49867 1.12528
-2.19932 -1.70153 4.05049
-1.02664 -1.01383 2.68722
-0.22013 -0.62846 3.14006
-0.177 -0.886484 2.79209
-2.92014 -1.33837 5.50983
-1.14362 -1.1872 2.75202
-2.46127 -1.73321 4.31849
-1.51508 -1.26854 3.46852
-0.462537 -0.689373 1.4895
-0.633258 -0.718976 4.67664
-0.38864 -0.588137 2.70501
-0.087239 -0.663594 2.43764
-2.06646 -1.52809 4.07081
-1.80753 -1.31184 3.98804
-3.29568 -1.53096 5.90318
-2.00461 -1.66519 3.80271
-1.32658 -1.25217 3.06983
-1.75433 -0.661141 3.14175
-2.19064 -1.51878 4.29943
-0.348536 -0.672901 2.31094
-0.587882 -0.787219 1.76089
-0.590489 -0.747506 1.78916
-1.91214 -1.4971 3.85613
-0.0786794 -0.650653 2.70417
-1.57723 -0.823849 4.59177
-2.60714 -1.87881 4.53272
-1.59884 -1.32376 3.52505
-0.199084 -0.693106 2.06039
-0.688149 -0.861724 1.96958
-0.0344991 -0.695051 2.58747
-0.037695 -1.01604 5.39836
-0.936533 -0.971535 2.51486
-1.24219 -1.09434 3.08032
-0.253678 -0.692882 2.35896
-2.04416 -1.72242 3.80677
-0.784997 -0.921494 2.16848
-0.106592 -0.630939 2.59236
-0.00835623 -0.732823 2.83945
-0.507665 -0.688169 1.59849
-1.6251 -1.39922 3.48407
-1.19048 -1.08351 2.96555
-0.406085 -0.628694 1.35453
-1.99889 -1.36026 4.26466
-0.0403087 -0.949154 4.62926
-1.27851 -1.24259 2.97899
-0.143029 -0.515262 1.36098
-0.216243 -0.565925 1.6474
-1.93171 -1.6608 3.73399
-0.0650213 -0.681174 2.42485
-0.30902 -0.619419 2.81036
-0.181847 -0.704012 2.10984
-0.294772 -0.602036 2.3537
-0.6983 -0.937546 1.96875
-1.44221 -1.37436 3.16473
-1.79518 -1.48855 3.6635
-1.32084 -1.16658 3.15113
-0.312351 -0.628908 3.05285
-1.5548 -0.78387 4.76614
-0.0267249 -0.701071 2.42202
-0.885173 -1.03374 2.32066
-0.21609 -0.344988 0.834488
-1.55741 -1.32399 3.44105
-1.32692 -1.11628 3.25184
-0.227402 -0.641145 2.77685
-0.458287 -0.544561 3.10922
-1.97246 -1.46319 4.03445
-0.0695116 -0.728132 2.36086
-1.81582 -1.6317 3.57098
-0.367282 -0.536443 1.26264
-1.38324 -1.25352 3.19406
-0.224017 -0.649378 2.65635
-0.345292 -0.614594 2.88219
-0.171516 -0.926122 4.92033
-1.26597 -1.05755 3.22129
-0.197557 -0.616129 2.3533
-0.567814 -0.752571 1.72532
-2.35558 -1.75434 4.22303
-0.711338 -0.826488 2.21924
-0.691291 -0.68714 4.68367
-1.26704 -1.1916 3.00688
-2.23766 -1.57251 4.27568
-0.219891 -0.695406 2.22621
-1.68228 -1.5675 3.38611
-0.210505 -0.347272 0.809061
-0.41648 -0.605446 2.47195
-0.384036 -0.591569 2.99917
-2.18312 -1.58067 4.17141
-1.79599 -1.33216 3.92755
-0.241606 -0.651586 2.42641
-0.164231 -0.288503 0.656384
-0.13509 -0.23359 0.57084
-0.186033 -0.666984 3.06379
-0.314661 -0.599536 3.27849
-0.330918 -0.593564 2.54687
-0.150673 -0.65041 2.2284
-0.766188 -0.695062 4.57843
-0.304378 -0.456696 1.09674
-0.147764 -0.634942 1.65262
-0.192095 -0.577288 1.64153
-0.408192 -0.60862 1.35953
-0.176359 -0.685864 3.32432
-0.0722497 -0.658184 2.53519
-0.512013 -0.658865 1.64368
-0.964613 -0.957579 2.6061
-0.120127 -0.827605 2.4912
-0.53316 -0.773605 1.64225
-1.78412 -1.55605 3.58395
-0.283407 -0.616776 3.33568
-0.119028 -0.684851 2.31512
-0.464102 -0.626181 2.6074
-0.460612 -0.668394 1.48657
-0.687852 -0.84316 1.98526
-2.25077 -1.64183 4.20581
-1.04208 -0.976019 2.78083
-0.440809 -0.583283 2.82784
-0.238097 -0.645614 2.50206
-1.36379 -1.33392 3.05861
-2.21437 -1.67604 4.10005
-0.802562 -0.863269 2.33401
-2.09807 -1.4263 4.32866
-0.840682 -0.688495 4.52296
-1.24503 -1.06686 3.1508
-0.025864 -0.67875 2.4251
-0.964858 -1.08327 2.46037
-1.37842 -1.29867 3.11892
-0.54348 -0.668696 1.79175
-3.84254 -1.43849 6.62786
-0.145859 -0.619561 1.6891
-1.49664 -1.12283 3.67245
-1.37285 -1.39263 3.02704
-2.37008 -1.81313 4.19125
-0.623995 -0.742208 1.90409
-0.284669 -0.655812 2.67328
-0.126748 -0.64631 2.79812
-1.54246 -0.881329 4.53
-2.54477 -1.70999 4.4745
-0.190012 -0.657153 1.90514
-0.167249 -0.642272 2.27218
-2.18981 -1.76748 3.94748
-0.149661 -0.252257 0.611526
-0.267743 -0.615244 3.06708
-0.451492 -0.672605 3.90832
-2.0339 -1.50094 4.07792
-1.69788 -1.21238 3.87482
-0.838303 -1.02973 2.22717
-1.25556 -1.25966 2.91833
-1.1689 -1.14128 2.85319
-1.91201 -1.67619 3.68282
0.0336047 -0.901226 3.50723
-0.328364 -0.618839 2.38503
-0.850885 -0.949063 2.3135
-1.88195 -1.45497 3.87243
-1.69834 -1.26706 3.84754
-0.361631 -0.540943 1.24316
-3.89102 -1.40276 6.80473
-2.03741 -1.55195 3.98231
-1.65434 -1.30471 3.69666
-0.20375 -0.635558 2.16785
-0.144204 -0.632985 2.59693
-0.399574 -0.602048 3.29603
-1.37019 -1.1197 3.35079
-0.132504 -0.683169 2.53382
-1.57674 -1.4623 3.32455
-1.60769 -1.41506 3.41763
-2.28421 -1.61721 4.27625
0.07024 -1.17286 5.38115
-0.42728 -0.707191 4.64475
-0.0935183 -0.707128 2.31622
-0.3314 -0.606974 2.50908
-1.71842 -1.51277 3.53603
-1.04128 -1.04635 2.68343
-1.86028 -1.4119 3.8989
-1.45873 -1.41173 3.16055
-1.95562 -1.6006 3.80823
-1.47323 -0.862596 4.63879
-0.3546 -0.625022 3.07267
-0.111072 -0.675103 1.82991
-0.203173 -0.591418 1.8084
-1.03688 -1.18742 2.54367
-0.957304 -1.062 2.45938
-0.274916 -0.409071 1.03219
-0.434733 -0.634169 2.49793
-1.42694 -0.939583 4.19375
-0.287127 -0.829761 4.92214
-1.68606 -1.29443 3.77629
-0.277862 -0.685326 2.47359
-0.773508 -0.950662 2.11999
-2.51044 -1.84811 4.35004
-1.10893 -1.11768 2.75934
-1.76522 -1.39375 3.74624
-1.48818 -1.51044 3.15304
-0.25808 -0.413319 0.955132
-1.59073 -1.21325 3.71176
-0.145185 -0.669242 2.57989
-0.272755 -0.633341 2.72699
-1.54309 -0.905434 4.43609
-2.11735 -1.4811 4.24574
