ply
format ascii 1.0
element vertex 270
property float x
property float y
property float z
end_header
-0.679671 -0.840567 1.98417
-1.02251 -0.967738 2.77798
-2.55982 -1.05767 4.54594
-0.505691 -0.621216 2.6121
-2.16284 -1.67887 4.09736
-2.05227 -1.42011 4.32406
-0.972872 -0.913138 2.82989
-0.481723 -0.581173 2.83381
-0.112244 -0.702738 1.52008
-0.147764 -0.634942 1.65262
-0.416886 -0.604255 1.36387
-0.354289 -0.606478 3.28357
-0.19971 -0.658104 2.22863
-1.97881 -0.559755 4.26894
-0.947576 -0.949925 2.60319
-1.74102 -1.5562 3.58041
-0.271554 -0.463552 0.99784
-0.122076 -0.672502 2.53825
-0.234905 -0.660196 1.90318
-0.164819 -0.253458 0.602321
-0.994892 -0.828212 2.96202
-0.172937 -0.659014 2.80218
-1.66119 -1.2031 3.86973
-0.822442 -1.02807 2.22468
-1.14462 -1.13593 2.84942
-0.167559 -0.524711 1.22418
-0.309256 -0.623264 3.07221
-0.0778089 -0.693826 2.42817
-0.94602 -1.08079 2.45834
-0.543896 -0.663471 1.79238
-0.867756 -0.660024 4.53397
-0.145859 -0.619561 1.6891
-0.330656 -0.659892 2.67799
-2.31323 -1.81978 4.19043
-0.203551 -0.444574 1.0028
-1.34093 -1.10948 3.34483
-1.57048 -1.41246 3.41372
0.07024 -1.17286 5.38115
-0.342777 -0.430295 1.24623
-0.144694 -0.718227 2.31736
-1.02124 -1.04024 2.68047
-1.47323 -0.862596 4.63879
-0.0221313 -0.764312 1.77224
-0.371252 -0.619468 2.38821
0.0281411 0.0497009 -0.120806
-1.83912 -1.45165 3.86818
-1.86453 -1.6786 3.68043
-0.398138 -0.507499 1.37221
-1.61772 -1.29712 3.69164
-0.191934 -0.644213 2.60085
-0.368082 -0.536659 1.24732
-1.08616 -1.11259 2.75601
-1.5559 -1.20352 3.70609
-1.54309 -0.905434 4.43609
-2.48943 -1.85797 4.34251
-1.25655 -0.932745 3.27463
-2.08434 -1.58783 4.08764
-0.170236 -0.680581 2.33736
-0.470259 -0.59009 3.31113
-1.46229 -1.50842 3.15035
-0.0901956 -0.655187 1.64185
-0.107849 -0.666028 1.8348
-0.477325 -0.629901 2.50186
-1.42362 -1.41005 3.15656
-1.94985 -1.23443 4.0383
-1.42694 -0.939583 4.19375
-1.64883 -1.28631 3.7714
-1.16117 -0.890442 3.17466
-0.939195 -1.05926 2.45784
-1.05454 -0.942601 3.00206
-2.85693 -1.33644 5.50289
-0.324045 -0.494947 1.1291
-1.00759 -1.00722 2.68491
-1.25765 -0.859617 3.27314
-0.430935 -0.587611 2.71033
-1.11911 -1.18359 2.74831
-1.48209 -1.26135 3.46411
-0.258977 -0.674492 3.50277
-0.0551892 -0.716752 1.62023
-1.07574 -1.12255 2.70936
-1.46931 -1.19143 3.53912
-3.46492 -0.931448 6.2158
-0.482271 -0.616051 1.59237
-0.174388 -0.706128 2.25956
-1.16315 -1.27356 2.77719
-0.160564 -0.593961 1.24978
-1.56325 -1.31818 3.52098
-0.0850576 -0.711025 2.59039
-0.68187 -0.858749 1.9701
-0.969177 -0.83604 2.8953
-1.21618 -1.08554 3.07463
-0.153961 -0.644255 2.59635
-0.773128 -0.918421 2.16682
-0.110099 -0.647221 1.49624
-1.76787 -1.30328 3.98327
-1.7437 -0.658925 3.12661
-1.29704 -1.24763 3.06558
-0.189121 -0.442311 1.00269
-0.394279 -0.671845 2.31423
-0.592626 -0.784494 1.76605
-1.86795 -1.49499 3.85158
-1.56343 -0.818869 4.58815
-2.12511 -1.35241 4.18011
-0.337853 -0.603374 2.3563
-1.40856 -1.37212 3.1614
-1.29273 -1.15914 3.14588
-2.24661 -1.00861 4.46226
-0.227529 -0.345041 0.826325
-1.2986 -1.10682 3.24586
-0.273215 -0.64895 2.7815
-0.414779 -0.624328 1.35887
0.00112116 -0.695459 1.73225
-1.58741 -1.39588 3.47997
-1.95633 -1.35053 4.26035
-0.0791114 -0.964139 4.63404
-1.88415 -1.6628 3.7315
-0.143029 -0.515262 1.36098
-0.117165 -0.695024 2.4277
-1.54374 -0.776384 4.76384
-0.222142 -0.348241 0.800945
-2.18761 -1.57278 4.27227
-0.457578 -0.601988 2.47588
-2.6019 -0.913665 4.58679
-0.151198 -0.234908 0.561243
-1.75657 -1.32476 3.92314
-0.231315 -0.676256 3.06762
-1.77023 -1.63305 3.56779
-1.35241 -1.24748 3.18924
-1.56126 -1.01039 3.68722
-0.122306 -0.734156 2.36302
-0.206786 -0.937975 4.92534
-0.578168 -0.7479 1.73054
-0.706246 -0.81864 2.21583
-0.199311 -0.451522 1.11573
-0.242608 -0.623075 2.35513
-0.719066 -0.67388 4.68996
-0.469654 -0.663418 1.49145
-2.19941 -1.64398 4.20307
-0.323442 -0.624021 3.34118
-0.153638 -0.684487 2.31781
-0.0842196 -0.684611 1.59232
-1.33203 -1.33126 3.05487
-0.791254 -0.856715 2.33352
-0.255603 -0.385022 1.00612
-0.283841 -0.651523 2.50501
-0.31123 -0.455364 1.08919
-0.237569 -0.57421 1.6327
-0.288357 -0.493878 1.01706
-0.373912 -0.594762 2.5509
-0.511248 -0.656012 1.64283
-0.180632 -0.836183 2.49677
-0.543752 -0.769113 1.64738
-2.62831 -0.831473 4.56581
-0.221682 -0.69352 3.33082
-2.54477 -1.70999 4.4745
-0.214643 -0.651534 2.27298
-2.13804 -1.77321 3.94658
-2.36533 -1.40213 4.38848
-0.488566 -0.672219 3.91485
-1.98793 -1.49873 4.07431
-0.0205346 -0.922264 3.50907
-1.22727 -1.25625 2.91455
-0.249273 -0.465037 0.998025
-1.21877 -1.05628 3.14439
-3.80981 -1.45399 6.61831
-1.34718 -1.29497 3.11495
-1.1465 -0.852777 3.17401
-1.46454 -1.11109 3.66637
-1.33987 -1.39151 3.02366
-0.61925 -0.738941 1.90425
-1.54246 -0.881329 4.53
-0.0847645 -0.663389 1.49617
-0.182563 -0.694206 2.53739
-1.5489 -1.4594 3.32147
-2.23285 -1.61902 4.27322
-0.457422 -0.710908 4.64988
-0.374384 -0.608159 2.513
-1.67667 -1.51126 3.5321
-1.81858 -1.40711 3.89424
-0.220895 -0.466234 0.998354
-0.836794 -0.944828 2.31129
-1.66076 -1.25829 3.84233
-3.85842 -1.41739 6.79705
-1.07953 -0.893164 3.04652
-1.99073 -1.55155 3.97875
-0.250667 -0.640692 2.16805
-0.437063 -0.601658 3.30181
-2.51928 -0.878908 4.60528
-1.7252 -1.3889 3.74128
-2.22376 -1.42803 4.21522
-0.194326 -0.680029 2.58375
-0.763679 -0.948114 2.11951
-0.317424 -0.638343 2.73169
-2.07026 -1.47821 4.24191
-0.759149 -0.787302 2.29024
-0.267134 -0.413778 0.947865
-0.395957 -0.627626 3.07792
-0.250663 -0.589258 1.8029
-0.163001 -0.586855 1.36058
-1.90935 -1.60143 3.80549
-0.318304 -0.8374 4.92887
-0.308148 -0.67604 2.47801
0.0403525 -0.697235 1.73176
-1.01434 -1.18633 2.54192
-0.283419 -0.407113 1.02475
-0.262488 -0.638167 3.14552
-0.215152 -0.885922 2.79498
0.0132843 -0.764566 1.80077
-2.14782 -1.70475 4.0481
-0.66301 -0.711363 4.68415
-0.137613 -0.676085 2.44066
-2.40658 -1.73882 4.31555
-0.471481 -0.684506 1.49438
-0.943854 -0.878478 2.81724
-0.0824383 -0.730521 2.85661
-1.61487 -1.50423 3.40808
-1.37189 -1.2215 3.25535
-1.37035 -0.927015 3.43133
-0.171574 -0.686413 3.10897
-0.433057 -0.594255 1.41247
-2.27593 -1.59749 4.36997
-0.13225 -0.592271 1.41756
-0.0716917 -1.0304 5.40272
-2.60714 -1.87881 4.53272
-0.245637 -0.69644 2.05953
-0.176566 -0.577217 1.24983
-0.920046 -0.965427 2.51219
-0.285689 -0.686416 2.36304
-1.99426 -1.72641 3.80468
-1.19346 -0.981346 3.2043
-2.01972 -1.52686 4.06709
-3.24222 -1.55152 5.89926
-1.9567 -1.66803 3.80032
-0.144831 -0.6087 1.34377
-2.14212 -1.51713 4.29565
-0.12453 -0.666367 2.70762
-0.586753 -0.745817 1.78941
-0.225179 -0.415989 1.11019
-0.231746 -0.711838 2.10931
-0.692195 -0.937553 1.97401
-1.75324 -1.48659 3.65946
-0.353592 -0.633405 3.058
-0.0790734 -0.716135 2.42482
-0.868514 -1.03115 2.31778
-1.52261 -1.31885 3.43696
-0.497723 -0.541976 3.11479
-0.0596081 -0.752033 2.84315
-0.51889 -0.683967 1.60346
-1.16611 -1.07558 2.96064
-0.180404 -0.45952 1.0027
-1.25006 -1.23826 2.97463
-0.260667 -0.560657 1.63659
-0.352456 -0.623783 2.81554
-1.64011 -1.56759 3.38131
-1.53033 -1.00895 3.6869
-1.23957 -1.18607 3.00222
-0.267644 -0.702043 2.22583
-0.425062 -0.592621 3.00509
-0.178107 -0.290478 0.646982
-0.0694384 -0.66076 1.49608
-2.13388 -1.58125 4.16811
-0.28775 -0.658162 2.4289
-0.795259 -0.679623 4.58541
-0.373588 -0.534463 1.25658
-1.92776 -1.45984 4.03042
-0.27041 -0.65692 2.66101
-1.84029 -1.1718 3.95329
-2.30024 -1.75972 4.22135
-0.387019 -0.618179 2.88787
-1.23943 -1.04656 3.21498
