ply
format ascii 1.0
element vertex 215
property float x
property float y
property float z
end_header
-1.63271 -1.51216 3.40653
-1.08202 -1.12892 2.71106
-1.38225 -1.2305 3.25784
-2.10308 -1.59739 4.08449
-1.48141 -1.20128 3.5414
-0.153653 -0.67051 2.33882
-0.0643494 -0.720202 2.85425
-0.239133 -0.664316 3.50024
-0.433057 -0.594255 1.41247
-0.476986 -0.61553 1.59488
-2.29613 -1.60729 4.36581
-1.17594 -1.2788 2.78034
-0.158876 -0.696721 2.26116
-0.151575 -0.677093 3.10643
-0.450978 -0.575766 3.31022
-3.48596 -0.936541 6.22185
-0.324045 -0.494947 1.1291
-2.16765 -1.71423 4.04392
-1.01239 -1.01314 2.68713
-0.242979 -0.626141 3.14392
-0.215152 -0.885922 2.79498
-2.88408 -1.33912 5.49651
-1.12627 -1.19019 2.7496
-2.42824 -1.74776 4.31019
-1.49381 -1.27096 3.46569
-0.471481 -0.684506 1.49438
-0.644535 -0.69988 4.68154
-0.414062 -0.572901 2.71089
-0.120252 -0.665853 2.44047
-2.03745 -1.5368 4.06451
-1.78255 -1.31426 3.98265
-3.26263 -1.54838 5.89672
-1.97507 -1.67679 3.79692
-1.30719 -1.25588 3.0678
-1.74833 -0.660857 3.1311
-2.16069 -1.52765 4.2928
-0.380631 -0.660406 2.31723
-0.592626 -0.784494 1.76605
-0.583852 -0.746721 1.79174
-1.8845 -1.50481 3.84991
-0.106616 -0.655346 2.70673
-1.56343 -0.818869 4.58815
-2.60714 -1.87881 4.53272
-1.57615 -1.32778 3.52201
-0.233816 -0.687684 2.06374
-0.68205 -0.861728 1.97484
-0.0671926 -0.701287 2.58954
-0.0575385 -1.03043 5.39779
-0.923545 -0.97067 2.51491
-1.22504 -1.09339 3.07838
-0.285689 -0.686416 2.36304
-2.01339 -1.7352 3.80064
-0.774285 -0.922032 2.16952
-0.135661 -0.633892 2.59586
-0.0412336 -0.743155 2.84136
-0.51889 -0.683967 1.60346
-1.60113 -1.40514 3.48032
-1.17398 -1.08284 2.96391
-0.414779 -0.624328 1.35887
-1.97266 -1.36209 4.25888
-0.0634136 -0.960741 4.62948
-1.25966 -1.24624 2.97697
-0.143029 -0.515262 1.36098
-0.24868 -0.554406 1.64785
-1.90223 -1.67191 3.72853
-0.0998819 -0.684929 2.4275
-0.334788 -0.610155 2.81511
-0.218054 -0.703052 2.11313
-0.322539 -0.590577 2.35846
-0.692195 -0.937553 1.97401
-1.42012 -1.38008 3.16136
-1.76923 -1.49628 3.65828
-1.3023 -1.16761 3.14897
-0.335191 -0.619918 3.05759
-1.54374 -0.776384 4.76384
-0.0612046 -0.707105 2.42435
-0.871597 -1.03534 2.31924
-0.216891 -0.341145 0.834609
-1.53513 -1.32814 3.43798
-1.30865 -1.11508 3.24908
-0.255333 -0.636702 2.78086
-0.478492 -0.525565 3.11506
-1.94453 -1.47022 4.02842
-0.104153 -0.727336 2.36267
-1.78715 -1.64188 3.56523
-0.369841 -0.531383 1.26264
-1.36296 -1.25643 3.19132
-0.253187 -0.644648 2.66061
-0.369203 -0.604088 2.88739
-0.189468 -0.933539 4.92113
-1.24842 -1.05506 3.21901
-0.226275 -0.611919 2.35711
-0.578168 -0.7479 1.73054
-2.32219 -1.7687 4.21572
-0.705233 -0.822183 2.22001
-0.700397 -0.66294 4.68757
-1.24873 -1.19411 3.00531
-2.207 -1.58276 4.26883
-0.254087 -0.691977 2.22953
-1.65599 -1.57663 3.38082
-0.211433 -0.344272 0.809221
-0.443176 -0.587462 2.47746
-0.406785 -0.578398 3.00492
-2.15291 -1.5909 4.16479
-1.77101 -1.33537 3.9223
-0.272707 -0.646551 2.43014
-0.166113 -0.285704 0.655896
-0.138233 -0.229417 0.570974
-0.212683 -0.665307 3.06636
-0.334112 -0.592848 3.28288
-0.357689 -0.580594 2.55205
-0.184143 -0.647857 2.23113
-0.775383 -0.666514 4.58228
-0.302832 -0.453117 1.09629
-0.147764 -0.634942 1.65262
-0.225259 -0.568391 1.64344
-0.416886 -0.604255 1.36387
-0.202688 -0.683928 3.32802
-0.104287 -0.66226 2.53786
-0.506604 -0.655762 1.64499
-0.951514 -0.955287 2.60611
-0.164502 -0.827463 2.49504
-0.543752 -0.769113 1.64738
-1.75706 -1.56529 3.57904
-0.302992 -0.61114 3.33998
-0.153638 -0.684487 2.31781
-0.490861 -0.606152 2.61308
-0.469654 -0.663418 1.49145
-0.679242 -0.843422 1.98763
-2.2194 -1.65349 4.19905
-1.02768 -0.973184 2.77984
-0.464581 -0.565483 2.83416
-0.267377 -0.640017 2.50596
-1.34306 -1.33939 3.05617
-2.18269 -1.68814 4.09325
-0.79225 -0.86089 2.33649
-2.06962 -1.43159 4.32197
-0.851428 -0.654976 4.52875
-1.22778 -1.06474 3.14853
-0.059801 -0.684762 2.42787
-0.95031 -1.08554 2.45933
-1.35809 -1.3032 3.11659
-0.539396 -0.663803 1.7948
-3.80981 -1.45399 6.61831
-0.145859 -0.619561 1.6891
-1.47617 -1.12122 3.66907
-1.35583 -1.3963 3.02502
-2.3356 -1.82865 4.18436
-0.617163 -0.740503 1.90754
-0.31408 -0.647014 2.67768
-0.154095 -0.648898 2.80103
-1.54246 -0.881329 4.53
-2.54477 -1.70999 4.4745
-0.222722 -0.651803 1.90795
-0.199151 -0.640588 2.27528
-2.15811 -1.78171 3.94155
-0.152305 -0.248314 0.611721
-0.289934 -0.610447 3.07116
-0.468654 -0.66014 3.91272
-2.0053 -1.50898 4.07189
-1.67492 -1.21279 3.87006
-0.829284 -1.03087 2.23053
-1.23979 -1.26308 2.9171
-1.15195 -1.14265 2.85138
-1.88255 -1.68772 3.67745
-0.00244801 -0.916502 3.50541
-0.356547 -0.60595 2.3901
-0.839035 -0.94914 2.31404
-1.85513 -1.4617 3.86678
-1.67497 -1.26838 3.84287
-0.368082 -0.536659 1.24732
-3.85842 -1.41739 6.79705
0.0281411 0.0497009 -0.120806
-2.00842 -1.56115 3.97606
-1.6311 -1.30741 3.69235
-0.236436 -0.630456 2.17159
-0.174106 -0.633316 2.60035
-0.41832 -0.587816 3.301
-1.35144 -1.11829 3.34798
-0.165189 -0.683815 2.53707
-1.55634 -1.46798 3.32002
-1.58402 -1.42118 3.41381
-2.25292 -1.62861 4.26919
0.07024 -1.17286 5.38115
-0.436421 -0.700572 4.6478
-0.127582 -0.709246 2.31786
-0.358714 -0.594388 2.51431
-1.69216 -1.52081 3.53109
-1.0263 -1.04624 2.68248
-1.83397 -1.41751 3.89313
-1.44075 -1.41651 3.15792
-1.92693 -1.61077 3.80253
-1.47323 -0.862596 4.63879
-0.377794 -0.61367 3.07729
-0.107849 -0.666028 1.8348
-0.236368 -0.58341 1.8104
-1.02432 -1.18913 2.5441
-0.943293 -1.06403 2.45895
-0.274164 -0.40446 1.03233
-0.463369 -0.615472 2.50297
-1.42694 -0.939583 4.19375
-0.299653 -0.831246 4.92528
-1.66256 -1.29682 3.77198
-0.308148 -0.67604 2.47801
-0.765114 -0.952066 2.12386
-2.48943 -1.85797 4.34251
-1.09263 -1.11908 2.75772
-1.74005 -1.3991 3.74134
-1.46896 -1.51607 3.14939
-0.257663 -0.410752 0.955261
-1.56891 -1.21344 3.70777
-0.177032 -0.668889 2.58319
-0.300107 -0.625496 2.73143
-1.54309 -0.905434 4.43609
-2.08822 -1.48888 4.23941
