ply
format ascii 1.0
element vertex 312
property float x
property float y
property float z
end_header
-0.671916 -0.838008 1.9863
-1.00787 -0.961 2.78245
-2.5293 -1.03489 4.56571
-0.601817 -0.677613 2.00189
-0.355755 -0.568742 1.18038
-0.528862 -0.644283 2.60026
-2.14072 -1.65905 4.11323
-2.02615 -1.40142 4.33899
-0.958802 -0.908151 2.8383
-0.510111 -0.604439 2.82263
-1.66573 -1.68982 3.52879
-0.108352 -0.704991 1.5125
-0.147764 -0.634942 1.65262
-0.416886 -0.604255 1.36387
-0.39288 -0.626617 3.27342
-0.220909 -0.671507 2.21646
-1.97369 -0.549824 4.2697
-0.934316 -0.943673 2.60584
-1.72278 -1.54067 3.5922
-0.269765 -0.465245 0.992314
-0.150067 -0.688039 2.52883
-0.221532 -0.360458 0.953309
-0.247195 -0.672026 1.891
-0.165055 -0.257101 0.595209
-0.980227 -0.823457 2.96554
-0.206971 -0.674126 2.79287
-0.304528 -0.471569 1.01879
-1.6368 -1.18895 3.87951
-0.812162 -1.02281 2.22394
-1.13052 -1.12754 2.85549
-0.164711 -0.527666 1.21718
-0.346225 -0.641788 3.06298
-0.106003 -0.707543 2.41891
-0.935359 -1.07436 2.46225
-0.5378 -0.66319 1.7921
-0.0311784 -0.72151 1.94641
-0.867756 -0.660024 4.53397
-0.145859 -0.619561 1.6891
-0.356328 -0.679047 2.66835
-2.29077 -1.79866 4.20778
-0.441085 -0.697869 1.44585
-0.201805 -0.447576 0.995998
-1.32224 -1.09917 3.35281
-1.5527 -1.39881 3.42348
0.07024 -1.17286 5.38115
0.0034789 -0.759606 2.39694
-0.338152 -0.430466 1.24187
-0.168031 -0.731698 2.30613
-1.00797 -1.03291 2.68475
-1.47323 -0.862596 4.63879
-0.0169276 -0.767079 1.7644
-0.394077 -0.638272 2.37653
0.0281411 0.0497009 -0.120806
-1.81751 -1.43523 3.88029
-1.84627 -1.66165 3.6934
-0.0139427 -0.732257 2.01984
-0.393109 -0.508022 1.36799
-1.59658 -1.28324 3.70143
-0.223898 -0.65822 2.59
-0.368082 -0.536659 1.24732
-0.559775 -0.882894 1.80081
-1.07281 -1.10455 2.76113
-1.5339 -1.19034 3.715
-1.54309 -0.905434 4.43609
-2.48943 -1.85797 4.34251
-1.23687 -0.923574 3.28178
0.144413 -0.693684 2.44569
-2.06168 -1.56888 4.10263
-0.195379 -0.693935 2.3258
-0.506359 -0.613816 3.30052
-1.46229 -1.50842 3.15035
-0.0855995 -0.658104 1.63364
-0.117348 -0.666754 1.8331
-0.498013 -0.65162 2.49035
-1.40885 -1.39853 3.16571
-1.92658 -1.21748 4.05026
-1.25305 -0.773472 3.32301
-1.42694 -0.939583 4.19375
-1.62701 -1.27223 3.7814
-1.14247 -0.881779 3.18163
-0.928344 -1.05291 2.46158
-0.203395 -0.508501 1.03919
-1.03893 -0.936894 3.00692
-2.85693 -1.33644 5.50289
-0.391829 -0.585165 1.29951
-0.324045 -0.494947 1.1291
-0.994043 -0.99998 2.68886
-1.23799 -0.850503 3.28006
-0.458457 -0.609468 2.69928
0.125876 -0.747514 2.7492
-1.10627 -1.17524 2.75358
-1.46291 -1.24891 3.47289
-0.301121 -0.696085 3.49375
-0.0508101 -0.719144 1.61185
-1.06279 -1.11473 2.71429
-1.4491 -1.17938 3.54774
-3.46187 -0.927634 6.21719
0.0374438 -0.707665 1.86982
-0.476601 -0.616168 1.59207
-0.194633 -0.718966 2.24716
-1.15078 -1.26452 2.7834
-0.157863 -0.596798 1.24294
-0.215829 -0.490757 0.964338
-1.54413 -1.30476 3.53046
-0.113879 -0.725933 2.5808
-0.674075 -0.855654 1.96757
-0.954909 -0.831029 2.89827
-0.172427 -0.554072 1.12599
-1.1999 -1.07692 3.08162
-0.18537 -0.659364 2.58591
-0.763773 -0.913848 2.16827
-0.106119 -0.649733 1.48859
-1.7441 -1.28815 3.99436
-1.72312 -0.646121 3.13603
-1.28198 -1.23741 3.07346
0.0307407 -0.718017 1.95508
-0.187408 -0.445581 0.995833
-0.410576 -0.689359 2.30194
-0.592626 -0.784494 1.76605
-1.84681 -1.47831 3.86408
-1.56343 -0.818869 4.58815
-2.10041 -1.33351 4.19486
-0.335269 -0.56418 1.1292
-0.361264 -0.621617 2.34441
-1.39333 -1.36059 3.17024
-1.2762 -1.14922 3.15348
-2.23203 -0.996937 4.47545
-0.226311 -0.347741 0.819942
-1.2808 -1.09702 3.2534
-0.305026 -0.667466 2.77185
-0.414779 -0.624328 1.35887
0.00614643 -0.698641 1.7229
-1.56905 -1.38213 3.48979
-1.93032 -1.33248 4.27428
-0.118927 -0.986969 4.62492
-1.86506 -1.64562 3.74477
-0.580378 -0.875809 1.80124
-0.143029 -0.515262 1.36098
-0.144273 -0.709607 2.41789
-1.54374 -0.776384 4.76384
-0.221209 -0.350885 0.794527
0.0447709 -0.657521 2.02433
-2.16326 -1.55272 4.28831
-0.479181 -0.623531 2.46372
-2.58045 -0.913283 4.59999
-0.151843 -0.239031 0.553792
-1.73342 -1.30947 3.93406
-0.265736 -0.6941 3.05839
-1.753 -1.61706 3.57965
-1.33611 -1.23668 3.19759
-1.538 -0.996954 3.69596
-0.146406 -0.747409 2.35181
-0.247732 -0.960611 4.91574
-0.578168 -0.7479 1.73054
-0.69797 -0.815526 2.21451
-0.197092 -0.454666 1.10916
-1.57409 -0.709422 2.89498
-0.267422 -0.639001 2.34305
-0.73971 -0.689153 4.68568
-0.469654 -0.663418 1.49145
-2.17613 -1.62392 4.21939
-0.363133 -0.64477 3.33177
-0.153638 -0.684487 2.31781
-0.0798285 -0.686903 1.58415
-1.31751 -1.32066 3.06321
-0.780529 -0.852206 2.33426
-0.25327 -0.387488 0.999707
-0.308781 -0.668243 2.49384
0.111975 -0.805129 2.25437
-0.308273 -0.456946 1.084
-0.246457 -0.586895 1.62528
-0.286553 -0.495279 1.01198
-0.399871 -0.614769 2.53991
-0.23061 -0.462082 0.905957
-0.505119 -0.655834 1.64272
-0.199383 -0.849443 2.48938
-0.543752 -0.769113 1.64738
-2.59661 -0.808269 4.58651
-0.259595 -0.711848 3.32203
-2.54477 -1.70999 4.4745
-0.237156 -0.665985 2.26068
-2.11765 -1.75362 3.96214
-2.36533 -1.40213 4.38848
-0.529896 -0.69614 3.90488
-1.96467 -1.48067 4.088
-0.0574867 -0.940001 3.50054
-1.21348 -1.24693 2.92177
-0.218259 -0.454566 0.905301
-0.247594 -0.466996 0.992258
-1.20188 -1.04752 3.15134
-3.80981 -1.45399 6.61831
-1.33199 -1.28426 3.12332
0.0895678 -0.717648 2.44763
-1.12803 -0.844095 3.18093
-1.44202 -1.09856 3.67477
-1.32611 -1.38051 3.03185
-0.611346 -0.737231 1.90452
-1.54246 -0.881329 4.53
-0.0809021 -0.665841 1.48849
-0.210006 -0.709134 2.52758
-1.5489 -1.4594 3.32147
-2.20877 -1.59858 4.28992
-0.485363 -0.726285 4.64277
0.0128604 -0.744754 2.09546
-0.399517 -0.627613 2.50178
-1.65869 -1.49673 3.54282
-1.7965 -1.39083 3.90602
-0.219404 -0.468599 0.992696
-0.567609 -0.847084 1.79991
-0.82658 -0.93973 2.31405
-1.6379 -1.24434 3.85238
-3.85842 -1.41739 6.79705
-1.06301 -0.887158 3.05155
-1.81248 -1.76073 3.67406
-1.9687 -1.53353 3.99263
-0.269407 -0.655159 2.1545
-0.472629 -0.624679 3.29245
-2.50087 -0.860395 4.61806
-1.70429 -1.37369 3.75227
-2.19868 -1.40967 4.23027
-0.223415 -0.695768 2.57393
-0.754385 -0.943675 2.11813
0.0163146 -0.706221 1.87024
-0.347288 -0.657159 2.72184
-2.04557 -1.45938 4.25663
-0.74878 -0.783006 2.2897
-0.265312 -0.415805 0.942141
-0.470628 -0.773223 1.56482
-0.429127 -0.648764 3.06815
-0.250663 -0.589258 1.8029
-0.159567 -0.58966 1.35347
-1.88927 -1.58422 3.81858
-0.359364 -0.861028 4.91983
-0.308148 -0.67604 2.47801
0.0448567 -0.701144 1.72364
-1.00133 -1.17888 2.54416
-0.280713 -0.409123 1.01908
-0.300958 -0.657864 3.13638
-0.215152 -0.885922 2.79498
0.0151477 -0.764389 1.79782
-2.12621 -1.68513 4.06373
-0.686797 -0.727057 4.67868
-0.165778 -0.690796 2.43023
-0.000954073 -0.681287 1.78524
-2.38227 -1.71641 4.33389
-0.471481 -0.684506 1.49438
-0.936157 -0.890474 2.80731
-0.114607 -0.747054 2.84725
-0.430448 -0.629315 1.39007
-1.59775 -1.49002 3.41816
-1.35484 -1.21048 3.26363
-1.34923 -0.915978 3.43859
-0.206072 -0.705988 3.09988
0.135551 -0.717685 3.71188
-0.433057 -0.594255 1.41247
-2.25087 -1.57642 4.38688
-0.128503 -0.595249 1.41018
-0.100435 -1.04821 5.39436
-2.60714 -1.87881 4.53272
-0.258356 -0.708401 2.04573
0.0685631 -0.69562 1.86289
-0.173555 -0.579963 1.24297
-0.90768 -0.958932 2.51457
-0.285689 -0.686416 2.36304
-1.97513 -1.70817 3.81884
-0.386614 -0.598198 1.27766
-1.17561 -0.972495 3.21054
-1.99675 -1.5085 4.08121
-3.24222 -1.55152 5.89926
-1.93685 -1.65005 3.81417
-2.21292 -1.81546 3.96719
-0.141491 -0.611439 1.33659
-2.11717 -1.49757 4.31133
-0.155832 -0.682965 2.69779
-0.579716 -0.74381 1.78899
-0.222712 -0.419309 1.10382
-0.247444 -0.724491 2.09582
-0.680248 -0.934162 1.96823
-1.73388 -1.471 3.67068
-0.387698 -0.653958 3.04726
0.143137 -0.694277 2.2225
-0.107139 -0.729825 2.41564
-0.85867 -1.02549 2.32051
-1.50428 -1.30585 3.44613
-0.531145 -0.568325 3.10423
-0.462275 -0.696854 1.50241
-0.0918235 -0.766893 2.83264
-0.51889 -0.683967 1.60346
-1.15074 -1.06739 2.96688
-0.178912 -0.462819 0.996101
-1.23592 -1.22863 2.98206
-0.271046 -0.571825 1.62782
-0.383441 -0.64333 2.80551
-1.62399 -1.55306 3.39142
-1.50714 -0.995643 3.69515
-1.22474 -1.17648 3.00943
-0.285358 -0.715858 2.21172
-0.456948 -0.614857 2.9941
-0.178181 -0.293798 0.640138
-0.0657051 -0.663293 1.48797
-2.11045 -1.5618 4.18361
-0.310988 -0.6748 2.41746
-0.81092 -0.689376 4.58308
-0.367532 -0.536107 1.25293
-0.0568773 -0.650599 1.70672
-1.90474 -1.44235 4.04329
-0.299825 -0.674275 2.65069
-1.81706 -1.15664 3.96526
-2.27762 -1.73846 4.23853
-0.818946 -1.12316 2.29336
-0.418152 -0.638326 2.87776
-1.22156 -1.03771 3.22199
