ply
format ascii 1.0
element vertex 214
property float x
property float y
property float z
end_header
-1.6744 -1.50603 3.41864
-1.10964 -1.13028 2.71215
-1.41775 -1.23601 3.26358
-2.15577 -1.58944 4.09878
-1.51884 -1.21163 3.54723
-0.0989695 -0.663706 2.33429
-0.0130621 -0.701591 2.8558
-0.195111 -0.657354 3.49977
-0.425525 -0.597682 1.39873
-0.483982 -0.622094 1.5828
-2.3509 -1.59872 4.3807
-1.20437 -1.27546 2.7825
-0.103596 -0.69152 2.25696
-0.101754 -0.666477 3.10609
-0.411165 -0.587738 3.30613
-3.52491 -0.931395 6.23379
-0.318901 -0.495922 1.1166
-2.22318 -1.70044 4.05889
-1.03674 -1.0203 2.68406
-0.199547 -0.621203 3.14229
-0.153569 -0.879614 2.79309
-2.93526 -1.3472 5.50963
-1.15596 -1.18903 2.75217
-2.48535 -1.73248 4.3278
-1.53136 -1.27641 3.47089
-0.464854 -0.685032 1.48055
-0.613665 -0.715031 4.68083
-0.365918 -0.586771 2.70507
-0.0671708 -0.655054 2.43709
-2.08853 -1.532 4.07833
-1.82719 -1.3219 3.99259
-3.31803 -1.52559 5.91457
-2.02717 -1.66424 3.81022
-1.34082 -1.25587 3.07107
-1.7614 -0.658411 3.14961
-2.21332 -1.52342 4.30652
-0.328716 -0.67122 2.30929
-0.59134 -0.784742 1.75158
-0.593853 -0.74799 1.78019
-1.93333 -1.50118 3.86369
-0.056065 -0.644366 2.70416
-1.56323 -0.836501 4.59839
-2.62341 -1.87834 4.538
-1.61626 -1.33033 3.52902
-0.178767 -0.690582 2.05691
-0.692893 -0.860583 1.96123
-0.0143971 -0.683982 2.58726
-0.016611 -1.00224 5.40621
-0.945677 -0.977273 2.51164
-1.25557 -1.10337 3.07997
-0.232702 -0.69005 2.3572
-2.06747 -1.72021 3.81515
-0.791686 -0.922675 2.16307
-0.0845195 -0.62535 2.59315
0.011757 -0.720388 2.84206
-0.509595 -0.686769 1.58799
-1.64318 -1.40341 3.48906
-1.20315 -1.09177 2.965
-0.407953 -0.624272 1.34578
-2.02111 -1.36798 4.27008
-0.0191946 -0.936241 4.63499
-1.29247 -1.24562 2.98012
-0.136134 -0.515151 1.35354
-0.197745 -0.564793 1.64048
-1.95382 -1.66008 3.74141
-0.044858 -0.671155 2.4237
-0.287464 -0.615684 2.81119
-0.161377 -0.698523 2.10696
-0.27334 -0.600076 2.35225
-0.705413 -0.934427 1.96428
-1.4583 -1.37597 3.16825
-1.81494 -1.49154 3.66983
-1.33509 -1.17429 3.15223
-0.291112 -0.624212 3.05444
-1.53953 -0.792666 4.76895
-0.00656651 -0.68987 2.42081
-0.893875 -1.03377 2.31758
-0.214458 -0.344196 0.824865
-1.57449 -1.32972 3.44463
-1.34177 -1.12664 3.25306
-0.206613 -0.635879 2.77727
-0.434409 -0.543488 3.11112
-1.99371 -1.46897 4.04119
-0.0500727 -0.719455 2.36078
-1.83729 -1.63085 3.57864
-0.367655 -0.535283 1.25294
-1.39842 -1.25904 3.19646
-0.203037 -0.644447 2.65645
-0.323672 -0.611569 2.8833
-0.146301 -0.918233 4.92651
-1.28055 -1.06954 3.22141
-0.177503 -0.611809 2.35166
-0.570821 -0.750954 1.71578
-2.38059 -1.75246 4.23242
-0.715636 -0.831838 2.21302
-0.670113 -0.687376 4.68969
-1.28045 -1.19643 3.00766
-2.26086 -1.57564 4.28349
-0.197115 -0.694267 2.22363
-1.70208 -1.56663 3.39317
-0.20873 -0.344866 0.799423
-0.393683 -0.606125 2.47142
-0.36134 -0.58898 3
-2.20604 -1.58313 4.17911
-1.81528 -1.34122 3.93202
-0.220907 -0.64781 2.42513
-0.162123 -0.28524 0.647833
-0.132094 -0.232513 0.561195
-0.164803 -0.659976 3.06604
-0.293368 -0.593368 3.28074
-0.308982 -0.59215 2.54642
-0.131312 -0.644015 2.22621
-0.744838 -0.694751 4.58353
-0.303786 -0.455925 1.08633
-0.146269 -0.638431 1.64794
-0.173965 -0.574062 1.63347
-0.409249 -0.604891 1.3495
-0.153287 -0.679759 3.32669
-0.0524534 -0.648841 2.53418
-0.514102 -0.660554 1.63318
-0.974442 -0.965368 2.60302
-0.0988878 -0.823727 2.48885
-0.536779 -0.768865 1.63326
-1.80413 -1.55662 3.58999
-0.262057 -0.61043 3.3382
-0.0982013 -0.677924 2.313
-0.440948 -0.62695 2.60713
-0.462164 -0.664655 1.47624
-0.692886 -0.843461 1.97799
-2.27435 -1.643 4.21382
-1.05321 -0.985741 2.77842
-0.417209 -0.582781 2.82849
-0.217717 -0.641387 2.50105
-1.379 -1.33543 3.06127
-2.23815 -1.67603 4.1087
-0.809556 -0.869578 2.32736
-2.12051 -1.43295 4.33487
-0.817607 -0.690453 4.52709
-1.25906 -1.07781 3.15076
-0.00625169 -0.667293 2.42417
-0.974426 -1.08384 2.45771
-1.39352 -1.30179 3.12125
-0.545708 -0.672933 1.78026
-3.85847 -1.44429 6.62795
-0.137319 -0.618926 1.68287
-1.51416 -1.13708 3.67435
-1.38917 -1.39253 3.03061
-2.39579 -1.81052 4.20043
-0.627579 -0.745365 1.89395
-0.262614 -0.653686 2.6738
-0.105953 -0.63836 2.79835
-1.54127 -0.885184 4.53222
-2.56058 -1.71851 4.48215
-0.169831 -0.656738 1.9011
-0.147728 -0.636185 2.27003
-2.21357 -1.76413 3.95569
-0.147013 -0.250907 0.601835
-0.247001 -0.60921 3.0689
-0.428138 -0.668735 3.91232
-2.05562 -1.50568 4.08495
-1.71671 -1.22469 3.8779
-0.846527 -1.02787 2.2231
-1.26914 -1.26143 2.91932
-1.18101 -1.14596 2.85298
-1.93434 -1.67441 3.68997
0.0558867 -0.887221 3.51342
-0.307344 -0.617518 2.38325
-0.858503 -0.952103 2.30904
-1.90254 -1.46017 3.87898
-1.71698 -1.2782 3.85123
-0.361938 -0.538624 1.23331
-3.90747 -1.40886 6.80457
-2.0593 -1.55478 3.98997
-1.67259 -1.31358 3.70098
-0.183847 -0.631889 2.16537
-0.123505 -0.625611 2.5965
-0.377364 -0.59931 3.29838
-1.38569 -1.13092 3.35226
-0.112224 -0.67569 2.53332
-1.59474 -1.46322 3.32946
-1.62551 -1.41798 3.42252
-2.30791 -1.6191 4.28433
0.102508 -1.16539 5.38908
-0.406396 -0.700125 4.65058
-0.0740716 -0.698733 2.3157
-0.309314 -0.605413 2.50854
-1.73817 -1.51421 3.542
-1.05187 -1.05205 2.68148
-1.88044 -1.4187 3.9053
-1.4755 -1.41286 3.16483
-1.97743 -1.60144 3.81578
-1.46223 -0.862375 4.64032
-0.332984 -0.622014 3.07441
-0.112429 -0.677153 1.82292
-0.18359 -0.588629 1.80187
-1.04809 -1.18598 2.54261
-0.966338 -1.06293 2.45572
-0.274252 -0.410054 1.02139
-0.412133 -0.634797 2.49735
-1.42833 -0.945424 4.19468
-0.259961 -0.824988 4.92713
-1.70435 -1.30396 3.78014
-0.256477 -0.682461 2.47233
-0.780106 -0.949369 2.11404
-2.53757 -1.84433 4.35908
-1.12042 -1.12185 2.75873
-1.78472 -1.40024 3.75196
-1.50716 -1.50906 3.15935
-0.256999 -0.410789 0.945242
-1.60859 -1.22486 3.71502
-0.124905 -0.662261 2.57961
-0.251678 -0.62945 2.7272
-1.54323 -0.909947 4.4379
-2.13944 -1.48689 4.25256
