ply
format ascii 1.0
element vertex 459
property float x
property float y
property float z
end_header
-0.417997 -0.70235 1.46428
-1.86881 -0.917008 3.93167
-0.636856 -0.930533 1.97777
-0.319269 -0.708683 2.05695
-0.067245 0.0341918 0.0453867
-0.0753283 0.0378834 0.0709066
0.125193 -0.687864 2.2148
-1.44763 -1.31479 3.47467
-0.605195 -0.553845 3.07796
-2.26455 -1.06657 4.26578
-0.51889 -0.683967 1.60346
-0.193438 -0.775262 2.80316
-0.0619122 0.0577275 0.104284
-2.09823 -1.28718 4.11951
-0.309384 -0.566147 1.62391
-1.46289 -1.00369 3.71206
-0.338845 -0.0500663 2.50485
-0.5317 -0.601425 2.96139
-1.17139 -1.18043 3.02963
-0.156258 -0.291373 0.649337
-1.65495 -0.0569802 3.83998
-0.40089 -0.661685 2.35317
-0.0773457 -0.656204 1.71758
-0.0808362 0.0299834 0.0478794
-1.81706 -1.15664 3.96526
-1.84349 -1.45522 4.08092
-2.21137 -1.75572 4.28164
-0.479714 -0.159359 2.36229
-0.601817 -0.677613 2.00189
-0.494378 -0.625639 2.84651
-2.11044 -1.33542 4.24777
-0.392614 -0.652836 3.10776
-0.0769341 0.0219531 0.00491508
0.0309386 -0.676734 1.79534
-0.25328 -0.680644 2.39683
-2.31705 -1.73376 4.37674
-0.340714 0.00959157 2.50216
-1.51275 -0.218389 3.78993
-0.936157 -0.890474 2.80731
-1.53992 -1.5001 3.45125
0.145843 -0.709345 3.67006
-0.303427 -0.705476 3.07126
-2.18515 -1.59269 4.42842
-0.0684246 0.0389458 0.0711677
-0.249402 -0.150852 1.50836
-0.0979364 -0.592817 1.41918
-2.60714 -1.87881 4.53272
-2.25089 -1.40816 4.25033
-0.143342 -0.57886 1.25161
-1.91237 -1.72313 3.85938
-0.285689 -0.686416 2.36304
-0.0575355 0.01603 -0.00783791
-0.35561 -0.596593 1.28979
-1.93434 -1.52259 4.12017
-0.220522 -0.110378 1.60742
-0.110808 -0.609555 1.34554
-0.540503 -0.740237 1.79708
-0.246854 -0.677021 2.66612
-1.5489 -1.4594 3.32147
-0.210006 -0.709134 2.52758
-0.336211 0.0598622 2.50382
0.0471463 -0.739707 2.10565
-1.73733 -1.4044 3.94147
-0.192806 -0.466594 1.00402
-1.62095 -0.381546 3.79801
-3.85842 -1.41739 6.79705
-0.780062 -0.937878 2.32515
-0.0696639 0.013117 -0.00863455
-1.74789 -1.76822 3.7134
-0.340907 -0.640585 2.11528
-2.50087 -0.860395 4.61806
-0.547264 -0.142347 2.56934
-2.19868 -1.40967 4.23027
-1.64653 -1.38623 3.78636
-0.717326 -0.942005 2.12995
-1.74415 -0.00209576 3.82682
-0.42735 -0.646058 2.69089
-0.0798437 0.0453209 0.0980517
-0.444587 -0.776969 1.58299
-0.129111 -0.587786 1.36237
-0.250663 -0.589258 1.8029
-1.82828 -1.59777 3.85703
-0.811446 -0.320272 3.37419
-0.359364 -0.861028 4.91983
0.00587809 -0.585405 1.90583
-1.99727 -0.801008 3.98947
-0.951295 -1.17386 2.54719
-0.469654 -0.663418 1.49145
-0.046428 -0.683006 1.59363
-0.153638 -0.684487 2.31781
-0.740874 -0.851314 2.3467
-0.0840744 0.0182026 -0.0189532
-1.79682 -0.0223323 3.89705
-0.235002 -0.389196 1.01295
-0.0522864 -0.588561 1.89949
-0.28031 -0.45546 1.0952
-0.216546 -0.462775 0.923331
-0.469084 -0.602577 2.50775
-0.543752 -0.769113 1.64738
-0.286605 -0.840018 2.45765
-0.133632 -0.537539 1.61708
-2.56254 -0.81581 4.60609
-2.54477 -1.70999 4.4745
-0.0611509 0.0221026 0.00486764
-1.76019 -0.807245 3.85559
-0.623466 -0.688392 3.87827
-1.15955 -1.25047 2.94238
-0.186819 -0.953319 3.47234
-0.204416 -0.455169 0.922265
-1.15129 -1.05146 3.17241
-0.051076 0.00915299 -0.0291395
-1.88753 -0.916568 4.03157
-1.12803 -0.844095 3.18093
-0.57652 -0.738785 1.91711
-1.54246 -0.881329 4.53
-2.22686 -1.39611 4.24832
-2.04771 -0.858823 4.16087
-2.10041 -1.33351 4.19486
-1.33691 -1.3671 3.19613
-0.428337 -0.607977 2.31075
-0.0858202 0.0337207 0.0549597
0.067724 -0.55219 3.28122
-1.22974 -1.10665 3.27134
-0.368517 -0.0387667 2.50411
0.0387902 -0.69336 1.73286
-1.51142 -1.39125 3.52111
-0.219098 -1.00564 4.59981
-1.8038 -1.65923 3.78312
-1.65385 -0.284909 3.84525
-0.232345 -0.699079 2.38376
-0.0395506 0.0384421 0.0154064
0.0767055 -0.65172 2.0351
-2.09859 -1.5682 4.32894
-2.58344 -0.923188 4.62412
-0.132118 -0.237415 0.561986
-1.06907 -0.295691 3.59188
-0.358853 -0.689094 3.03074
-1.83817 -0.823746 3.90092
-1.69297 -1.62935 3.61614
-0.231905 -0.739758 2.31615
-0.170726 -0.454773 1.11807
-0.661958 -0.815302 2.22619
-0.0498317 0.0468485 0.0616799
-0.73971 -0.689153 4.68568
-1.00261 -0.939466 3.02198
-1.83936 -0.0469464 3.92951
-0.324045 -0.494947 1.1291
0.0704758 -0.741712 2.72195
-0.527657 -0.594155 2.6664
-1.40871 -1.25975 3.49517
-0.0434995 0.0400964 0.0209347
-0.0167852 -0.714454 1.62137
-1.01153 -1.11619 2.73054
-0.258987 -0.143338 1.44459
-0.0328678 -0.731884 1.5406
-3.46187 -0.927634 6.21719
-1.09077 -1.26189 2.7995
-0.285344 -0.704893 2.18236
-0.207749 -0.49084 0.971913
-1.48729 -1.31521 3.55918
-0.0585698 0.0556098 0.0906431
-0.513836 -0.0440377 2.54152
-0.954909 -0.831029 2.89827
-0.718739 -0.91119 2.17802
-0.274501 -0.651948 2.55248
-1.9502 -1.0204 3.97942
-1.6854 -1.30249 4.02324
-0.0739577 0.045277 0.0935247
-0.0730137 0.0354538 0.046863
0.0645286 -0.712457 1.96479
-1.78659 -1.49148 3.90219
-1.56343 -0.818869 4.58815
-1.49544 -1.4081 3.45453
0.07024 -1.17286 5.38115
-0.0619303 0.0130436 -0.0108214
0.0144109 -0.762486 2.40378
-0.250591 -0.718424 2.27
-0.888864 -0.276839 3.37144
-0.00454731 -0.764446 1.77149
-1.75746 -1.44798 3.91724
0.0281411 0.0497009 -0.120806
-1.78504 -1.67513 3.73162
-2.11748 -1.29126 4.09444
-0.310662 -0.653477 2.55899
-0.0944396 0.0394833 0.0773717
-0.529149 -0.884674 1.81367
-1.47802 -1.19686 3.74229
-1.19889 -0.92819 3.3006
-2.48943 -1.85797 4.34251
-0.800593 -0.17485 3.37024
-0.58655 -0.60439 3.27792
-1.99832 -1.5839 4.14275
-0.0779397 0.00377329 0.0024518
-1.63659 -0.809458 3.81891
-1.46229 -1.50842 3.15035
-0.57924 -0.632914 2.42496
-1.25305 -0.773472 3.32301
-0.0455468 0.011237 -0.021991
-1.14247 -0.881779 3.18163
-1.57182 -1.28937 3.80764
-2.07902 -0.862254 4.17792
-0.87923 -1.0521 2.47432
-0.84613 -0.23842 3.37308
-0.629361 -0.83459 1.9946
-0.610793 -0.624143 2.5336
-0.336619 -0.570441 1.19948
-1.9615 -1.4143 4.37608
-0.080461 0.0484125 0.115105
-0.106984 -0.703105 1.51838
-0.147764 -0.634942 1.65262
-0.0732991 0.028582 0.0281492
-0.0140698 -0.749669 1.58445
-0.481275 -0.617535 3.24507
-1.66311 -1.55237 3.6276
-0.204173 -0.369037 0.96151
-0.240896 -0.680091 2.49568
-0.269781 -0.664874 1.88669
-0.0460745 0.0104718 -0.0268324
-1.48508 -0.294057 3.85442
-0.980227 -0.823457 2.96554
-1.07767 -1.13052 2.87316
-1.91476 -0.848738 3.95466
-0.432717 -0.63206 3.03324
-0.885892 -1.07366 2.47531
-0.21482 -0.702878 2.3579
-0.730986 -0.153974 3.0383
0.00329496 -0.716652 1.9562
-0.145859 -0.619561 1.6891
-1.51501 -0.0669189 3.78611
-0.175164 -0.446034 1.00308
-0.794331 -0.253367 3.37168
-0.222712 -0.419309 1.10382
-1.67489 -1.48303 3.70621
-0.470595 -0.641876 3.0146
-1.74982 -0.189427 3.84549
-0.811194 -1.02419 2.33302
-0.200099 -0.72724 2.38442
-0.0645539 0.0243697 0.00745236
-0.427979 -0.695347 1.51486
-1.10148 -1.07607 2.98116
-0.152126 -0.461681 1.004
-0.823217 -0.284878 3.37657
-0.460708 -0.631114 2.7746
-1.18178 -1.23279 3.00318
-0.12091 -0.546472 1.46417
-1.59171 -1.55697 3.40487
-2.0477 -0.669173 3.98779
-0.356902 -0.70177 2.17406
-0.0336953 -0.659381 1.49729
-0.0522569 0.01404 -0.0172691
-0.81092 -0.689376 4.58308
-2.04659 -1.57699 4.22396
-0.337191 -0.53465 1.2644
0.102289 -0.545414 1.90241
-0.382377 -0.665356 2.61971
-0.772643 -1.11661 2.29569
-0.0617295 0.016685 -0.0135794
-2.47989 -1.04985 4.5788
-1.17077 -1.04207 3.24349
0.0151477 -0.764389 1.79782
-0.215152 -0.885922 2.79498
-2.06222 -1.69502 4.10556
-0.233004 -0.11472 1.8416
-1.93774 -0.763351 3.95325
-0.686797 -0.727057 4.67868
-0.471481 -0.684506 1.49438
-0.157642 -0.0176944 1.58595
-0.398037 -0.627881 1.40273
-0.215825 -0.748983 2.81895
-1.30417 -1.21989 3.2862
-0.0467945 0.00656895 -0.0286889
-0.650081 -0.200261 2.86011
-1.30827 -0.921978 3.4557
-0.433057 -0.594255 1.41247
-1.70918 -0.788942 3.87662
-0.100435 -1.04821 5.39436
-0.310415 -0.69497 2.01927
-0.0598195 0.0185824 -0.00718016
-0.0669812 0.0430718 0.0839608
0.101576 -0.68921 1.8726
-0.86003 -0.958448 2.52753
-1.60747 -0.309933 3.79512
-1.13802 -0.978253 3.22641
-1.87541 -1.66434 3.85321
-3.24222 -1.55152 5.89926
-2.14742 -1.8266 4.01065
-2.05269 -1.51233 4.35094
-2.14369 -1.61455 4.33121
-0.485363 -0.726285 4.64277
-0.0676233 0.0196573 -0.00147632
-2.17809 -1.29488 4.13619
-1.59989 -1.50734 3.57736
-0.485323 -0.614128 2.43906
-0.0543274 0.0304988 0.0206079
-0.527792 -0.843701 1.81065
-1.58006 -1.25174 3.88056
-1.06301 -0.887158 3.05155
-0.271468 -0.102368 1.68828
-0.577003 -0.61693 3.23328
-1.90678 -1.54783 4.03172
-0.0621023 0.0185605 -0.0121158
-1.88884 -1.01883 3.93647
-0.223415 -0.695768 2.57393
-0.0696431 0.0263226 0.0218656
0.0495297 -0.701143 1.87984
-0.710995 -0.782022 2.30319
-1.98206 -1.47329 4.29533
-0.239184 -0.413761 0.952155
-1.55313 -0.21695 3.85986
-0.509405 -0.636228 3.03797
-0.0701202 0.0170614 -0.00637492
0.109745 -0.408903 3.11869
-0.308148 -0.67604 2.47801
0.0769037 -0.695012 1.73368
-0.262205 -0.410145 1.03391
-0.449006 0.0160753 2.49694
-2.11111 -1.63983 4.2607
-0.0724377 0.0581286 0.134001
-2.03623 -0.719349 3.98869
-0.454189 -0.636357 3.30482
-1.60429 -0.137145 3.78704
-1.26218 -1.32614 3.08704
0.0892501 -0.798578 2.24665
-0.400689 -0.657318 2.43079
-0.286575 -0.579928 1.62313
-0.0627383 0.010873 -0.011766
-0.25924 -0.493307 1.02295
-0.475688 -0.655957 1.65881
-0.878689 -0.32841 3.37951
0.0745524 -0.429003 3.15973
-0.355433 -0.716029 3.29354
-2.05384 -1.77007 4.00419
-0.237156 -0.665985 2.26068
-2.36533 -1.40213 4.38848
-1.90243 -1.49423 4.12646
-0.0725848 0.0189743 -0.00736786
-1.76098 -0.473391 3.89458
-0.220715 -0.46473 1.00269
-1.27651 -1.28988 3.14701
-3.80981 -1.45399 6.61831
0.111692 -0.70401 2.43361
-1.27005 -1.38602 3.05701
-1.39826 -1.10539 3.69167
-0.591829 -0.264057 2.57417
-0.0487125 -0.662371 1.49832
-0.0574215 0.00204901 -0.0143302
-0.317336 -0.563507 1.14804
-1.22488 -1.1584 3.1727
-0.444492 -0.261977 2.1514
-2.23203 -0.996937 4.47545
-0.390829 -0.659238 2.74233
-0.202101 -0.345679 0.829676
-0.143496 -0.389532 1.20285
-0.414779 -0.624328 1.35887
-0.000699067 -0.752076 1.61825
-1.86784 -1.34335 4.30746
-0.0595479 0.0382912 0.0485949
-0.549329 -0.877101 1.8132
-0.143029 -0.515262 1.36098
-1.54374 -0.776384 4.76384
-0.197201 -0.348795 0.804202
-0.583916 -0.230013 2.57287
-0.560142 -0.605575 2.39822
-0.0623253 0.0204238 -0.00462969
-0.449852 -0.586488 1.65636
-1.67695 -1.32606 3.96196
-1.48251 -1.0049 3.72334
-1.28095 -1.24292 3.22129
-0.0735932 0.0109493 -0.00820122
-0.247732 -0.960611 4.91574
-1.56405 -0.0536314 3.78798
-0.578168 -0.7479 1.73054
-0.342017 -0.630131 2.30797
-1.54102 -0.716862 2.90689
-2.85693 -1.33644 5.50289
-0.360718 -0.583708 1.31174
-0.94441 -1.0004 2.70298
-0.0692664 0.0324271 0.041126
-1.20004 -0.855134 3.29882
-0.610871 -0.287919 2.57306
-1.05394 -1.17698 2.77133
-2.04572 -0.792443 3.99769
-0.404383 -0.69536 3.4672
-1.39639 -1.19344 3.57049
-0.0733743 0.0271561 0.0169743
0.0706537 -0.702073 1.87933
-0.448717 -0.617256 1.608
-0.0891345 0.0326338 0.0395391
-1.81667 -0.232954 3.9432
-0.127423 -0.595469 1.25172
-0.651689 -0.856206 1.97752
-0.207524 -0.72459 2.54968
-0.156478 -0.555039 1.1424
-1.14848 -1.08507 3.09842
-0.0633319 0.0641534 0.117615
-0.987777 -0.335396 3.42667
-0.0738791 -0.646608 1.49766
-1.22713 -1.2424 3.0955
-1.69847 -0.655301 3.14787
-1.69176 -0.0998418 3.83826
-0.160743 -0.444508 1.00283
-0.592626 -0.784494 1.76605
-0.476288 -0.670962 2.26448
-1.2704 -1.11097 3.37205
-0.558483 -0.707927 1.83086
-0.338152 -0.430466 1.24187
-0.957204 -1.03375 2.69897
-1.47323 -0.862596 4.63879
-0.0898736 0.0386462 0.065172
-2.24955 -1.35289 4.14284
-0.394077 -0.638272 2.37653
-0.0521832 0.0330695 0.0214634
0.0202172 -0.727401 2.0297
-1.54158 -1.30004 3.72843
-0.379411 -0.508477 1.38011
-0.368082 -0.536659 1.24732
-1.67708 -0.209204 3.84367
-1.54309 -0.905434 4.43609
-1.02125 -1.10598 2.77744
-0.0883132 0.0332084 0.0469519
0.0873746 -0.684298 2.41811
-0.276512 -0.680756 2.2888
-0.0532119 -0.654394 1.6432
-0.875419 -0.358822 3.38013
-1.92658 -1.21748 4.05026
-0.117348 -0.666754 1.8331
-1.56051 0.00817542 3.78592
-1.3522 -1.4052 3.19265
-0.187469 -0.506874 1.05658
-1.42694 -0.939583 4.19375
-0.0803817 0.0095204 0.00187176
-0.961266 -0.96211 2.79896
-0.0525242 0.0623084 0.0805835
-0.92396 -0.910335 2.84766
-2.07631 -1.67507 4.15431
-0.556081 -0.19711 2.57315
-1.60475 -1.69627 3.56465
-0.578057 -0.588048 2.79022
-0.416886 -0.604255 1.36387
-1.97369 -0.549824 4.2697
-0.220909 -0.671507 2.21646
-0.889452 -0.943517 2.62164
-0.0767517 0.0198388 -0.00148139
-1.72424 -0.327997 3.84902
-0.242891 -0.463132 1.00292
-0.143999 -0.254728 0.60409
-0.277109 -0.469791 1.02988
-0.296149 -0.666739 2.76285
-0.768796 -1.01625 2.2223
-1.57868 -1.19566 3.90858
-0.129838 -0.518844 1.31401
-0.525757 -0.210129 2.44808
-0.136079 -0.526376 1.22583
-0.509103 -0.66309 1.80635
-1.76868 -0.91531 3.88183
-0.867756 -0.660024 4.53397
-2.22632 -1.81375 4.25269
-0.451186 -0.668911 2.60756
-0.0495878 0.00912753 -0.0261261
