ply
format ascii 1.0
element vertex 340
property float x
property float y
property float z
end_header
-0.647936 -0.838393 1.99869
-0.974514 -0.963595 2.79591
-2.47989 -1.04985 4.5788
-0.601817 -0.677613 2.00189
-0.343209 -0.568432 1.19278
-0.596506 -0.626318 2.56867
-2.08379 -1.66919 4.13445
-1.97754 -1.41246 4.35579
-0.92396 -0.910335 2.84766
-0.58085 -0.588582 2.79367
-1.61655 -1.6963 3.5493
-0.106984 -0.703105 1.51838
-0.147764 -0.634942 1.65262
-0.416886 -0.604255 1.36387
-0.481275 -0.617535 3.24507
-0.220909 -0.671507 2.21646
-1.97369 -0.549824 4.2697
-0.902889 -0.945677 2.6192
-0.0254143 -0.740898 1.58092
-1.67389 -1.54819 3.61279
-0.260318 -0.464568 1.00379
-0.240896 -0.680091 2.49568
-0.210661 -0.365416 0.959165
-0.269781 -0.664874 1.88669
-0.161305 -0.25599 0.60431
-0.980227 -0.823457 2.96554
-0.296149 -0.666739 2.76285
-0.294443 -0.471306 1.03079
-1.58998 -1.19678 3.89743
-0.784355 -1.02376 2.23496
-1.0943 -1.13103 2.87129
-0.154101 -0.526171 1.22829
-0.435089 -0.631827 3.03603
-1.91476 -0.848738 3.95466
-0.199289 -0.701523 2.38588
-0.903655 -1.07624 2.47682
-0.51864 -0.663118 1.80195
-0.0139886 -0.717055 1.95828
-0.867756 -0.660024 4.53397
-1.76868 -0.91531 3.88183
-0.145859 -0.619561 1.6891
-0.43488 -0.667775 2.63909
-2.23197 -1.80984 4.23143
-0.424265 -0.697351 1.45794
-0.193176 -0.446526 1.00637
-1.28237 -1.1048 3.36989
-1.50744 -1.40527 3.44267
0.07024 -1.17286 5.38115
0.0034789 -0.759606 2.39694
-0.338152 -0.430466 1.24187
-0.250591 -0.718424 2.27
-0.974552 -1.03545 2.69904
-1.47323 -0.862596 4.63879
-2.24955 -1.35289 4.14284
-0.00454731 -0.764446 1.77149
-0.394077 -0.638272 2.37653
0.0281411 0.0497009 -0.120806
-1.76688 -1.44357 3.90037
-2.13028 -1.29258 4.07768
-1.79495 -1.66979 3.71461
0.003821 -0.727584 2.03192
-0.379411 -0.508477 1.38011
-1.55054 -1.29036 3.72001
-0.310906 -0.650029 2.55808
-0.368082 -0.536659 1.24732
-0.537366 -0.88219 1.81347
-1.03785 -1.10756 2.77626
-1.48949 -1.19713 3.73286
-1.54309 -0.905434 4.43609
-2.48943 -1.85797 4.34251
-1.19889 -0.92819 3.3006
0.0873746 -0.684298 2.41811
-2.00607 -1.57842 4.12289
-0.276512 -0.680756 2.2888
-0.58655 -0.60439 3.27792
-1.46229 -1.50842 3.15035
-0.070989 -0.654868 1.64585
-1.63659 -0.809458 3.81891
-0.117348 -0.666754 1.8331
-0.565088 -0.634013 2.45798
-1.367 -1.40436 3.18554
-1.92658 -1.21748 4.05026
-1.25305 -0.773472 3.32301
-1.42694 -0.939583 4.19375
-1.58033 -1.27971 3.79989
-1.14247 -0.881779 3.18163
-0.896923 -1.05471 2.47583
-0.193609 -0.506906 1.05045
-1.00261 -0.939466 3.02198
-2.85693 -1.33644 5.50289
-0.377941 -0.585153 1.31203
-0.324045 -0.494947 1.1291
-0.96098 -1.00237 2.70268
-1.20004 -0.855134 3.29882
-0.530149 -0.594438 2.66955
0.0704758 -0.741712 2.72195
-1.07035 -1.17842 2.76964
-1.41976 -1.2549 3.49079
-0.404383 -0.69536 3.4672
-2.04572 -0.792443 3.99769
-0.0354417 -0.715155 1.62373
-1.0281 -1.11758 2.7295
-1.40638 -1.18548 3.56502
-3.46187 -0.927634 6.21719
-0.0439208 -0.723737 1.53718
0.0542215 -0.702739 1.88072
-0.459073 -0.616126 1.60337
-0.271895 -0.704907 2.20895
-1.11379 -1.26795 2.80062
-0.146265 -0.595052 1.25475
-0.207749 -0.49084 0.971913
-1.49912 -1.31156 3.54937
-0.207897 -0.721055 2.54858
-0.651689 -0.856206 1.97752
-0.954909 -0.831029 2.89827
-0.161937 -0.552262 1.13729
-1.16269 -1.08128 3.0978
-0.274501 -0.651948 2.55248
-0.736761 -0.914721 2.18109
-0.0923702 -0.646884 1.50058
-1.9502 -1.0204 3.97942
-1.69464 -1.29655 4.01315
-1.69847 -0.655301 3.14787
-1.24282 -1.24226 3.09146
0.0478344 -0.71308 1.96631
-0.179017 -0.444274 1.00578
-0.477016 -0.670871 2.26701
-0.592626 -0.784494 1.76605
-1.79559 -1.48682 3.88451
-1.56343 -0.818869 4.58815
-2.10041 -1.33351 4.19486
-0.323293 -0.563636 1.14158
-0.429564 -0.605579 2.31082
-1.35174 -1.3663 3.19007
-1.23728 -1.1542 3.17076
0.0673454 -0.548357 3.28148
-2.23203 -0.996937 4.47545
-0.219414 -0.34682 0.829731
-1.24191 -1.10229 3.27038
-0.392282 -0.657658 2.74348
-0.414779 -0.624328 1.35887
0.0207404 -0.693745 1.73405
-0.0123134 -0.742665 1.61467
-1.52322 -1.38845 3.50919
-1.88362 -1.34325 4.28642
-0.219098 -1.00564 4.59981
-1.81345 -1.65384 3.7659
-0.55795 -0.875201 1.81374
-0.143029 -0.515262 1.36098
-0.232345 -0.699079 2.38376
-1.54374 -0.776384 4.76384
-0.214517 -0.34982 0.804258
0.0606116 -0.652972 2.03688
-2.10574 -1.5628 4.30846
-0.546055 -0.606323 2.4308
-2.58344 -0.923188 4.62412
-0.149079 -0.2381 0.562519
-0.449852 -0.586488 1.65636
-1.68469 -1.31756 3.95271
-0.358853 -0.689094 3.03074
-1.70363 -1.62455 3.60043
-1.29591 -1.24203 3.21599
-1.49494 -1.00516 3.71252
-1.83817 -0.823746 3.90092
-0.23234 -0.736345 2.31498
-0.247732 -0.960611 4.91574
-0.578168 -0.7479 1.73054
-0.674539 -0.816024 2.2239
-0.18824 -0.45393 1.11992
-1.53749 -0.719178 2.91043
-0.34246 -0.626625 2.30689
-0.73971 -0.689153 4.68568
-0.469654 -0.663418 1.49145
-2.11835 -1.6342 4.2405
-0.454189 -0.636357 3.30482
-0.153638 -0.684487 2.31781
-0.065125 -0.683721 1.59618
-1.27749 -1.32574 3.08208
-0.753093 -0.853157 2.34553
-2.03623 -0.719349 3.98869
-0.245085 -0.386743 1.00927
-0.384409 -0.656407 2.46088
0.0892501 -0.798578 2.24665
-0.297901 -0.456784 1.09571
-0.286575 -0.579928 1.62313
-0.276553 -0.494711 1.02383
-0.470712 -0.600937 2.50882
-0.221963 -0.460637 0.916803
-0.486659 -0.655663 1.65415
-0.286887 -0.836581 2.45675
-0.543752 -0.769113 1.64738
-2.56254 -0.81581 4.60609
-0.355433 -0.716029 3.29354
0.0689328 -0.424952 3.1609
-2.54477 -1.70999 4.4745
-0.237156 -0.665985 2.26068
-2.0615 -1.76304 3.98387
-2.36533 -1.40213 4.38848
-0.623466 -0.688392 3.87827
-1.76019 -0.807245 3.85559
-1.91068 -1.48952 4.10765
-0.186819 -0.953319 3.47234
-1.1756 -1.25104 2.93905
-0.209776 -0.452971 0.915731
-0.238229 -0.465973 1.00353
-1.16439 -1.05227 3.16755
-3.80981 -1.45399 6.61831
-1.29174 -1.28947 3.14214
0.109172 -0.702894 2.43045
-1.12803 -0.844095 3.18093
-1.39826 -1.10539 3.69167
-1.28683 -1.3867 3.05423
-0.589046 -0.73796 1.91589
-1.54246 -0.881329 4.53
-0.067329 -0.66303 1.50107
-2.22686 -1.39611 4.24832
-0.210006 -0.709134 2.52758
-1.5489 -1.4594 3.32147
-2.15068 -1.60896 4.3108
-0.485363 -0.726285 4.64277
0.0307601 -0.740061 2.10817
-2.17809 -1.29488 4.13619
-0.470173 -0.613451 2.47045
-1.61102 -1.50384 3.56304
-1.74645 -1.39904 3.92555
-0.21033 -0.467383 1.00397
-0.545491 -0.8464 1.81199
-0.797803 -0.941084 2.32731
-1.59124 -1.25199 3.8708
-3.85842 -1.41739 6.79705
-1.06301 -0.887158 3.05155
-1.75943 -1.76837 3.69609
-1.91497 -1.54247 4.01265
-0.340265 -0.638503 2.11594
-0.555876 -0.613817 3.26418
-2.50087 -0.860395 4.61806
-1.88884 -1.01883 3.93647
-1.65613 -1.38148 3.77181
-2.19868 -1.40967 4.23027
-0.223415 -0.695768 2.57393
-0.728986 -0.94444 2.12859
0.0333263 -0.701116 1.88116
-0.428956 -0.644641 2.69226
-1.99578 -1.46988 4.27145
-0.72366 -0.78401 2.29924
-0.256674 -0.41521 0.953053
-0.451811 -0.772343 1.5771
-0.511923 -0.636209 3.04102
-0.250663 -0.589258 1.8029
-0.147253 -0.587965 1.36541
-1.83731 -1.59274 3.83918
0.109745 -0.408903 3.11869
-0.359364 -0.861028 4.91983
-0.308148 -0.67604 2.47801
0.0601587 -0.695823 1.73449
-0.968774 -1.18095 2.55814
-0.271454 -0.408668 1.02995
-1.99727 -0.801008 3.98947
-0.394847 -0.65229 3.11037
-0.215152 -0.885922 2.79498
0.0151477 -0.764389 1.79782
-2.11044 -1.33542 4.24777
-2.06963 -1.69535 4.08517
-0.686797 -0.727057 4.67868
-0.25328 -0.680644 2.39683
0.0141485 -0.67666 1.79623
-1.93774 -0.763351 3.95325
-2.32366 -1.72754 4.35688
-0.471481 -0.684506 1.49438
-0.936157 -0.890474 2.80731
-0.216342 -0.745785 2.81845
-0.414983 -0.629163 1.40224
-1.55121 -1.49643 3.43767
-1.31444 -1.21606 3.28201
-1.30827 -0.921978 3.4557
-0.305239 -0.70417 3.07306
0.145843 -0.709345 3.67006
-0.433057 -0.594255 1.41247
-2.19177 -1.58713 4.4076
-0.115608 -0.59308 1.42204
-0.100435 -1.04821 5.39436
-1.70918 -0.788942 3.87662
-2.60714 -1.87881 4.53272
-0.310415 -0.69497 2.01927
0.0846025 -0.689912 1.87312
-0.162066 -0.578395 1.25434
-2.25089 -1.40816 4.25033
-0.876696 -0.960721 2.52793
-0.285689 -0.686416 2.36304
-1.92164 -1.71688 3.84071
-0.372795 -0.59801 1.2901
-1.13802 -0.978253 3.22641
-1.9424 -1.51763 4.10097
-3.24222 -1.55152 5.89926
-1.88412 -1.65885 3.83544
-2.15805 -1.82363 3.99204
-0.129324 -0.609317 1.34831
-2.06171 -1.50735 4.32997
-0.246854 -0.677021 2.66612
-0.55858 -0.74372 1.80049
-1.86881 -0.917008 3.93167
-0.222712 -0.419309 1.10382
-0.318476 -0.706298 2.05759
-0.655173 -0.934204 1.98125
-1.68487 -1.47886 3.69115
-0.47318 -0.642004 3.01776
0.125193 -0.687864 2.2148
-0.200516 -0.723819 2.38325
-0.828902 -1.02677 2.33439
-1.46005 -1.31225 3.46472
-0.605195 -0.553845 3.07796
-0.444992 -0.696482 1.51447
-0.193961 -0.772063 2.80266
-0.51889 -0.683967 1.60346
-1.11453 -1.07114 2.98253
-0.170271 -0.461544 1.0064
-2.09823 -1.28718 4.11951
-1.19779 -1.23301 2.99956
-0.309384 -0.566147 1.62391
-0.46296 -0.63094 2.77738
-1.59171 -1.55697 3.40487
-1.46289 -1.00369 3.71206
-2.0477 -0.669173 3.98779
-1.1867 -1.18093 3.02661
-0.357551 -0.698414 2.17304
-0.534336 -0.601806 2.96465
-0.173595 -0.292615 0.649528
-0.0522228 -0.660196 1.50025
-2.05401 -1.57149 4.20366
-0.385192 -0.661112 2.3834
-0.81092 -0.689376 4.58308
-0.354682 -0.536096 1.26502
-0.0773457 -0.656204 1.71758
-1.85195 -1.45091 4.06294
-0.383701 -0.663472 2.6206
-1.81706 -1.15664 3.96526
-2.21923 -1.7495 4.26105
-0.789044 -1.12413 2.30841
-0.49682 -0.62595 2.84973
-1.18354 -1.04267 3.23826
